79.7734,-44.3513,-4.49191,0
79.803,-44.0627,-4.48741,0
79.8295,-43.767,-4.48199,0
79.8562,-43.4617,-4.47574,0
80.0273,-43.0488,-4.4747,0
80.2072,-42.609,-4.47281,0
80.3943,-42.1412,-4.46984,0
80.5892,-41.6427,-4.4657,0
80.7927,-41.1103,-4.46024,0
81.3119,-40.2789,-4.46436,0
81.9881,-39.2501,-4.47092,0
83.7216,-37.1582,-4.50827,174
82.816,-37.4795,-4.45585,174
82.7995,-36.9466,-4.43065,174
77.5302,-69.8581,-2.09994,174
92.5117,-66.3564,-3.84255,174
92.4973,-65.565,-3.91908,174
90.8022,-63.6041,-3.99854,0
89.5477,-62.0795,-4.06307,0
89.0379,-61.1376,-4.11833,0
88.7198,-60.3632,-4.16876,0
88.1474,-59.4757,-4.21297,0
86.8134,-58.2156,-4.24417,0
85.9313,-57.2829,-4.27233,0
85.14,-56.4567,-4.29581,0
84.5245,-55.7663,-4.31708,0
84.1432,-55.2211,-4.33871,0
83.7802,-54.7112,-4.3578,0
83.3638,-54.2064,-4.37298,0
82.9012,-53.7123,-4.38431,0
82.4941,-53.2656,-4.39442,0
82.315,-52.9148,-4.40857,0
82.169,-52.5863,-4.42221,0
82.014,-52.2663,-4.43423,0
81.8593,-51.9571,-4.44498,0
81.7049,-51.6582,-4.45451,0
81.5398,-51.367,-4.4625,0
81.3622,-51.0837,-4.4689,0
81.1864,-50.8108,-4.47426,0
81.0123,-50.5478,-4.47865,0
80.8401,-50.2942,-4.4821,0
80.6695,-50.0497,-4.48468,0
80.5448,-49.8161,-4.48826,0
80.4291,-49.5888,-4.49142,0
80.3123,-49.3671,-4.49382,0
80.1948,-49.1508,-4.49547,0
80.0765,-48.9397,-4.49639,0
79.9575,-48.7335,-4.49663,0
79.8378,-48.5323,-4.49619,0
79.7637,-48.3307,-4.49723,0
79.7598,-48.1222,-4.50096,0
79.753,-47.9131,-4.50406,0
79.7434,-47.7033,-4.50655,0
79.7308,-47.4928,-4.5084,0
79.7153,-47.2816,-4.50959,0
79.6969,-47.0697,-4.51014,0
79.6755,-46.857,-4.51004,0
79.651,-46.6435,-4.50928,0
79.6235,-46.4292,-4.50785,0
79.593,-46.2141,-4.50574,0
79.54,-46.0053,-4.50204,0
79.5527,-45.7689,-4.50092,0
79.6005,-45.5126,-4.50086,0
79.6458,-45.2503,-4.50007,0
79.6885,-44.9816,-4.49852,0
79.7284,-44.7065,-4.49614,0
79.7652,-44.4247,-4.49292,0
79.7955,-44.1379,-4.48865,0
79.823,-43.844,-4.48349,0
79.8473,-43.5427,-4.47735,0
79.9819,-43.1581,-4.47504,0
80.1601,-42.725,-4.4734,0
80.3452,-42.2647,-4.47072,0
80.5381,-41.7744,-4.46689,0
80.7394,-41.2511,-4.46178,0
81.1523,-40.5203,-4.46263,0
81.8041,-39.5308,-4.46925,0
83.8119,-37.2168,-4.51725,174
82.8833,-37.5523,-4.46402,174
82.7719,-37.1187,-4.43641,174
77.3136,-69.8796,-1.9135,174
77.8228,-69.8593,-1.97588,174
81.5704,-67.5811,-2.6812,174
90.4153,-70.9298,-2.9946,0
90.1672,-69.713,-3.11885,0
90.1998,-68.8448,-3.22119,0
89.9666,-67.7589,-3.32806,0
89.6179,-66.623,-3.43102,0
88.9934,-65.3072,-3.53393,0
88.3625,-64.0646,-3.62701,0
88.3195,-63.3655,-3.69801,0
87.9365,-62.4337,-3.77104,0
87.8229,-61.7463,-3.83388,0
87.7022,-61.0812,-3.89281,0
87.3336,-60.2782,-3.94996,0
85.962,-58.885,-4.00705,0
85.2764,-58.0016,-4.05227,0
84.5955,-57.175,-4.09154,0
84.0373,-56.4655,-4.1257,0
83.7578,-55.9395,-4.1569,0
83.4455,-55.4224,-4.18491,0
83.1338,-54.9304,-4.21003,0
82.7063,-54.4131,-4.23099,0
82.3041,-53.9349,-4.2493,0
81.9344,-53.4953,-4.26541,0
81.7777,-53.1537,-4.28294,0
81.6474,-52.8329,-4.29944,0
81.5164,-52.5224,-4.31454,0
81.3846,-52.2216,-4.32829,0
81.2522,-51.9303,-4.34077,0
81.1002,-51.6438,-4.35154,0
80.9451,-51.3664,-4.36104,0
80.7909,-51.0985,-4.36943,0
80.6375,-50.84,-4.37675,0
80.4848,-50.5902,-4.38307,0
80.333,-50.3488,-4.38844,0
80.227,-50.1194,-4.39439,0
80.1243,-49.8958,-4.39963,0
80.0202,-49.6774,-4.40406,0
79.9151,-49.4641,-4.40772,0
79.8088,-49.2557,-4.41063,0
79.6927,-49.0524,-4.41247,0
79.5698,-48.8543,-4.41339,0
79.4655,-48.6601,-4.41435,0
79.4287,-48.4632,-4.41729,0
79.416,-48.2643,-4.42063,0
79.41,-48.0638,-4.42372,0
79.4012,-47.8627,-4.4262,0
79.3895,-47.6611,-4.42804,0
79.375,-47.4588,-4.42925,0
79.3576,-47.2559,-4.42984,0
79.3372,-47.0523,-4.42978,0
79.3139,-46.8481,-4.42907,0
79.2877,-46.6432,-4.42771,0
79.2571,-46.438,-4.42563,0
79.1952,-46.2425,-4.42175,0
79.1301,-46.0478,-4.4172,0
79.1107,-45.8336,-4.41391,0
79.148,-45.5912,-4.41227,0
79.1827,-45.3434,-4.40986,0
79.2143,-45.0902,-4.40667,0
79.243,-44.8313,-4.40266,0
79.2686,-44.5666,-4.39779,0
79.2909,-44.2959,-4.39201,0
79.3096,-44.0191,-4.3853,0
79.3284,-43.7335,-4.37775,0
79.3613,-43.429,-4.36975,0
79.5287,-43.0173,-4.36507,0
79.7019,-42.5797,-4.35918,0
79.8658,-42.1265,-4.35146,0
80.0266,-41.6518,-4.34202,0
80.1928,-41.1469,-4.33093,0
80.6085,-40.3888,-4.32397,0
81.1507,-39.4602,-4.31674,0
82.7974,-37.3728,-4.32794,174
83.7448,-35.8374,-4.31702,174
77.6757,-69.8202,-1.96441,174
80.9259,-77.3151,-1.27191,0
81.4803,-67.6719,-2.66072,174
90.5044,-71.2834,-2.95945,0
90.1512,-69.9354,-3.09181,0
90.1958,-69.0696,-3.19517,0
90.1952,-68.1967,-3.29447,0
89.7115,-66.9134,-3.40515,0
89.3252,-65.7902,-3.50304,0
88.3711,-64.2475,-3.60806,0
88.3321,-63.5444,-3.68007,0
88.0409,-62.6737,-3.7527,0
87.853,-61.9215,-3.81804,0
87.734,-61.2507,-3.87797,0
87.5449,-60.5591,-3.93468,0
86.1389,-59.1221,-3.99436,0
85.4668,-58.2324,-4.04115,0
84.7549,-57.3739,-4.08195,0
84.1708,-56.6387,-4.11731,0
83.8291,-56.0725,-4.14913,0
83.5281,-55.5543,-4.17798,0
83.213,-55.0544,-4.2038,0
82.8142,-54.5427,-4.22585,0
82.4055,-54.0547,-4.24482,0
81.9859,-53.5898,-4.2608,0
81.8111,-53.2382,-4.27844,0
81.6812,-52.9147,-4.29532,0
81.5503,-52.6016,-4.31077,0
81.4187,-52.2983,-4.32486,0
81.2864,-52.0046,-4.33766,0
81.1402,-51.717,-4.34889,0
80.9851,-51.437,-4.3587,0
80.8307,-51.1668,-4.36737,0
80.677,-50.9058,-4.37496,0
80.5241,-50.6538,-4.38154,0
80.3721,-50.4103,-4.38715,0
80.2534,-50.1779,-4.3929,0
80.1509,-49.953,-4.39835,0
80.0472,-49.7333,-4.403,0
79.9423,-49.5187,-4.40685,0
79.8363,-49.309,-4.40995,0
79.7244,-49.1043,-4.41213,0
79.6016,-48.905,-4.41321,0
79.478,-48.7108,-4.41361,0
79.4384,-48.5139,-4.41659,0
79.417,-48.3159,-4.41973,0
79.4118,-48.1156,-4.42299,0
79.4037,-47.9147,-4.42561,0
79.3928,-47.7132,-4.42762,0
79.379,-47.511,-4.42901,0
79.3623,-47.3083,-4.42975,0
79.3428,-47.1049,-4.42986,0
79.3202,-46.9009,-4.42931,0
79.2948,-46.6961,-4.42812,0
79.2662,-46.4907,-4.42627,0
79.2115,-46.2929,-4.42281,0
79.1472,-46.0979,-4.41843,0
79.1006,-45.8953,-4.41421,0
79.1387,-45.6542,-4.41276,0
79.174,-45.4079,-4.41055,0
79.2064,-45.156,-4.40758,0
79.2359,-44.8986,-4.40378,0
79.2623,-44.6354,-4.39913,0
79.2854,-44.3663,-4.39359,0
79.3051,-44.0911,-4.38712,0
79.3234,-43.8082,-4.37977,0
79.3417,-43.5161,-4.37153,0
79.4849,-43.1259,-4.36639,0
79.6566,-42.6952,-4.36083,0
79.8252,-42.2444,-4.35366,0
79.9845,-41.7771,-4.34461,0
80.1494,-41.2802,-4.33395,0
80.4728,-40.6146,-4.32535,0
81.0161,-39.701,-4.31909,0
81.5624,-38.7198,-4.309,0
82.749,-37.0135,-4.30648,174
77.5496,-69.8409,-1.94676,174
80.7066,-77.2177,-1.26073,0
90.5878,-71.6361,-2.92386,0
90.132,-70.1568,-3.06453,0
90.1887,-69.294,-3.16886,0
90.1994,-68.4223,-3.26925,0
89.8013,-67.2045,-3.37884,0
89.4278,-66.0766,-3.47849,0
88.3787,-64.4314,-3.58883,0
88.3436,-63.7243,-3.66187,0
88.1657,-62.9329,-3.73353,0
87.8824,-62.0983,-3.80195,0
87.7653,-61.4218,-3.86288,0
87.6414,-60.7671,-3.91998,0
86.4666,-59.4602,-3.98026,0
85.6405,-58.4569,-4.02967,0
84.932,-57.5863,-4.072,0
84.3157,-56.8209,-4.10864,0
83.9009,-56.2073,-4.14117,0
83.6116,-55.6885,-4.17086,0
83.2931,-55.1805,-4.1974,0
82.9239,-54.675,-4.22052,0
82.5086,-54.177,-4.24017,0
82.0957,-53.7077,-4.25696,0
81.8445,-53.3234,-4.27386,0
81.7148,-52.9972,-4.29111,0
81.5841,-52.6814,-4.30692,0
81.4527,-52.3756,-4.32135,0
81.3206,-52.0795,-4.33448,0
81.1804,-51.7908,-4.34617,0
81.025,-51.5083,-4.35628,0
80.8704,-51.2356,-4.36524,0
80.7166,-50.9723,-4.3731,0
80.5635,-50.718,-4.37993,0
80.4113,-50.4724,-4.38578,0
80.2796,-50.2369,-4.39135,0
80.1774,-50.0105,-4.39703,0
80.0741,-49.7895,-4.40187,0
79.9695,-49.5736,-4.40593,0
79.8637,-49.3627,-4.40922,0
79.7559,-49.1566,-4.41172,0
79.6333,-48.9559,-4.413,0
79.5099,-48.7604,-4.41358,0
79.448,-48.5647,-4.41586,0
79.418,-48.3675,-4.41879,0
79.4134,-48.1673,-4.4222,0
79.406,-47.9666,-4.425,0
79.3959,-47.7652,-4.42717,0
79.3828,-47.5633,-4.42871,0
79.367,-47.3607,-4.42962,0
79.348,-47.1575,-4.42989,0
79.3263,-46.9536,-4.42951,0
79.3016,-46.749,-4.42849,0
79.2739,-46.5438,-4.42681,0
79.2275,-46.3433,-4.42383,0
79.1641,-46.1482,-4.41963,0
79.0975,-45.9538,-4.41476,0
79.1291,-45.7169,-4.4132,0
79.1651,-45.472,-4.41119,0
79.1984,-45.2216,-4.40842,0
79.2287,-44.9656,-4.40484,0
79.2558,-44.7039,-4.40041,0
79.2798,-44.4363,-4.3951,0
79.3003,-44.1627,-4.38888,0
79.3181,-43.8824,-4.38174,0
79.3373,-43.5922,-4.37376,0
79.4416,-43.2328,-4.36764,0
79.6116,-42.8089,-4.36238,0
79.7849,-42.3604,-4.35576,0
79.943,-41.9004,-4.3471,0
80.1062,-41.4114,-4.33686,0
80.3415,-40.8325,-4.32661,0
80.8755,-39.9432,-4.32105,0
81.4149,-38.9858,-4.31186,0
82.7659,-37.1396,-4.31407,174
77.3374,-69.8757,-1.759,174
77.8919,-69.9859,-1.80605,174
79.6998,-73.4278,-1.49582,0
80.3037,-73.3743,-1.56968,0
80.8998,-73.2824,-1.64669,0
81.492,-73.1661,-1.72517,0
82.0509,-72.9662,-1.81068,0
82.5352,-72.6131,-1.9091,0
82.975,-72.1863,-2.01201,0
83.3916,-71.7341,-2.11465,0
81.497,-67.4142,-2.54354,174
81.9175,-67.1908,-2.61163,174
84.4798,-70.2206,-2.41979,0
84.7934,-69.6819,-2.5187,0
80.0039,-62.1193,-3.1347,174
80.2857,-61.9009,-3.18574,174
85.7041,-68.1388,-2.79374,0
85.7345,-67.3278,-2.89978,0
85.8018,-66.6005,-2.9964,0
85.8598,-65.8967,-3.08795,0
85.9652,-65.2738,-3.17136,0
86.0727,-64.6772,-3.25033,0
86.1555,-64.0782,-3.32655,0
86.2141,-63.4789,-3.39993,0
86.1884,-62.8272,-3.47282,0
86.0998,-62.1495,-3.54363,0
86.0678,-61.5458,-3.60819,0
86.0695,-60.9903,-3.66814,0
85.3002,-59.8937,-3.74282,0
84.7459,-59.0154,-3.80487,0
84.2716,-58.2416,-3.85923,0
83.7609,-57.4885,-3.90867,0
83.3751,-56.8537,-3.95159,0
83.1427,-56.3396,-3.98919,0
82.915,-55.8514,-4.0237,0
82.6406,-55.3613,-4.05548,0
82.2627,-54.8449,-4.08435,0
81.8438,-54.3379,-4.10992,0
81.5168,-53.8989,-4.13276,0
81.3468,-53.5454,-4.15408,0
81.2052,-53.2164,-4.17384,0
81.097,-52.9107,-4.19237,0
80.987,-52.6141,-4.20948,0
80.8756,-52.3262,-4.22526,0
80.7466,-52.0423,-4.2395,0
80.6127,-51.7664,-4.2524,0
80.4787,-51.4996,-4.2641,0
80.3445,-51.2415,-4.27465,0
80.2102,-50.9917,-4.28411,0
80.0759,-50.7499,-4.29254,0
79.9654,-50.5189,-4.30053,0
79.8759,-50.2965,-4.30815,0
79.7847,-50.0791,-4.31491,0
79.682,-49.8659,-4.32058,0
79.575,-49.6577,-4.32537,0
79.4669,-49.4548,-4.32937,0
79.3576,-49.2568,-4.33261,0
79.2472,-49.0638,-4.33512,0
79.1808,-48.8732,-4.33829,0
79.1486,-48.6826,-4.34192,0
79.1138,-48.4931,-4.3449,0
79.0956,-48.3022,-4.34787,0
79.0891,-48.1095,-4.35067,0
79.0799,-47.9162,-4.35288,0
79.0678,-47.7224,-4.35445,0
79.0529,-47.528,-4.35542,0
79.0352,-47.3331,-4.35575,0
79.0146,-47.1377,-4.35546,0
78.9912,-46.9417,-4.35452,0
78.9647,-46.745,-4.35293,0
78.9086,-46.5568,-4.34984,0
78.849,-46.3696,-4.34607,0
78.7864,-46.1832,-4.34165,0
78.7208,-45.9976,-4.33658,0
78.7205,-45.7825,-4.33301,0
78.7474,-45.5504,-4.32964,0
78.7712,-45.3136,-4.32549,0
78.7921,-45.0719,-4.32053,0
78.8098,-44.8253,-4.31473,0
78.8239,-44.5735,-4.30805,0
78.8363,-44.3155,-4.3005,0
78.8486,-44.0497,-4.2921,0
78.8571,-43.7779,-4.28268,0
78.8618,-43.5001,-4.27221,0
78.9841,-43.1247,-4.26333,0
79.1236,-42.7171,-4.25336,0
79.2669,-42.2854,-4.24184,0
79.4141,-41.8273,-4.22863,0
79.5652,-41.3405,-4.21353,0
79.796,-40.7514,-4.19731,0
80.1908,-39.9637,-4.18008,0
80.6291,-39.0766,-4.15935,0
77.6979,-69.8115,-1.81008,174
79.5316,-73.4043,-1.48066,0
80.1495,-73.3941,-1.55007,0
80.7462,-73.3084,-1.62667,0
81.3396,-73.1984,-1.70479,0
81.912,-73.0296,-1.78761,0
82.418,-72.7188,-1.88254,0
82.8637,-72.2989,-1.98547,0
83.2864,-71.853,-2.0882,0
81.3836,-67.4631,-2.52652,174
81.7998,-67.2339,-2.59539,174
84.399,-70.3635,-2.39349,0
84.7023,-69.8039,-2.49476,0
85.0467,-69.3242,-2.58712,0
80.2015,-61.9419,-3.17378,174
85.6456,-68.291,-2.76965,0
85.7303,-67.5374,-2.8728,0
85.782,-66.782,-2.97222,0
85.8476,-66.0783,-3.06467,0
85.9333,-65.4271,-3.15056,0
86.0474,-64.8315,-3.23021,0
86.1365,-64.2329,-3.30715,0
86.2012,-63.6334,-3.38128,0
86.208,-63.0043,-3.45391,0
86.1245,-62.3231,-3.52574,0
86.0648,-61.6903,-3.59226,0
86.0705,-61.133,-3.65294,0
85.5227,-60.1875,-3.72381,0
84.8851,-59.2344,-3.78956,0
84.358,-58.413,-3.84635,0
83.8892,-57.6763,-3.89648,0
83.4359,-56.9908,-3.94135,0
83.2021,-56.4697,-3.97979,0
82.9733,-55.975,-4.01508,0
82.717,-55.4884,-4.04755,0
82.3581,-54.9744,-4.07721,0
81.9505,-54.4653,-4.10363,0
81.5609,-53.9926,-4.12696,0
81.3905,-53.6352,-4.14876,0
81.2328,-53.2967,-4.16883,0
81.125,-52.9887,-4.18772,0
81.0155,-52.6898,-4.2052,0
80.9044,-52.3996,-4.22132,0
80.781,-52.1149,-4.23597,0
80.6473,-51.8367,-4.24919,0
80.5133,-51.5676,-4.26119,0
80.3791,-51.3073,-4.27203,0
80.2448,-51.0554,-4.28177,0
80.1105,-50.8115,-4.29046,0
79.9883,-50.5772,-4.29841,0
79.8991,-50.3534,-4.30627,0
79.8084,-50.1347,-4.31325,0
79.7093,-49.9205,-4.31922,0
79.6027,-49.711,-4.32421,0
79.4949,-49.5066,-4.32842,0
79.3859,-49.3074,-4.33185,0
79.2758,-49.1132,-4.33454,0
79.1887,-48.9226,-4.33726,0
79.1572,-48.7317,-4.34104,0
79.1231,-48.5419,-4.34419,0
79.0969,-48.3519,-4.34704,0
79.091,-48.1593,-4.35001,0
79.0825,-47.9661,-4.35236,0
79.0713,-47.7725,-4.3541,0
79.057,-47.5782,-4.35522,0
79.0401,-47.3835,-4.35572,0
79.0202,-47.1882,-4.35559,0
78.9975,-46.9923,-4.35482,0
78.9718,-46.7958,-4.35341,0
78.9235,-46.6053,-4.3507,0
78.8647,-46.4178,-4.34711,0
78.8029,-46.2312,-4.34285,0
78.738,-46.0454,-4.33796,0
78.7131,-45.8417,-4.33376,0
78.7408,-45.6108,-4.33057,0
78.7654,-45.3752,-4.32664,0
78.787,-45.1348,-4.32189,0
78.8055,-44.8894,-4.31632,0
78.8206,-44.639,-4.30986,0
78.8326,-44.3831,-4.30252,0
78.8457,-44.1188,-4.29436,0
78.8552,-43.8487,-4.2852,0
78.8609,-43.5724,-4.27502,0
78.9485,-43.2262,-4.26567,0
79.0873,-42.8245,-4.25608,0
79.2295,-42.3992,-4.24497,0
79.3757,-41.9482,-4.2322,0
79.5258,-41.469,-4.21761,0
79.6838,-40.9559,-4.20104,0
80.085,-40.1758,-4.18482,0
80.5113,-39.3161,-4.16507,0
77.5696,-69.8255,-1.79331,174
79.3508,-73.3431,-1.46958,0
79.9951,-73.4123,-1.53057,0
80.5926,-73.3329,-1.60675,0
81.1869,-73.2291,-1.68449,0
81.7719,-73.0903,-1.76468,0
82.2994,-72.8226,-1.85599,0
82.7509,-72.4098,-1.95891,0
83.1796,-71.9705,-2.06174,0
81.3238,-67.6043,-2.50145,174
81.6738,-67.2627,-2.58028,174
82.1548,-67.1347,-2.63994,174
84.6266,-69.9498,-2.46881,0
84.9605,-69.4503,-2.56334,0
80.1397,-62.0127,-3.1596,174
85.5754,-68.4295,-2.74633,0
85.7237,-67.7469,-2.84554,0
85.7602,-66.9634,-2.9478,0
85.8335,-66.2599,-3.04114,0
85.8996,-65.5802,-3.12958,0
86.0204,-64.9855,-3.20991,0
86.1158,-64.3875,-3.28757,0
86.1867,-63.7881,-3.36242,0
86.2262,-63.1821,-3.43474,0
86.1479,-62.4976,-3.50758,0
86.0607,-61.8351,-3.57614,0
86.0706,-61.2761,-3.63756,0
85.9409,-60.632,-3.69923,0
85.027,-59.4586,-3.77378,0
84.4283,-58.5758,-3.83347,0
84.0198,-57.8686,-3.8839,0
83.5266,-57.1478,-3.93054,0
83.2619,-56.6015,-3.97019,0
83.0319,-56.1003,-4.00626,0
82.7863,-55.6134,-4.03944,0
82.455,-55.1065,-4.06987,0
82.0591,-54.5954,-4.09714,0
81.6484,-54.1062,-4.12117,0
81.4343,-53.7259,-4.14331,0
81.2652,-53.3796,-4.16374,0
81.153,-53.0673,-4.18299,0
81.044,-52.766,-4.20082,0
80.9333,-52.4737,-4.21728,0
80.8155,-52.1883,-4.23235,0
80.6818,-51.9076,-4.2459,0
80.5479,-51.6362,-4.25821,0
80.4137,-51.3736,-4.26935,0
80.2794,-51.1196,-4.27936,0
80.1452,-50.8737,-4.28831,0
80.011,-50.6357,-4.29625,0
79.9223,-50.4107,-4.30432,0
79.8319,-50.1907,-4.31153,0
79.7366,-49.9754,-4.3178,0
79.6304,-49.7645,-4.323,0
79.5228,-49.5589,-4.3274,0
79.4141,-49.3584,-4.33103,0
79.3043,-49.1628,-4.33392,0
79.1964,-48.972,-4.33617,0
79.1655,-48.7809,-4.34012,0
79.132,-48.5908,-4.34343,0
79.0979,-48.4015,-4.34617,0
79.0929,-48.209,-4.3493,0
79.085,-48.016,-4.35182,0
79.0744,-47.8225,-4.35371,0
79.0609,-47.6284,-4.35499,0
79.0447,-47.4338,-4.35566,0
79.0256,-47.2386,-4.35568,0
79.0036,-47.0429,-4.35508,0
78.9787,-46.8466,-4.35383,0
78.9381,-46.6538,-4.35153,0
78.8802,-46.4662,-4.34808,0
78.8191,-46.2793,-4.34401,0
78.755,-46.0933,-4.33928,0
78.7055,-45.9005,-4.33445,0
78.7339,-45.6708,-4.33148,0
78.7594,-45.4364,-4.32773,0
78.7818,-45.1973,-4.3232,0
78.8011,-44.9532,-4.31783,0
78.8169,-44.7041,-4.31161,0
78.8295,-44.4498,-4.30449,0
78.8427,-44.1876,-4.29656,0
78.8532,-43.919,-4.28767,0
78.8598,-43.6442,-4.27776,0
78.9134,-43.3263,-4.26792,0
79.0512,-42.9304,-4.25869,0
79.1925,-42.5113,-4.24799,0
79.3376,-42.0671,-4.23567,0
79.4866,-41.5955,-4.22157,0
79.6362,-41.0974,-4.20544,0
79.982,-40.3816,-4.18935,0
80.3969,-39.548,-4.17052,0
77.2837,-69.6313,-1.63324,0
77.7906,-69.6211,-1.69182,0
78.2948,-69.5835,-1.7529,0
78.8041,-69.5419,-1.81367,0
79.3103,-69.4761,-1.87636,0
79.8094,-69.3798,-1.94149,0
80.2891,-69.2309,-2.01115,0
80.7586,-69.055,-2.0824,0
81.2165,-68.8522,-2.15505,0
81.6614,-68.6233,-2.22886,0
81.4335,-67.2646,-2.40671,174
81.8652,-67.0663,-2.47197,174
82.6509,-67.3997,-2.48925,0
82.8569,-66.8395,-2.58459,0
79.8645,-61.9001,-3.03978,174
80.1808,-61.737,-3.0859,174
80.5727,-61.6642,-3.12421,174
83.5711,-64.7005,-2.92919,0
83.7277,-64.1931,-3.00663,0
83.8654,-63.6837,-3.08174,0
83.9868,-63.1758,-3.15429,0
84.1059,-62.6834,-3.22341,0
84.2081,-62.1913,-3.29022,0
84.2938,-61.7003,-3.35466,0
84.3637,-61.2114,-3.41673,0
84.3666,-60.6825,-3.47868,0
83.7997,-59.7193,-3.55997,0
83.4811,-59.0037,-3.62452,0
83.2859,-58.4159,-3.67979,0
82.9207,-57.7381,-3.73587,0
82.7065,-57.1966,-3.78325,0
82.519,-56.6972,-3.82645,0
82.3334,-56.221,-3.86644,0
82.0978,-55.7376,-3.90424,0
81.7103,-55.1954,-3.94095,0
81.3453,-54.6948,-3.97376,0
81.0887,-54.2736,-4.00244,0
80.9455,-53.924,-4.02794,0
80.8027,-53.5881,-4.05153,0
80.6756,-53.2711,-4.07332,0
80.5867,-52.9795,-4.09353,0
80.4955,-52.696,-4.11235,0
80.3872,-52.4154,-4.12975,0
80.2738,-52.1422,-4.14582,0
80.1593,-51.8774,-4.1606,0
80.0439,-51.6207,-4.17417,0
79.9277,-51.3718,-4.18658,0
79.8106,-51.1305,-4.19788,0
79.6913,-50.8962,-4.20811,0
79.6039,-50.674,-4.21782,0
79.5148,-50.457,-4.22663,0
79.4238,-50.2451,-4.23453,0
79.331,-50.0382,-4.2416,0
79.2366,-49.8361,-4.24784,0
79.1405,-49.6387,-4.25329,0
79.0431,-49.446,-4.25797,0
78.9442,-49.2579,-4.2619,0
78.9122,-49.0722,-4.26666,0
78.8844,-48.8874,-4.27093,0
78.854,-48.7036,-4.27457,0
78.8211,-48.5209,-4.2776,0
78.7982,-48.3375,-4.28031,0
78.7912,-48.1519,-4.28286,0
78.7817,-47.9658,-4.28482,0
78.7692,-47.7793,-4.28617,0
78.7541,-47.5923,-4.28691,0
78.7363,-47.4048,-4.28703,0
78.7154,-47.2168,-4.28653,0
78.6918,-47.0284,-4.2854,0
78.642,-46.8467,-4.28305,0
78.5877,-46.6663,-4.28003,0
78.5302,-46.4867,-4.27637,0
78.4699,-46.3079,-4.27208,0
78.4066,-46.1299,-4.26716,0
78.3404,-45.9527,-4.26159,0
78.355,-45.7371,-4.25732,0
78.3725,-45.5148,-4.2524,0
78.3869,-45.2882,-4.24673,0
78.3979,-45.0574,-4.2402,0
78.4057,-44.8222,-4.23283,0
78.4145,-44.5797,-4.22466,0
78.4196,-44.3322,-4.21555,0
78.4212,-44.0798,-4.20548,0
78.4187,-43.8221,-4.1944,0
78.4123,-43.5592,-4.18226,0
78.4822,-43.2275,-4.16994,0
78.5929,-42.8472,-4.1566,0
78.705,-42.4461,-4.1416,0
78.8187,-42.0226,-4.12478,0
78.9051,-41.602,-4.10589,0
78.9808,-41.1695,-4.08495,0
79.2484,-40.5156,-4.06137,0
77.6602,-69.6267,-1.67641,0
78.165,-69.5956,-1.73694,0
78.6727,-69.5543,-1.79787,0
79.1802,-69.4957,-1.85997,0
79.6823,-69.4093,-1.92428,0
80.1662,-69.272,-1.99301,0
80.6385,-69.103,-2.06388,0
81.0995,-68.907,-2.13618,0
81.5479,-68.6848,-2.20971,0
81.3376,-67.3415,-2.38726,174
81.7592,-67.1267,-2.45439,174
82.5938,-67.543,-2.46427,0
82.8059,-66.9847,-2.56021,0
79.8034,-61.9701,-3.02542,174
80.1839,-61.8922,-3.06493,174
80.4515,-61.6587,-3.11625,174
83.5276,-64.831,-2.90883,0
83.689,-64.3242,-2.98687,0
83.8316,-63.8153,-3.06258,0
83.9557,-63.3052,-3.13591,0
84.0769,-62.8105,-3.2058,0
84.1833,-62.3182,-3.27321,0
84.2733,-61.8268,-3.33826,0
84.3472,-61.3373,-3.40094,0
84.4055,-60.8505,-3.46123,0
83.9419,-59.9587,-3.53993,0
83.5312,-59.16,-3.60958,0
83.3363,-58.5649,-3.66593,0
83.0252,-57.9165,-3.72158,0
82.7551,-57.3294,-3.77155,0
82.5672,-56.8237,-3.81563,0
82.3811,-56.3418,-3.85641,0
82.1844,-55.8749,-3.89436,0
81.8081,-55.3311,-3.93187,0
81.4374,-54.8202,-3.96564,0
81.1257,-54.3661,-3.99554,0
80.9824,-54.0129,-4.02154,0
80.8395,-53.6735,-4.04561,0
80.6982,-53.3476,-4.06787,0
80.6099,-53.054,-4.08844,0
80.5193,-52.7684,-4.10762,0
80.4162,-52.4873,-4.1254,0
80.3032,-52.2119,-4.1418,0
80.189,-51.9449,-4.15691,0
80.0737,-51.6862,-4.17078,0
79.9577,-51.4353,-4.18349,0
79.8409,-51.1921,-4.19507,0
79.7178,-50.9552,-4.20551,0
79.6266,-50.7308,-4.2154,0
79.538,-50.5125,-4.22444,0
79.4474,-50.2993,-4.23258,0
79.3552,-50.0911,-4.23986,0
79.2612,-49.8878,-4.24632,0
79.1655,-49.6892,-4.25196,0
79.0684,-49.4953,-4.25684,0
78.9698,-49.306,-4.26095,0
78.9189,-49.12,-4.26546,0
78.8918,-48.935,-4.26989,0
78.862,-48.751,-4.2737,0
78.8298,-48.5679,-4.27688,0
78.7995,-48.3854,-4.27955,0
78.7933,-48.1999,-4.28226,0
78.7844,-48.0139,-4.28437,0
78.7727,-47.8275,-4.28588,0
78.7583,-47.6406,-4.28677,0
78.7411,-47.4532,-4.28706,0
78.7211,-47.2654,-4.28672,0
78.6982,-47.0771,-4.28575,0
78.6556,-46.8934,-4.28373,0
78.602,-46.7128,-4.28087,0
78.5453,-46.533,-4.27737,0
78.4858,-46.3539,-4.27324,0
78.4233,-46.1757,-4.26848,0
78.3578,-45.9983,-4.26309,0
78.3501,-45.7938,-4.25845,0
78.3683,-45.5725,-4.25375,0
78.3834,-45.3471,-4.24827,0
78.3954,-45.1174,-4.24196,0
78.404,-44.8834,-4.23482,0
78.4126,-44.6427,-4.22686,0
78.4187,-44.3966,-4.21799,0
78.4212,-44.1454,-4.20818,0
78.4197,-43.8891,-4.19736,0
78.4144,-43.6275,-4.1855,0
78.4539,-43.3225,-4.17313,0
78.5641,-42.9473,-4.1602,0
78.676,-42.5517,-4.14564,0
78.7892,-42.1341,-4.1293,0
78.8852,-41.7103,-4.11096,0
78.9614,-41.283,-4.09055,0
79.1469,-40.7215,-4.06784,0
77.5295,-69.6306,-1.66116,0
78.035,-69.6061,-1.72111,0
78.541,-69.5649,-1.78223,0
79.0497,-69.5135,-1.84373,0
79.5533,-69.4343,-1.90748,0
80.0427,-69.3112,-1.97499,0
80.5177,-69.1492,-2.04545,0
80.9817,-68.9602,-2.1174,0
81.4335,-68.7446,-2.19064,0
81.3426,-67.5923,-2.35121,174
81.6303,-67.1494,-2.44021,174
82.1299,-67.0553,-2.49553,174
82.7535,-67.1294,-2.53569,0
79.7868,-62.1034,-3.00563,174
80.0085,-61.8094,-3.06316,174
80.3565,-61.6855,-3.10576,174
83.4828,-64.9612,-2.88833,0
83.6492,-64.4553,-2.96695,0
83.7966,-63.9468,-3.04327,0
83.9254,-63.4369,-3.11721,0
84.0466,-62.9376,-3.18802,0
84.1574,-62.4452,-3.25604,0
84.2516,-61.9535,-3.3217,0
84.3296,-61.4634,-3.385,0
84.392,-60.9759,-3.4459,0
84.087,-60.2044,-3.51926,0
83.5814,-59.3182,-3.59434,0
83.3866,-58.7158,-3.65179,0
83.1312,-58.0988,-3.7069,0
82.8038,-57.4639,-3.75962,0
82.6155,-56.9519,-3.80458,0
82.4289,-56.464,-3.84619,0
82.2442,-55.9986,-3.88471,0
81.9074,-55.4697,-3.92252,0
81.531,-54.9482,-3.95729,0
81.1761,-54.4662,-3.98838,0
81.0193,-54.1027,-4.01503,0
80.8763,-53.7598,-4.03958,0
80.7338,-53.4302,-4.0623,0
80.6329,-53.129,-4.08328,0
80.5429,-52.8413,-4.1028,0
80.4452,-52.5598,-4.12094,0
80.3324,-52.2822,-4.13769,0
80.2185,-52.013,-4.15313,0
80.1036,-51.7522,-4.16732,0
79.9877,-51.4993,-4.18031,0
79.8711,-51.2541,-4.19219,0
79.7523,-51.0161,-4.20296,0
79.6491,-50.788,-4.21293,0
79.561,-50.5684,-4.22219,0
79.4709,-50.3538,-4.23056,0
79.3791,-50.1443,-4.23806,0
79.2855,-49.9398,-4.24472,0
79.1903,-49.74,-4.25058,0
79.0936,-49.5449,-4.25565,0
78.9955,-49.3544,-4.25996,0
78.9255,-49.1679,-4.26421,0
78.899,-48.9826,-4.26881,0
78.87,-48.7984,-4.27277,0
78.8384,-48.6151,-4.27612,0
78.8043,-48.4328,-4.27883,0
78.7952,-48.2478,-4.28162,0
78.7869,-48.0619,-4.28388,0
78.776,-47.8756,-4.28555,0
78.7623,-47.6889,-4.2866,0
78.7458,-47.5016,-4.28705,0
78.7265,-47.3139,-4.28686,0
78.7044,-47.1257,-4.28607,0
78.669,-46.9401,-4.28437,0
78.616,-46.7593,-4.28167,0
78.5602,-46.5793,-4.27833,0
78.5014,-46.4,-4.27437,0
78.4397,-46.2216,-4.26977,0
78.375,-46.044,-4.26453,0
78.3448,-45.8502,-4.25954,0
78.3638,-45.63,-4.25504,0
78.3798,-45.4057,-4.24975,0
78.3926,-45.1771,-4.24367,0
78.4021,-44.9442,-4.23674,0
78.4104,-44.7054,-4.22899,0
78.4174,-44.4605,-4.22037,0
78.4209,-44.2107,-4.21081,0
78.4205,-43.9557,-4.20025,0
78.4162,-43.6956,-4.18865,0
78.4258,-43.4162,-4.17622,0
78.5356,-43.046,-4.16369,0
78.6469,-42.6558,-4.14956,0
78.7598,-42.244,-4.1337,0
78.8651,-41.8174,-4.1159,0
78.9419,-41.3952,-4.09602,0
79.0482,-40.921,-4.07402,0
76.5126,-67.1739,-1.79434,0
76.9684,-67.1934,-1.84137,0
77.4127,-67.1603,-1.89434,0
77.8237,-67.03,-1.95823,0
78.2274,-66.8791,-2.0233,0
78.623,-66.7081,-2.08938,0
79.0137,-66.5267,-2.15526,0
79.4041,-66.3443,-2.2199,0
79.7809,-66.1349,-2.2861,0
80.1144,-65.8504,-2.35872,0
80.4324,-65.5473,-2.43149,0
80.7343,-65.2268,-2.50419,0
81.0195,-64.8903,-2.57661,0
81.2876,-64.5388,-2.64857,0
79.8321,-61.8289,-2.93491,174
80.1202,-61.6317,-2.9835,174
80.4966,-61.5438,-3.02158,174
80.8647,-61.4344,-3.06101,174
82.3662,-62.6091,-2.99485,0
82.5208,-62.1885,-3.06108,0
82.6599,-61.7652,-3.12551,0
82.7841,-61.3402,-3.18808,0
82.8933,-60.9142,-3.24874,0
82.6987,-60.2243,-3.32574,0
82.578,-59.6352,-3.39275,0
82.4519,-59.0694,-3.4555,0
82.3208,-58.5261,-3.51422,0
82.1583,-57.9839,-3.57038,0
81.9694,-57.4478,-3.62365,0
81.7805,-56.9374,-3.67306,0
81.5922,-56.4513,-3.71885,0
81.4047,-55.9882,-3.76127,0
81.1334,-55.4965,-3.80282,0
80.8257,-55.0094,-3.84182,0
80.6507,-54.619,-3.87464,0
80.5337,-54.2751,-3.90394,0
80.4158,-53.9436,-3.93127,0
80.297,-53.6241,-3.95673,0
80.1837,-53.3186,-3.98034,0
80.112,-53.0403,-4.00196,0
80.0222,-52.7635,-4.0223,0
79.9286,-52.494,-4.04128,0
79.8333,-52.2322,-4.05891,0
79.7322,-51.9767,-4.0753,0
79.6204,-51.7263,-4.09045,0
79.5073,-51.4835,-4.10441,0
79.3937,-51.2484,-4.11721,0
79.3166,-51.028,-4.12912,0
79.2387,-50.8128,-4.1401,0
79.1619,-50.603,-4.15019,0
79.0827,-50.3979,-4.15939,0
79.0016,-50.1972,-4.16775,0
78.9185,-50.0009,-4.17528,0
78.8336,-49.8091,-4.18202,0
78.7469,-49.6215,-4.18798,0
78.6791,-49.4384,-4.19347,0
78.658,-49.2582,-4.199,0
78.6343,-49.0789,-4.20389,0
78.6081,-48.9006,-4.20816,0
78.5794,-48.7232,-4.21181,0
78.5482,-48.5468,-4.21485,0
78.5212,-48.3704,-4.2174,0
78.5141,-48.1914,-4.21974,0
78.5041,-48.012,-4.22148,0
78.4915,-47.8322,-4.22264,0
78.4761,-47.6521,-4.22318,0
78.4581,-47.4715,-4.22311,0
78.4372,-47.2904,-4.22244,0
78.393,-47.1149,-4.22077,0
78.3434,-46.9408,-4.21846,0
78.291,-46.7674,-4.21551,0
78.2357,-46.5949,-4.21196,0
78.1775,-46.4231,-4.20779,0
78.1164,-46.2521,-4.203,0
78.0524,-46.082,-4.19759,0
77.9995,-45.9063,-4.19176,0
78.0115,-45.6968,-4.18627,0
78.0205,-45.4837,-4.18001,0
78.0263,-45.267,-4.17294,0
78.0316,-45.0446,-4.16507,0
78.0346,-44.8176,-4.15636,0
78.0341,-44.5862,-4.14675,0
78.0298,-44.3506,-4.13619,0
78.0218,-44.1106,-4.12467,0
78.0097,-43.8661,-4.11214,0
77.9935,-43.6171,-4.09856,0
78.018,-43.3264,-4.08391,0
78.1037,-42.971,-4.06778,0
78.1891,-42.5977,-4.04994,0
77.6247,-42.8175,-4.03467,174
78.295,-41.8555,-4.00907,0
78.3419,-41.4618,-3.98575,0
76.8508,-67.1905,-1.82902,0
77.3055,-67.1906,-1.87806,0
77.7183,-67.0656,-1.94163,0
78.1241,-66.92,-2.0064,0
78.5218,-66.7541,-2.07224,0
78.9112,-66.5697,-2.13882,0
79.3045,-66.3937,-2.20309,0
79.686,-66.1932,-2.26869,0
80.0298,-65.9257,-2.33996,0
80.3518,-65.6272,-2.41271,0
80.658,-65.3112,-2.48544,0
80.9475,-64.9786,-2.55796,0
81.22,-64.6309,-2.63006,0
79.7808,-61.9116,-2.91925,174
80.0455,-61.6822,-2.9711,174
80.3866,-61.5514,-3.01312,174
80.7823,-61.4788,-3.04951,174
82.3237,-62.717,-2.97747,0
82.4823,-62.2973,-3.04416,0
82.6255,-61.8747,-3.10906,0
82.7534,-61.45,-3.17212,0
82.8664,-61.0241,-3.23328,0
82.7711,-60.4192,-3.30501,0
82.6097,-59.785,-3.37588,0
82.4848,-59.2132,-3.4397,0
82.355,-58.6642,-3.49945,0
82.207,-58.1265,-3.55597,0
82.0181,-57.5837,-3.61029,0
81.8292,-57.0668,-3.66067,0
81.6407,-56.5745,-3.70737,0
81.4529,-56.1056,-3.75063,0
81.2152,-55.6281,-3.7921,0
80.9037,-55.1317,-3.83213,0
80.6807,-54.7099,-3.86674,0
80.564,-54.3626,-3.89657,0
80.4463,-54.028,-3.92441,0
80.3277,-53.7054,-3.95033,0
80.2085,-53.3944,-3.97446,0
80.1308,-53.1114,-3.99651,0
80.046,-52.8344,-4.01717,0
79.953,-52.5628,-4.03651,0
79.858,-52.299,-4.05449,0
79.7609,-52.0427,-4.07119,0
79.6495,-51.7901,-4.08666,0
79.5366,-51.5454,-4.10091,0
79.4227,-51.3082,-4.11402,0
79.3368,-51.0844,-4.12614,0
79.2583,-50.8677,-4.13736,0
79.1819,-50.6567,-4.14768,0
79.1034,-50.4504,-4.1571,0
79.0227,-50.2485,-4.16568,0
78.9402,-50.0512,-4.17341,0
78.8556,-49.8582,-4.18035,0
78.7695,-49.6695,-4.18651,0
78.6841,-49.4851,-4.19195,0
78.6636,-49.3046,-4.19763,0
78.6406,-49.1251,-4.20268,0
78.6151,-48.9465,-4.20712,0
78.587,-48.7689,-4.21093,0
78.5565,-48.5922,-4.21412,0
78.5234,-48.4164,-4.21672,0
78.5162,-48.2376,-4.2192,0
78.507,-48.0584,-4.22109,0
78.495,-47.8787,-4.22239,0
78.4803,-47.6986,-4.22309,0
78.463,-47.5181,-4.22319,0
78.4429,-47.3372,-4.22268,0
78.4053,-47.16,-4.22128,0
78.3566,-46.9857,-4.21911,0
78.3048,-46.8121,-4.21633,0
78.2502,-46.6393,-4.21294,0
78.1927,-46.4673,-4.20893,0
78.1324,-46.2961,-4.20429,0
78.0693,-46.1258,-4.19904,0
78.0031,-45.9563,-4.19318,0
78.0088,-45.7512,-4.18777,0
78.0185,-45.5391,-4.1817,0
78.0251,-45.3233,-4.17484,0
78.0302,-45.1026,-4.16718,0
78.0341,-44.8766,-4.15869,0
78.0345,-44.6464,-4.14931,0
78.0312,-44.4119,-4.139,0
78.0243,-44.173,-4.12774,0
78.0133,-43.9297,-4.11547,0
77.9981,-43.6818,-4.10217,0
77.9959,-43.4153,-4.0878,0
78.0816,-43.0643,-4.07211,0
78.167,-42.6958,-4.05471,0
77.648,-42.8713,-4.03922,174
78.2823,-41.9544,-4.01476,0
78.3302,-41.565,-3.99196,0
76.7331,-67.186,-1.81682,0
77.189,-67.1949,-1.86493,0
77.6124,-67.0999,-1.9251,0
78.0201,-66.9595,-1.98958,0
78.4199,-66.7988,-2.05516,0
78.8111,-66.6182,-2.12167,0
79.2041,-66.4415,-2.18637,0
79.5888,-66.2473,-2.25164,0
79.9441,-65.9996,-2.32122,0
80.2702,-65.706,-2.39392,0
80.5805,-65.3943,-2.4667,0
80.8744,-65.0659,-2.53928,0
81.1514,-64.7219,-2.61151,0
79.7554,-62.0317,-2.90001,174
79.9678,-61.7286,-2.959,174
80.2881,-61.5725,-3.00346,174
80.7481,-61.582,-3.03293,174
81.1281,-61.4774,-3.07192,174
82.443,-62.4059,-3.02713,0
82.59,-61.984,-3.09249,0
82.7218,-61.5597,-3.15603,0
82.8387,-61.1341,-3.21768,0
82.8744,-60.6459,-3.28178,0
82.641,-59.9362,-3.35872,0
82.5176,-59.3586,-3.42363,0
82.389,-58.8037,-3.4844,0
82.2507,-58.267,-3.54151,0
82.0669,-57.7212,-3.59666,0
81.8779,-57.1977,-3.64802,0
81.6893,-56.6992,-3.69565,0
81.5013,-56.2244,-3.73978,0
81.2982,-55.7622,-3.78112,0
80.9826,-55.2564,-3.82218,0
80.7107,-54.8016,-3.85869,0
80.5942,-54.451,-3.88908,0
80.4766,-54.1132,-3.91741,0
80.3584,-53.7875,-3.94382,0
80.2393,-53.4736,-3.96841,0
80.1494,-53.183,-3.99098,0
80.0697,-52.9057,-4.01197,0
79.9772,-52.6321,-4.03164,0
79.8827,-52.3664,-4.04997,0
79.7864,-52.1082,-4.067,0
79.6783,-51.8545,-4.08279,0
79.5658,-51.6078,-4.09735,0
79.4522,-51.3687,-4.11074,0
79.3567,-51.1411,-4.1231,0
79.2785,-50.9231,-4.13456,0
79.2018,-50.7107,-4.1451,0
79.1238,-50.5032,-4.15475,0
79.0437,-50.3002,-4.16354,0
78.9616,-50.1017,-4.1715,0
78.8777,-49.9076,-4.17864,0
78.7919,-49.7178,-4.18499,0
78.7044,-49.5322,-4.19059,0
78.6691,-49.3511,-4.19623,0
78.6468,-49.1713,-4.20144,0
78.6219,-48.9925,-4.20603,0
78.5945,-48.8146,-4.21,0
78.5646,-48.6377,-4.21336,0
78.5322,-48.4617,-4.21611,0
78.5181,-48.2838,-4.21861,0
78.5096,-48.1047,-4.22066,0
78.4984,-47.9251,-4.22211,0
78.4844,-47.7451,-4.22297,0
78.4677,-47.5647,-4.22321,0
78.4484,-47.3839,-4.22286,0
78.4174,-47.2051,-4.22174,0
78.3694,-47.0306,-4.21973,0
78.3184,-46.8568,-4.21711,0
78.2646,-46.6838,-4.21387,0
78.2078,-46.5116,-4.21002,0
78.1483,-46.3402,-4.20555,0
78.0859,-46.1697,-4.20046,0
78.0205,-46,-4.19475,0
78.0057,-45.8054,-4.18921,0
78.0163,-45.5942,-4.18334,0
78.0238,-45.3793,-4.17669,0
78.0287,-45.1602,-4.16923,0
78.0334,-44.9353,-4.16096,0
78.0348,-44.7062,-4.15182,0
78.0325,-44.4728,-4.14175,0
78.0265,-44.235,-4.13073,0
78.0165,-43.9929,-4.11873,0
78.0024,-43.7462,-4.1057,0
77.9841,-43.495,-4.0916,0
78.0594,-43.1565,-4.07631,0
78.1451,-42.7927,-4.05937,0
77.6708,-42.9255,-4.04372,174
78.2695,-42.0524,-4.02032,0
78.3181,-41.667,-3.99803,0
75.9488,-65.3725,-1.90332,0
76.3488,-65.3611,-1.94845,0
76.7494,-65.336,-1.99469,0
77.1499,-65.2968,-2.04199,0
77.5299,-65.1972,-2.09608,0
77.8948,-65.0584,-2.15393,0
78.2598,-64.9174,-2.21083,0
78.6207,-64.7655,-2.26783,0
78.9757,-64.5999,-2.32522,0
79.3239,-64.4207,-2.3829,0
79.665,-64.2282,-2.4408,0
79.9639,-63.9679,-2.50472,0
80.2385,-63.6761,-2.5704,0
80.503,-63.3771,-2.63513,0
79.8028,-61.762,-2.83057,174
80.0715,-61.5425,-2.88115,174
80.4315,-61.4377,-2.9195,174
80.7815,-61.3111,-2.95926,174
81.4074,-61.4902,-2.9704,0
81.5633,-61.1207,-3.03108,0
81.7014,-60.7436,-3.09063,0
81.6554,-60.1944,-3.16296,0
81.601,-59.6632,-3.23128,0
81.5388,-59.1497,-3.29575,0
81.3853,-58.58,-3.36229,0
81.2295,-58.0371,-3.42425,0
81.1016,-57.5431,-3.48023,0
80.9702,-57.0693,-3.53259,0
80.8355,-56.6151,-3.58155,0
80.6986,-56.1795,-3.62729,0
80.5418,-55.7504,-3.67074,0
80.2931,-55.2834,-3.71468,0
80.2039,-54.9348,-3.74957,0
80.1121,-54.598,-3.78233,0
80.0184,-54.2726,-3.81305,0
79.9226,-53.958,-3.84184,0
79.8251,-53.654,-3.86882,0
79.7173,-53.3561,-3.89424,0
79.6369,-53.0804,-3.91742,0
79.5527,-52.8122,-3.93918,0
79.466,-52.5514,-3.95955,0
79.3767,-52.2979,-3.97858,0
79.2851,-52.0515,-3.99633,0
79.1914,-51.8121,-4.01285,0
79.0959,-51.5796,-4.02819,0
79.0302,-51.3615,-4.04225,0
78.9649,-51.1488,-4.05531,0
78.8971,-50.9407,-4.06744,0
78.8301,-50.7375,-4.07865,0
78.7618,-50.5388,-4.089,0
78.6913,-50.3442,-4.09849,0
78.6186,-50.1537,-4.10716,0
78.5438,-49.9671,-4.11505,0
78.4671,-49.7845,-4.12216,0
78.4338,-49.6075,-4.12878,0
78.4166,-49.4325,-4.13489,0
78.3969,-49.2584,-4.14038,0
78.3747,-49.0853,-4.14525,0
78.35,-48.9129,-4.14951,0
78.3228,-48.7415,-4.15317,0
78.2932,-48.5709,-4.15621,0
78.2627,-48.4011,-4.15869,0
78.2553,-48.2283,-4.16082,0
78.2451,-48.0551,-4.16238,0
78.2323,-47.8817,-4.16335,0
78.2168,-47.7078,-4.16372,0
78.1987,-47.5336,-4.1635,0
78.1594,-47.3639,-4.16248,0
78.1144,-47.1956,-4.16083,0
78.0666,-47.028,-4.15857,0
78.016,-46.8612,-4.15572,0
77.9627,-46.6951,-4.15227,0
77.9064,-46.5298,-4.14821,0
77.8474,-46.3654,-4.14354,0
77.7856,-46.2018,-4.13828,0
77.721,-46.039,-4.13241,0
77.6833,-45.8624,-4.12612,0
77.6878,-45.6613,-4.11942,0
77.6907,-45.4561,-4.11192,0
77.6923,-45.2464,-4.10364,0
77.6907,-45.0329,-4.09453,0
77.6855,-44.8159,-4.08454,0
77.6767,-44.5951,-4.07365,0
77.6641,-44.3706,-4.06183,0
77.6475,-44.1423,-4.04904,0
77.6269,-43.9102,-4.03525,0
77.602,-43.6742,-4.02043,0
77.587,-43.4219,-4.00438,0
77.6486,-43.0915,-3.98598,0
77.6018,-42.8466,-3.96762,174
77.7151,-42.4356,-3.9449,0
77.7425,-42.0893,-3.92171,0
76.2455,-65.3653,-1.9367,0
76.646,-65.3438,-1.98267,0
77.0466,-65.3083,-2.02968,0
77.435,-65.231,-2.08121,0
77.8012,-65.0955,-2.13897,0
78.1658,-64.9543,-2.1962,0
78.5282,-64.806,-2.25309,0
78.8847,-64.6439,-2.31038,0
79.2348,-64.4682,-2.368,0
79.5777,-64.2791,-2.42584,0
79.8915,-64.042,-2.48763,0
80.1686,-63.7521,-2.55354,0
80.4358,-63.455,-2.61852,0
79.7769,-61.8793,-2.81119,174
80.0047,-61.6024,-2.86789,174
80.3227,-61.4456,-2.91152,174
80.7228,-61.3828,-2.9454,174
81.3655,-61.5854,-2.95446,0
81.5241,-61.2161,-3.01559,0
81.6719,-60.8462,-3.07497,0
81.6682,-60.3344,-3.14468,0
81.6159,-59.7986,-3.21402,0
81.5556,-59.2805,-3.27947,0
81.4337,-58.7319,-3.34498,0
81.2619,-58.1679,-3.4092,0
81.1351,-57.6686,-3.46613,0
81.0044,-57.1897,-3.51941,0
80.8705,-56.7304,-3.56924,0
80.7341,-56.2902,-3.61579,0
80.5955,-55.8681,-3.65926,0
80.3533,-55.399,-3.70384,0
80.2271,-55.0236,-3.74078,0
80.136,-54.6838,-3.77407,0
80.0427,-54.3555,-3.80531,0
79.9475,-54.0382,-3.8346,0
79.8505,-53.7315,-3.86203,0
79.7411,-53.43,-3.88793,0
79.6581,-53.1509,-3.91158,0
79.5748,-52.8807,-3.9337,0
79.4886,-52.618,-3.95442,0
79.3999,-52.3626,-3.9738,0
79.3089,-52.1144,-3.99187,0
79.2159,-51.8732,-4.0087,0
79.1207,-51.6389,-4.02434,0
79.0466,-51.4171,-4.03872,0
78.9819,-51.2033,-4.05203,0
78.9148,-50.994,-4.0644,0
78.8473,-50.7895,-4.07584,0
78.7797,-50.5897,-4.08641,0
78.7097,-50.3941,-4.09612,0
78.6375,-50.2025,-4.105,0
78.5634,-50.0149,-4.11308,0
78.4871,-49.8313,-4.12038,0
78.4378,-49.6528,-4.12711,0
78.4213,-49.4776,-4.13338,0
78.4022,-49.3033,-4.13903,0
78.3806,-49.1299,-4.14405,0
78.3566,-48.9573,-4.14847,0
78.3301,-48.7857,-4.15228,0
78.301,-48.6149,-4.15549,0
78.2696,-48.445,-4.1581,0
78.2575,-48.2729,-4.16033,0
78.248,-48.0999,-4.16203,0
78.2359,-47.9265,-4.16315,0
78.221,-47.7527,-4.16368,0
78.2036,-47.5786,-4.16361,0
78.1705,-47.4075,-4.1628,0
78.1263,-47.2389,-4.16132,0
78.0792,-47.0712,-4.15921,0
78.0294,-46.9042,-4.15651,0
77.9767,-46.7379,-4.15321,0
77.9212,-46.5724,-4.14931,0
77.8629,-46.4078,-4.14481,0
77.8019,-46.2439,-4.1397,0
77.738,-46.0809,-4.13399,0
77.6816,-45.9138,-4.12773,0
77.687,-45.7135,-4.12122,0
77.6898,-45.5097,-4.11393,0
77.6923,-45.3008,-4.10587,0
77.6915,-45.0884,-4.09696,0
77.6872,-44.8723,-4.08719,0
77.6793,-44.6525,-4.07655,0
77.6677,-44.4289,-4.06498,0
77.6522,-44.2016,-4.05244,0
77.6326,-43.9705,-4.0389,0
77.6088,-43.7354,-4.02437,0
77.5806,-43.4966,-4.00874,0
77.6345,-43.1767,-3.99087,0
77.606,-42.9178,-3.97259,174
77.7073,-42.523,-3.95058,0
77.7358,-42.1799,-3.92788,0
76.1423,-65.3687,-1.92502,0
76.5427,-65.3507,-1.9707,0
76.9432,-65.3188,-2.01745,0
77.3398,-65.2638,-2.06638,0
77.707,-65.1316,-2.12403,0
78.0714,-64.9903,-2.18159,0
78.4352,-64.8456,-2.23836,0
78.7932,-64.687,-2.29556,0
79.1451,-64.5148,-2.35311,0
79.49,-64.3292,-2.4109,0
79.8183,-64.1155,-2.47049,0
80.098,-63.8276,-2.53662,0
80.3678,-63.5323,-2.60185,0
79.7659,-62.0191,-2.78936,174
79.9287,-61.6501,-2.85577,174
80.2208,-61.4612,-2.90276,174
80.6377,-61.4226,-2.93446,174
81.0801,-61.3974,-2.96459,174
81.4842,-61.3115,-2.99997,0
81.6348,-60.9417,-3.05981,0
81.6803,-60.4756,-3.12614,0
81.6301,-59.9351,-3.19652,0
81.5719,-59.4125,-3.26294,0
81.482,-58.8858,-3.32734,0
81.2947,-58.3008,-3.39383,0
81.1681,-57.7955,-3.4518,0
81.0384,-57.3113,-3.506,0
80.9054,-56.8471,-3.5567,0
80.7696,-56.402,-3.60407,0
80.6316,-55.9753,-3.64833,0
80.4183,-55.5193,-3.69257,0
80.2502,-55.1132,-3.73183,0
80.1598,-54.7704,-3.76569,0
80.067,-54.4392,-3.79744,0
79.9722,-54.119,-3.82722,0
79.8756,-53.8096,-3.85512,0
79.7773,-53.5105,-3.88124,0
79.6791,-53.2219,-3.90564,0
79.5965,-52.9497,-3.92813,0
79.5111,-52.685,-3.94921,0
79.4231,-52.4278,-3.96892,0
79.3326,-52.1778,-3.98733,0
79.24,-51.9348,-4.00447,0
79.1454,-51.6987,-4.02042,0
79.0628,-51.473,-4.03512,0
78.9989,-51.258,-4.04869,0
78.9324,-51.0475,-4.0613,0
78.8643,-50.8417,-4.07299,0
78.7973,-50.6409,-4.08376,0
78.728,-50.4441,-4.09369,0
78.6564,-50.2515,-4.10279,0
78.5827,-50.0629,-4.11107,0
78.507,-49.8783,-4.11858,0
78.4416,-49.6982,-4.12539,0
78.4259,-49.5227,-4.13182,0
78.4074,-49.3482,-4.13762,0
78.3865,-49.1745,-4.14281,0
78.3631,-49.0018,-4.14739,0
78.3372,-48.8299,-4.15135,0
78.3088,-48.6589,-4.15471,0
78.278,-48.4887,-4.15748,0
78.2595,-48.3175,-4.1598,0
78.2507,-48.1445,-4.16165,0
78.2392,-47.9712,-4.16292,0
78.2251,-47.7976,-4.1636,0
78.2084,-47.6236,-4.16369,0
78.1816,-47.4511,-4.16309,0
78.138,-47.2824,-4.16176,0
78.0916,-47.1144,-4.15981,0
78.0425,-46.9472,-4.15726,0
77.9905,-46.7807,-4.15413,0
77.9358,-46.615,-4.15038,0
77.8782,-46.4502,-4.14603,0
77.8179,-46.2861,-4.14108,0
77.7547,-46.1229,-4.13551,0
77.6888,-45.9606,-4.12936,0
77.6859,-45.7655,-4.12297,0
77.6889,-45.5629,-4.11588,0
77.6919,-45.3551,-4.10803,0
77.6919,-45.1435,-4.09934,0
77.6886,-44.9284,-4.0898,0
77.6817,-44.7095,-4.07938,0
77.6711,-44.4869,-4.06805,0
77.6566,-44.2606,-4.05577,0
77.638,-44.0305,-4.0425,0
77.6154,-43.7965,-4.02821,0
77.5883,-43.5586,-4.01288,0
77.6181,-43.2629,-3.99567,0
77.6366,-42.9641,-3.97707,174
77.6993,-42.6095,-3.95615,0
77.7288,-42.2696,-3.93391,0
75.5767,-64.1719,-1.95326,0
75.9445,-64.1542,-1.9953,0
76.3125,-64.124,-2.03833,0
76.6803,-64.0812,-2.08228,0
77.0472,-64.0256,-2.1271,0
77.4037,-63.9374,-2.17533,0
77.7378,-63.796,-2.22939,0
78.067,-63.6434,-2.28364,0
78.3907,-63.4795,-2.33804,0
78.7086,-63.3048,-2.39252,0
79.0072,-63.0976,-2.44958,0
79.2891,-62.8659,-2.5081,0
79.5613,-62.6236,-2.56638,0
79.8127,-62.3554,-2.62609,0
76.967,-57.8543,-3.14766,174
77.2289,-57.8049,-3.17159,174
80.3937,-61.366,-2.81549,0
80.5666,-61.0313,-2.87567,0
80.6984,-60.6596,-2.9379,0
80.7006,-60.16,-3.01095,0
80.6613,-59.6409,-3.08359,0
80.5505,-59.0763,-3.15819,0
80.4344,-58.536,-3.22804,0
80.3414,-58.0447,-3.29111,0
80.2663,-57.5925,-3.34858,0
80.1851,-57.1558,-3.40279,0
80.0981,-56.7342,-3.45386,0
80.0062,-56.3275,-3.50195,0
79.9101,-55.9353,-3.54718,0
79.813,-55.5592,-3.58954,0
79.7364,-55.2123,-3.62814,0
79.6141,-54.8503,-3.66649,0
79.4877,-54.5012,-3.70245,0
79.3575,-54.165,-3.73614,0
79.2391,-53.8491,-3.76712,0
79.2292,-53.6006,-3.79231,0
79.2142,-53.3557,-3.81632,0
79.1522,-53.0955,-3.84038,0
79.0863,-52.8416,-3.86308,0
79.017,-52.594,-3.88444,0
78.9447,-52.3528,-3.90451,0
78.8696,-52.1179,-3.92335,0
78.792,-51.889,-3.94099,0
78.7398,-51.6744,-3.95705,0
78.6882,-51.465,-3.97207,0
78.6337,-51.2598,-3.98612,0
78.5766,-51.0586,-3.99926,0
78.5172,-50.8616,-4.01151,0
78.4589,-50.6692,-4.02284,0
78.398,-50.4804,-4.03335,0
78.3349,-50.2954,-4.04303,0
78.2695,-50.1141,-4.05194,0
78.2112,-49.9371,-4.06006,0
78.2003,-49.7662,-4.06734,0
78.1869,-49.5962,-4.074,0
78.171,-49.427,-4.08006,0
78.1526,-49.2587,-4.0855,0
78.1317,-49.0912,-4.09035,0
78.1084,-48.9245,-4.09459,0
78.0825,-48.7586,-4.09823,0
78.0543,-48.5936,-4.10129,0
78.0237,-48.4294,-4.10376,0
78.0132,-48.2628,-4.1057,0
78.0028,-48.0955,-4.10709,0
77.9898,-47.9279,-4.1079,0
77.9744,-47.7599,-4.10814,0
77.9395,-47.5957,-4.10771,0
77.8988,-47.4328,-4.1067,0
77.8555,-47.2706,-4.10508,0
77.8093,-47.1091,-4.10291,0
77.7605,-46.9483,-4.10013,0
77.7088,-46.7883,-4.09677,0
77.6545,-46.6291,-4.09282,0
77.5974,-46.4707,-4.08829,0
77.5377,-46.3131,-4.08316,0
77.4751,-46.1564,-4.07745,0
77.4098,-46.0005,-4.07114,0
77.3848,-45.8231,-4.06413,0
77.3857,-45.6281,-4.0563,0
77.3834,-45.4301,-4.0477,0
77.3779,-45.2288,-4.03829,0
77.3688,-45.0245,-4.02803,0
77.3562,-44.8169,-4.01692,0
77.34,-44.6062,-4.0049,0
77.3198,-44.3922,-3.99196,0
77.2957,-44.1749,-3.97807,0
77.2674,-43.9544,-3.96319,0
77.2348,-43.7306,-3.9473,0
77.1957,-43.5054,-3.9304,0
77.2048,-43.2273,-3.91101,0
77.2213,-42.9295,-3.88982,0
77.2338,-42.6218,-3.86698,0
75.8496,-64.1599,-1.98436,0
76.2176,-64.133,-2.02714,0
76.5855,-64.0934,-2.07085,0
76.9527,-64.0412,-2.11545,0
77.3167,-63.972,-2.16144,0
77.6521,-63.8336,-2.21542,0
77.9826,-63.6839,-2.26962,0
78.3077,-63.5229,-2.32399,0
78.6271,-63.3509,-2.37846,0
78.933,-63.1555,-2.43445,0
79.2173,-62.9268,-2.49301,0
79.492,-62.6871,-2.55137,0
79.7568,-62.4371,-2.60942,0
76.9843,-57.9832,-3.12863,174
77.1216,-57.7659,-3.17103,174
80.2828,-61.3705,-2.80832,174
80.523,-61.1179,-2.86029,0
80.6883,-60.7819,-2.91935,0
80.7011,-60.2877,-2.99245,0
80.6888,-59.7906,-3.06353,0
80.5798,-59.2197,-3.1394,0
80.4648,-58.6732,-3.21045,0
80.3598,-58.1639,-3.27574,0
80.2864,-57.7077,-3.33407,0
80.2066,-57.267,-3.38911,0
80.121,-56.8416,-3.44096,0
80.0304,-56.4311,-3.48982,0
79.9353,-56.0351,-3.53577,0
79.8289,-55.6483,-3.57938,0
79.7661,-55.307,-3.61791,0
79.6461,-54.9425,-3.65682,0
79.5205,-54.5901,-3.6934,0
79.3913,-54.2505,-3.72767,0
79.2591,-53.9236,-3.75973,0
79.2323,-53.6644,-3.78592,0
79.2186,-53.4186,-3.81024,0
79.1687,-53.1621,-3.83431,0
79.1036,-52.9065,-3.85735,0
79.0351,-52.6573,-3.87905,0
78.9635,-52.4145,-3.89945,0
78.8892,-52.1779,-3.9186,0
78.8123,-51.9475,-3.93655,0
78.7527,-51.7291,-3.95301,0
78.7018,-51.5187,-3.96828,0
78.648,-51.3124,-3.98259,0
78.5916,-51.1102,-3.99596,0
78.5325,-50.912,-4.00843,0
78.4742,-50.7185,-4.02,0
78.414,-50.5288,-4.03071,0
78.3514,-50.3428,-4.04061,0
78.2866,-50.1605,-4.04971,0
78.2196,-49.9818,-4.05805,0
78.2034,-49.8102,-4.06552,0
78.1905,-49.64,-4.07234,0
78.1754,-49.4706,-4.07856,0
78.1576,-49.302,-4.08415,0
78.1373,-49.1343,-4.08916,0
78.1146,-48.9674,-4.09355,0
78.0894,-48.8013,-4.09735,0
78.0618,-48.6361,-4.10055,0
78.0317,-48.4717,-4.10317,0
78.0154,-48.3059,-4.10526,0
78.0057,-48.1387,-4.10679,0
77.9935,-47.9711,-4.10775,0
77.9787,-47.8033,-4.10812,0
77.9495,-47.6379,-4.10787,0
77.9096,-47.4748,-4.107,0
77.8669,-47.3124,-4.10556,0
77.8214,-47.1507,-4.10352,0
77.7733,-46.9897,-4.1009,0
77.7223,-46.8295,-4.0977,0
77.6687,-46.6701,-4.0939,0
77.6123,-46.5115,-4.08952,0
77.5534,-46.3537,-4.08454,0
77.4915,-46.1968,-4.07898,0
77.4269,-46.0407,-4.07282,0
77.3844,-45.8727,-4.06602,0
77.3857,-45.6787,-4.0584,0
77.3843,-45.4815,-4.04999,0
77.3796,-45.2811,-4.04078,0
77.3716,-45.0775,-4.03076,0
77.3598,-44.8708,-4.01986,0
77.3445,-44.6609,-4.00808,0
77.3254,-44.4477,-3.9954,0
77.3023,-44.2313,-3.98175,0
77.2752,-44.0116,-3.96713,0
77.2437,-43.7887,-3.9515,0
77.2078,-43.5625,-3.93482,0
77.2,-43.3025,-3.91622,0
77.2175,-43.0073,-3.89544,0
77.231,-42.7022,-3.87304,0
75.7547,-64.1648,-1.97348,0
76.1226,-64.1411,-2.01601,0
76.4905,-64.1048,-2.05948,0
76.858,-64.0559,-2.10386,0
77.2243,-63.9941,-2.14909,0
77.566,-63.8704,-2.20146,0
77.8977,-63.7236,-2.25561,0
78.2243,-63.5655,-2.30995,0
78.5453,-63.3963,-2.36441,0
78.858,-63.2128,-2.41931,0
79.1448,-62.9869,-2.47792,0
79.422,-62.75,-2.53633,0
79.6895,-62.5026,-2.59447,0
79.7862,-62.0202,-2.67712,174
77.0173,-57.7292,-3.17026,174
80.1774,-61.3808,-2.80052,174
80.4787,-61.2043,-2.8448,0
80.6466,-60.8687,-2.90425,0
80.7008,-60.4162,-2.9737,0
80.6981,-59.9231,-3.04501,0
80.6084,-59.3646,-3.12029,0
80.495,-58.8119,-3.19257,0
80.3775,-58.2841,-3.26012,0
80.3059,-57.8239,-3.31934,0
80.2277,-57.3793,-3.37521,0
80.1437,-56.9499,-3.42789,0
80.0543,-56.5356,-3.47749,0
79.9603,-56.1359,-3.52419,0
79.8445,-55.7381,-3.56908,0
79.7827,-55.3941,-3.60818,0
79.6779,-55.0355,-3.64699,0
79.5534,-54.6798,-3.68417,0
79.4251,-54.3369,-3.71903,0
79.2934,-54.0068,-3.75166,0
79.235,-53.7284,-3.77946,0
79.2226,-53.4817,-3.80408,0
79.1849,-53.2291,-3.82814,0
79.1207,-52.9718,-3.85153,0
79.053,-52.721,-3.87358,0
78.9823,-52.4765,-3.8943,0
78.9087,-52.2384,-3.91378,0
78.8323,-52.0064,-3.93203,0
78.7653,-51.7841,-3.94892,0
78.7152,-51.5725,-3.96444,0
78.6622,-51.3652,-3.97899,0
78.6064,-51.1619,-3.9926,0
78.548,-50.9628,-4.00529,0
78.4893,-50.768,-4.0171,0
78.4298,-50.5774,-4.02803,0
78.3678,-50.3904,-4.03814,0
78.3035,-50.2072,-4.04744,0
78.2371,-50.0276,-4.05597,0
78.2062,-49.8543,-4.06365,0
78.1941,-49.6838,-4.07064,0
78.1795,-49.5142,-4.07701,0
78.1624,-49.3455,-4.08277,0
78.1428,-49.1775,-4.08792,0
78.1207,-49.0104,-4.09247,0
78.0961,-48.8441,-4.09642,0
78.0691,-48.6787,-4.09979,0
78.0397,-48.514,-4.10256,0
78.0175,-48.349,-4.10477,0
78.0085,-48.1818,-4.10645,0
77.9969,-48.0144,-4.10756,0
77.9827,-47.8467,-4.10808,0
77.9594,-47.6801,-4.108,0
77.9202,-47.5168,-4.10729,0
77.8781,-47.3542,-4.106,0
77.8334,-47.1924,-4.10411,0
77.786,-47.0312,-4.10163,0
77.7358,-46.8708,-4.09858,0
77.6829,-46.7112,-4.09493,0
77.6272,-46.5524,-4.0907,0
77.5688,-46.3943,-4.08588,0
77.5077,-46.2372,-4.08047,0
77.4438,-46.0809,-4.07447,0
77.3843,-45.9219,-4.06787,0
77.3855,-45.7291,-4.06043,0
77.385,-45.5327,-4.05224,0
77.3811,-45.3331,-4.04324,0
77.374,-45.1304,-4.03343,0
77.3633,-44.9245,-4.02277,0
77.3488,-44.7153,-4.01121,0
