83.6496,-53.1234,-4.60232,0
83.5928,-53.0139,-4.60981,0
83.5341,-52.9058,-4.61675,0
83.4735,-52.7993,-4.62314,0
83.4111,-52.6945,-4.62898,0
83.3469,-52.5912,-4.63428,0
83.2808,-52.4896,-4.63906,0
83.213,-52.3896,-4.6433,0
83.1581,-52.2836,-4.64638,0
78.6346,-61.6298,-2.54554,0
78.7942,-61.6598,-2.55979,0
78.9544,-61.6777,-2.57742,0
79.1147,-61.6864,-2.59738,0
79.2756,-61.6917,-2.61774,0
79.4369,-61.6935,-2.63848,0
79.5984,-61.6918,-2.65959,0
79.7604,-61.6866,-2.68109,0
79.8959,-61.5577,-2.74054,174
80.0579,-61.5561,-2.75909,174
80.1782,-61.3948,-2.8261,174
80.3379,-61.388,-2.84449,174
80.5014,-61.3878,-2.8602,174
80.6887,-61.4502,-2.85644,174
80.8013,-61.2962,-2.91691,174
80.9885,-61.3439,-2.91629,174
81.1382,-61.2903,-2.94508,0
81.2852,-61.2301,-2.97496,0
81.4308,-61.1668,-3.0049,0
81.5748,-61.1004,-3.03489,0
81.7173,-61.031,-3.06492,0
81.8582,-60.9585,-3.09496,0
81.9974,-60.883,-3.12502,0
82.1349,-60.8046,-3.15506,0
82.2659,-60.7159,-3.18718,0
82.3918,-60.6205,-3.22035,0
82.5157,-60.523,-3.25322,0
82.6363,-60.4219,-3.28624,0
82.7537,-60.3175,-3.31937,0
82.8675,-60.2097,-3.35258,0
82.9778,-60.0987,-3.38582,0
83.0844,-59.9847,-3.41907,0
83.1876,-59.8679,-3.4523,0
83.2869,-59.7483,-3.48547,0
83.3823,-59.626,-3.51854,0
83.4755,-59.5029,-3.55106,0
83.566,-59.3783,-3.5832,0
83.653,-59.2518,-3.61509,0
83.7366,-59.1234,-3.64672,0
83.8167,-58.9934,-3.67804,0
83.8933,-58.8617,-3.70907,0
83.9663,-58.7285,-3.73976,0
84.0359,-58.5939,-3.77011,0
84.1018,-58.458,-3.8001,0
84.1642,-58.3209,-3.82971,0
84.2107,-58.1755,-3.86106,0
84.2503,-58.0281,-3.89237,0
84.2861,-57.8805,-3.92312,0
84.318,-57.7328,-3.95329,0
84.3463,-57.5852,-3.98286,0
84.3709,-57.4378,-4.01184,0
84.3917,-57.2907,-4.04021,0
84.4091,-57.1439,-4.06796,0
84.4227,-56.9976,-4.09508,0
84.4331,-56.8518,-4.12155,0
84.44,-56.7067,-4.14741,0
84.4435,-56.5623,-4.17261,0
84.4438,-56.4187,-4.19716,0
84.4408,-56.276,-4.22108,0
84.4347,-56.1342,-4.24433,0
84.4341,-55.9952,-4.26609,0
84.4337,-55.8574,-4.28694,0
84.4265,-55.7196,-4.30758,0
84.4152,-55.5825,-4.32771,0
84.4011,-55.4464,-4.34722,0
84.3843,-55.3113,-4.3661,0
84.365,-55.1772,-4.38435,0
84.343,-55.0443,-4.40198,0
84.3187,-54.9124,-4.419,0
84.2917,-54.7818,-4.43539,0
84.2624,-54.6523,-4.45117,0
84.2307,-54.5241,-4.46632,0
84.1966,-54.3972,-4.48088,0
84.1604,-54.2716,-4.49482,0
84.1218,-54.1472,-4.50816,0
84.081,-54.0243,-4.5209,0
84.032,-53.9036,-4.53339,0
83.9786,-53.7851,-4.5454,0
83.9234,-53.6684,-4.55678,0
83.8661,-53.5534,-4.56755,0
83.8071,-53.4403,-4.57772,0
83.7484,-53.3284,-4.58716,0
83.6953,-53.216,-4.59566,0
83.6403,-53.1052,-4.6036,0
83.5832,-52.9958,-4.61099,0
83.5242,-52.8881,-4.61784,0
83.4634,-52.7818,-4.62414,0
83.4005,-52.6772,-4.6299,0
83.336,-52.5743,-4.63512,0
83.2697,-52.4729,-4.63981,0
83.203,-52.3726,-4.6439,0
83.1491,-52.2661,-4.64683,0
78.5025,-61.6021,-2.53407,0
78.661,-61.635,-2.54787,0
78.8208,-61.6645,-2.56219,0
78.9809,-61.6794,-2.5807,0
79.1413,-61.6876,-2.60073,0
79.3023,-61.6922,-2.62115,0
79.4637,-61.6935,-2.64195,0
79.6253,-61.6912,-2.66313,0
79.7866,-61.6823,-2.68565,0
79.9198,-61.5448,-2.7476,174
80.0606,-61.4591,-2.79207,174
80.2036,-61.3902,-2.83026,174
80.3649,-61.388,-2.84713,174
80.529,-61.3887,-2.86245,174
80.6943,-61.3864,-2.87802,174
80.8276,-61.2925,-2.9203,174
81.0145,-61.3382,-2.9202,0
81.1627,-61.2806,-2.95003,0
81.3094,-61.2199,-2.97992,0
81.4547,-61.156,-3.00987,0
81.5985,-61.0891,-3.03987,0
84.1041,-54.6938,-4.41693,0
84.0748,-54.569,-4.43197,0
84.0433,-54.4454,-4.44643,0
84.0095,-54.323,-4.46029,0
83.9736,-54.2018,-4.47357,0
83.9332,-54.0822,-4.48641,0
83.8851,-53.9649,-4.49903,0
83.8348,-53.8492,-4.51106,0
83.7827,-53.7352,-4.52247,0
83.7286,-53.6229,-4.53329,0
83.6728,-53.5124,-4.54351,0
83.6152,-53.4035,-4.55314,0
83.5606,-53.2951,-4.56193,0
83.5084,-53.1869,-4.56992,0
83.4541,-53.0801,-4.57738,0
83.398,-52.9749,-4.58431,0
83.34,-52.8711,-4.5907,0
83.2802,-52.7688,-4.59657,0
83.2184,-52.6682,-4.60191,0
83.1552,-52.569,-4.60674,0
83.0925,-52.4703,-4.61091,0
83.0409,-52.3664,-4.61391,0
78.6089,-61.3928,-2.56967,0
78.7629,-61.4214,-2.58347,0
78.9181,-61.4466,-2.59778,0
79.0744,-61.4674,-2.61295,0
79.2303,-61.4726,-2.63265,0
79.3865,-61.4744,-2.65273,0
79.543,-61.4728,-2.67317,0
79.6997,-61.4678,-2.69397,0
79.854,-61.4473,-2.71903,0
80.0058,-61.4148,-2.74706,0
80.1552,-61.3737,-2.77693,174
80.3064,-61.3401,-2.80359,0
80.4552,-61.2979,-2.83206,0
80.603,-61.2526,-2.86067,0
80.7496,-61.2041,-2.88937,0
80.8951,-61.1525,-2.91817,0
81.0391,-61.0978,-2.94707,0
81.182,-61.04,-2.97603,0
81.3234,-60.9792,-3.00505,0
81.4634,-60.9154,-3.03412,0
81.6019,-60.8487,-3.06323,0
81.7389,-60.7789,-3.09237,0
81.8671,-60.6943,-3.12505,0
81.991,-60.6036,-3.15861,0
82.1123,-60.5101,-3.19215,0
82.2306,-60.4137,-3.22564,0
82.3492,-60.3187,-3.25787,0
82.465,-60.221,-3.29003,0
82.578,-60.1206,-3.32216,0
82.6882,-60.0174,-3.35423,0
82.7952,-59.9116,-3.3862,0
82.8994,-59.8034,-3.41808,0
83.0004,-59.6927,-3.44983,0
83.0983,-59.5798,-3.48142,0
83.193,-59.4646,-3.51286,0
83.2845,-59.3474,-3.54409,0
83.3728,-59.2281,-3.57512,0
83.4578,-59.1069,-3.60591,0
83.5395,-58.984,-3.63646,0
83.6178,-58.8593,-3.66674,0
83.6929,-58.7331,-3.69672,0
83.7645,-58.6053,-3.7264,0
83.8327,-58.4762,-3.75576,0
83.8977,-58.3457,-3.78479,0
83.9505,-58.2089,-3.81505,0
83.9943,-58.0681,-3.84587,0
84.0342,-57.9269,-3.87617,0
84.0706,-57.7855,-3.90595,0
84.1033,-57.644,-3.93518,0
84.1323,-57.5025,-3.96384,0
84.1578,-57.361,-3.99196,0
84.1798,-57.2197,-4.01949,0
84.1984,-57.0787,-4.04645,0
84.2135,-56.9381,-4.0728,0
84.2253,-56.7979,-4.09856,0
84.2337,-56.6582,-4.12373,0
84.2391,-56.5192,-4.14828,0
84.2411,-56.3809,-4.17221,0
84.2435,-56.2442,-4.19513,0
84.25,-56.1097,-4.21668,0
84.2537,-55.9758,-4.23766,0
84.2546,-55.8423,-4.25807,0
84.2484,-55.7088,-4.27835,0
84.2387,-55.5759,-4.2981,0
84.2264,-55.4439,-4.31723,0
84.2115,-55.3129,-4.33577,0
84.194,-55.1828,-4.35371,0
84.1741,-55.0538,-4.37105,0
84.1516,-54.9258,-4.38779,0
84.1267,-54.7989,-4.40392,0
84.0994,-54.6731,-4.41946,0
84.0698,-54.5485,-4.43441,0
84.0379,-54.425,-4.44877,0
84.0037,-54.3028,-4.46254,0
83.9673,-54.1819,-4.47572,0
83.9254,-54.0626,-4.48855,0
83.8768,-53.9456,-4.50107,0
83.8263,-53.8302,-4.51299,0
83.7738,-53.7165,-4.52431,0
83.7195,-53.6045,-4.53503,0
83.6634,-53.4942,-4.54515,0
83.6055,-53.3857,-4.55468,0
83.5521,-53.277,-4.56328,0
83.4995,-53.1691,-4.57119,0
83.4449,-53.0626,-4.57857,0
83.3885,-52.9576,-4.5854,0
83.3302,-52.854,-4.59171,0
83.27,-52.7521,-4.59749,0
83.2081,-52.6516,-4.60275,0
83.1445,-52.5528,-4.60748,0
83.0841,-52.453,-4.61144,0
83.0321,-52.3493,-4.61436,0
78.6343,-61.3978,-2.57192,0
78.7885,-61.4258,-2.5858,0
78.944,-61.4504,-2.6002,0
79.1002,-61.4685,-2.61619,0
79.2561,-61.4731,-2.63596,0
79.4124,-61.4744,-2.65609,0
79.5689,-61.4722,-2.67658,0
79.7257,-61.4667,-2.69745,0
79.8791,-61.4421,-2.72365,0
80.0308,-61.4091,-2.75172,0
80.1805,-61.3691,-2.78109,174
80.3312,-61.3333,-2.8083,0
80.4798,-61.2906,-2.8368,0
80.6274,-61.2448,-2.86542,0
80.7738,-61.1958,-2.89414,0
80.9191,-61.1436,-2.92296,0
81.063,-61.0884,-2.95186,0
81.2055,-61.0302,-2.98083,0
81.3467,-60.9689,-3.00987,0
81.4865,-60.9046,-3.03895,0
81.6248,-60.8373,-3.06806,0
81.7614,-60.7671,-3.09719,0
81.8878,-60.6795,-3.13061,0
82.0113,-60.5883,-3.16418,0
82.1321,-60.4943,-3.19771,0
82.2504,-60.398,-3.23102,0
82.3686,-60.3027,-3.2632,0
82.484,-60.2046,-3.29535,0
82.5965,-60.1037,-3.32747,0
82.7062,-60.0001,-3.35952,0
82.8127,-59.8939,-3.39149,0
82.9163,-59.7852,-3.42335,0
83.0169,-59.6742,-3.45508,0
83.1142,-59.5608,-3.48665,0
83.2084,-59.4453,-3.51804,0
83.2994,-59.3277,-3.54925,0
83.3871,-59.2081,-3.58024,0
83.4716,-59.0867,-3.61099,0
83.5527,-58.9634,-3.64149,0
83.6305,-58.8385,-3.67172,0
83.7049,-58.712,-3.70166,0
83.776,-58.584,-3.73128,0
83.8438,-58.4547,-3.76059,0
83.908,-58.324,-3.78956,0
83.958,-58.1856,-3.82019,0
84.0012,-58.0447,-3.85092,0
84.0405,-57.9035,-3.88114,0
84.0762,-57.7621,-3.91083,0
84.1084,-57.6205,-3.93996,0
84.1368,-57.479,-3.96855,0
84.1617,-57.3376,-3.99656,0
84.1831,-57.1963,-4.024,0
84.2012,-57.0554,-4.05086,0
84.2157,-56.9148,-4.07711,0
84.227,-56.7747,-4.10278,0
84.2349,-56.6351,-4.12784,0
84.2395,-56.4962,-4.15228,0
84.2411,-56.358,-4.17612,0
84.2448,-56.2219,-4.19875,0
84.2508,-56.0875,-4.2202,0
84.2541,-55.9536,-4.24108,0
84.2544,-55.8202,-4.26141,0
84.2469,-55.6867,-4.28166,0
84.2369,-55.554,-4.30132,0
84.2241,-55.4222,-4.32035,0
84.2088,-55.2913,-4.33879,0
84.1909,-55.1614,-4.35663,0
84.1705,-55.0325,-4.37387,0
84.1476,-54.9047,-4.3905,0
84.1223,-54.7779,-4.40654,0
84.0946,-54.6523,-4.42198,0
84.0646,-54.5279,-4.43683,0
84.0323,-54.4047,-4.45109,0
83.9978,-54.2827,-4.46476,0
83.9611,-54.1619,-4.47785,0
83.9175,-54.0431,-4.49067,0
83.8686,-53.9263,-4.50309,0
83.8177,-53.8112,-4.5149,0
83.7649,-53.6978,-4.52612,0
83.7104,-53.5861,-4.53674,0
83.6539,-53.4761,-4.54677,0
83.5957,-53.3679,-4.55621,0
83.5435,-53.259,-4.56464,0
83.4905,-53.1513,-4.57246,0
83.4358,-53.0451,-4.57973,0
83.379,-52.9403,-4.58648,0
83.3203,-52.837,-4.59271,0
83.2599,-52.7353,-4.5984,0
83.1977,-52.6352,-4.60356,0
83.1338,-52.5366,-4.60821,0
83.0756,-52.4358,-4.61195,0
83.0233,-52.3322,-4.6148,0
78.5066,-61.3718,-2.56074,0
78.6598,-61.4026,-2.57419,0
78.8143,-61.4301,-2.58815,0
78.9698,-61.4542,-2.60263,0
79.126,-61.4695,-2.61944,0
79.282,-61.4735,-2.63926,0
79.4383,-61.4742,-2.65946,0
79.5948,-61.4715,-2.68002,0
79.7516,-61.4654,-2.70093,0
79.9044,-61.4368,-2.7283,0
80.0558,-61.4033,-2.75639,0
80.2059,-61.3645,-2.78522,174
80.3559,-61.3264,-2.81301,0
80.5044,-61.2832,-2.84153,0
80.6517,-61.2369,-2.87017,0
80.798,-61.1873,-2.8989,0
80.9429,-61.1347,-2.92774,0
81.0866,-61.079,-2.95665,0
81.229,-61.0202,-2.98564,0
81.37,-60.9584,-3.01468,0
81.5095,-60.8936,-3.04376,0
83.9449,-54.6926,-4.38944,0
83.9173,-54.5714,-4.40418,0
83.8873,-54.4513,-4.41834,0
83.8552,-54.3324,-4.43194,0
83.8198,-54.2148,-4.44505,0
83.7758,-54.0992,-4.45806,0
83.7298,-53.9852,-4.47047,0
83.682,-53.8728,-4.4823,0
83.6322,-53.762,-4.49354,0
83.5805,-53.6528,-4.5042,0
83.527,-53.5453,-4.51428,0
83.4718,-53.4394,-4.52379,0
83.4164,-53.3347,-4.53265,0
83.3661,-53.2295,-4.54051,0
83.3139,-53.1257,-4.54785,0
83.2599,-53.0233,-4.55468,0
83.204,-52.9224,-4.56099,0
83.1463,-52.8229,-4.56678,0
83.0868,-52.7249,-4.57207,0
83.0257,-52.6284,-4.57684,0
82.9712,-52.5293,-4.58061,0
82.9209,-52.4282,-4.58353,0
78.6094,-61.1752,-2.5945,0
78.7584,-61.202,-2.60795,0
78.9087,-61.2256,-2.62189,0
79.06,-61.2457,-2.63633,0
79.2122,-61.2625,-2.65127,0
79.3641,-61.2678,-2.66944,0
79.5159,-61.2659,-2.68928,0
79.6678,-61.2606,-2.70949,0
79.8183,-61.2449,-2.73237,0
79.9656,-61.2135,-2.75956,0
80.112,-61.179,-2.78691,0
80.2575,-61.1413,-2.8144,0
80.402,-61.1005,-2.84203,0
80.5454,-61.0567,-2.86977,0
80.6877,-61.0098,-2.89762,0
80.8288,-60.9598,-2.92557,0
80.9688,-60.9068,-2.9536,0
81.1074,-60.8509,-2.98172,0
81.2448,-60.792,-3.00988,0
81.377,-60.723,-3.04028,0
81.5043,-60.6451,-3.07254,0
81.6292,-60.5642,-3.10485,0
81.7516,-60.4802,-3.13719,0
81.8714,-60.3934,-3.16952,0
81.9887,-60.3038,-3.20186,0
82.1034,-60.2114,-3.23415,0
82.2153,-60.1164,-3.26637,0
82.3268,-60.022,-3.29757,0
82.4362,-59.9256,-3.32854,0
82.5427,-59.8266,-3.35945,0
82.6464,-59.7251,-3.39028,0
82.7473,-59.6211,-3.42101,0
82.845,-59.5149,-3.45163,0
82.9399,-59.4064,-3.48211,0
83.0318,-59.2957,-3.51244,0
83.1205,-59.1831,-3.54258,0
83.2062,-59.0685,-3.57253,0
83.2887,-58.952,-3.60225,0
83.3681,-58.8338,-3.63175,0
83.4443,-58.7139,-3.66099,0
83.5173,-58.5924,-3.68996,0
83.587,-58.4695,-3.71865,0
83.6534,-58.3453,-3.74702,0
83.7091,-58.2148,-3.77662,0
83.7559,-58.0803,-3.80685,0
83.7991,-57.9453,-3.83661,0
83.8389,-57.8099,-3.86588,0
83.875,-57.6742,-3.89465,0
83.9077,-57.5384,-3.92291,0
83.937,-57.4024,-3.95065,0
83.9627,-57.2665,-3.97784,0
83.9851,-57.1307,-4.00451,0
84.0041,-56.9952,-4.03061,0
84.0199,-56.8598,-4.05616,0
84.0324,-56.7249,-4.08114,0
84.0418,-56.5905,-4.10554,0
84.0498,-56.4571,-4.12914,0
84.0625,-56.3263,-4.1512,0
84.0724,-56.1958,-4.17273,0
84.0795,-56.0657,-4.19371,0
84.0838,-55.9359,-4.21416,0
84.0848,-55.8065,-4.23412,0
84.0789,-55.677,-4.25399,0
84.0703,-55.5483,-4.27326,0
84.0592,-55.4204,-4.29195,0
84.0455,-55.2933,-4.31007,0
84.0294,-55.1672,-4.3276,0
84.0107,-55.042,-4.34455,0
83.9897,-54.9178,-4.36091,0
83.9662,-54.7946,-4.37672,0
83.9405,-54.6725,-4.39193,0
83.9125,-54.5514,-4.40657,0
83.8822,-54.4315,-4.42063,0
83.8497,-54.3128,-4.43413,0
83.8126,-54.1955,-4.44725,0
83.7684,-54.0802,-4.46015,0
83.722,-53.9665,-4.47248,0
83.6738,-53.8543,-4.4842,0
83.6237,-53.7438,-4.49534,0
83.5718,-53.6349,-4.50591,0
83.518,-53.5276,-4.5159,0
83.4625,-53.422,-4.52531,0
83.4082,-53.3172,-4.53399,0
83.3577,-53.2122,-4.54176,0
83.3051,-53.1087,-4.54902,0
83.2507,-53.0065,-4.55576,0
83.1945,-52.9058,-4.56198,0
83.1366,-52.8066,-4.56769,0
83.0768,-52.7088,-4.57289,0
83.0153,-52.6126,-4.57759,0
82.963,-52.5125,-4.58112,0
82.9123,-52.4116,-4.58396,0
78.6341,-61.1799,-2.5967,0
78.7833,-61.2062,-2.61022,0
78.9337,-61.2291,-2.62425,0
79.0851,-61.2488,-2.63877,0
79.2375,-61.265,-2.6538,0
79.3892,-61.2677,-2.6727,0
79.541,-61.2652,-2.69261,0
79.693,-61.2594,-2.71287,0
79.8428,-61.2399,-2.73686,0
79.9899,-61.208,-2.76408,0
80.1362,-61.173,-2.79145,0
80.2815,-61.1348,-2.81897,0
80.4258,-61.0935,-2.84661,0
80.5691,-61.0491,-2.87438,0
80.7112,-61.0017,-2.90225,0
80.8522,-60.9512,-2.93021,0
80.9919,-60.8978,-2.95825,0
81.1303,-60.8413,-2.98637,0
81.2673,-60.7819,-3.01455,0
81.3984,-60.7103,-3.04563,0
81.5252,-60.6319,-3.07789,0
81.6496,-60.5505,-3.11021,0
81.7716,-60.466,-3.14255,0
81.8911,-60.3787,-3.17488,0
82.0079,-60.2886,-3.2072,0
82.1221,-60.1958,-3.23948,0
82.2336,-60.1004,-3.2717,0
82.3452,-60.0062,-3.3027,0
82.454,-59.9093,-3.33366,0
82.5601,-59.8099,-3.36455,0
82.6634,-59.708,-3.39537,0
82.7636,-59.6037,-3.4261,0
82.861,-59.497,-3.45669,0
82.9553,-59.3882,-3.48715,0
83.0467,-59.2772,-3.51744,0
83.1349,-59.1642,-3.54756,0
83.2202,-59.0493,-3.57747,0
83.3021,-58.9325,-3.60716,0
83.3809,-58.814,-3.63661,0
83.4566,-58.6939,-3.6658,0
83.5291,-58.5722,-3.69473,0
83.5982,-58.449,-3.72337,0
83.6641,-58.3245,-3.7517,0
83.717,-58.1926,-3.78166,0
83.7634,-58.058,-3.81181,0
83.806,-57.9229,-3.84149,0
83.8452,-57.7875,-3.87068,0
83.8807,-57.6517,-3.89937,0
83.9128,-57.5159,-3.92754,0
83.9414,-57.3799,-3.95519,0
83.9666,-57.244,-3.9823,0
83.9885,-57.1083,-4.00887,0
84.007,-56.9727,-4.03488,0
84.0222,-56.8375,-4.06034,0
84.0342,-56.7026,-4.08522,0
84.043,-56.5682,-4.10953,0
84.0521,-56.4354,-4.13283,0
84.0644,-56.3047,-4.15481,0
84.0737,-56.1742,-4.17624,0
84.0804,-56.0441,-4.19714,0
84.0842,-55.9145,-4.21749,0
84.0839,-55.785,-4.23746,0
84.0776,-55.6556,-4.25722,0
84.0687,-55.527,-4.2764,0
84.0571,-55.3993,-4.29499,0
84.043,-55.2724,-4.31301,0
84.0264,-55.1464,-4.33044,0
84.0074,-55.0213,-4.3473,0
83.986,-54.8973,-4.36358,0
83.9622,-54.7743,-4.37927,0
83.936,-54.6523,-4.39439,0
83.9076,-54.5315,-4.40894,0
83.8769,-54.4118,-4.42291,0
83.8441,-54.2932,-4.43632,0
83.8054,-54.1763,-4.44943,0
83.7608,-54.0612,-4.46224,0
83.7142,-53.9478,-4.47446,0
83.6656,-53.8359,-4.48609,0
83.6152,-53.7256,-4.49713,0
83.563,-53.617,-4.5076,0
83.509,-53.51,-4.5175,0
83.4532,-53.4047,-4.52682,0
83.3999,-53.2997,-4.53531,0
83.3491,-53.195,-4.54301,0
83.2962,-53.0916,-4.55017,0
83.2416,-52.9897,-4.55683,0
83.1851,-52.8892,-4.56297,0
83.1268,-52.7902,-4.5686,0
83.0668,-52.6928,-4.5737,0
83.005,-52.5968,-4.57831,0
82.9548,-52.4957,-4.58163,0
82.9037,-52.395,-4.58439,0
78.5104,-61.1555,-2.58579,0
78.6587,-61.1845,-2.59889,0
78.8081,-61.2102,-2.61251,0
78.9587,-61.2326,-2.62662,0
79.1102,-61.2517,-2.64123,0
79.2629,-61.2673,-2.65635,0
79.4144,-61.2675,-2.67597,0
79.5662,-61.2645,-2.69594,0
79.7182,-61.2581,-2.71626,0
79.8673,-61.2348,-2.74136,0
80.0142,-61.2024,-2.76861,0
80.1603,-61.1668,-2.796,0
80.3055,-61.1282,-2.82354,0
80.4496,-61.0863,-2.85121,0
80.5927,-61.0415,-2.87898,0
80.7346,-60.9935,-2.90687,0
80.8754,-60.9426,-2.93486,0
81.0148,-60.8886,-2.96292,0
81.153,-60.8317,-2.99104,0
81.29,-60.7718,-3.01923,0
81.4195,-60.6975,-3.05097,0
83.7943,-54.6915,-4.36342,0
83.768,-54.5737,-4.37785,0
83.7396,-54.457,-4.39174,0
83.7085,-54.3413,-4.4051,0
83.6687,-54.2276,-4.41846,0
83.6269,-54.1153,-4.43124,0
83.583,-54.0045,-4.44345,0
83.5373,-53.8952,-4.45508,0
83.4897,-53.7874,-4.46615,0
83.4402,-53.6811,-4.47664,0
83.3889,-53.5765,-4.48659,0
83.336,-53.4734,-4.49598,0
83.2813,-53.3719,-4.50482,0
83.2314,-53.2699,-4.51267,0
83.1813,-53.1689,-4.51989,0
83.1291,-53.0692,-4.52662,0
83.0752,-52.971,-4.53283,0
83.0195,-52.8741,-4.53856,0
82.962,-52.7787,-4.54378,0
82.903,-52.6847,-4.54851,0
82.8559,-52.5854,-4.55181,0
82.8069,-52.487,-4.55465,0
78.6099,-60.9706,-2.61785,0
78.7543,-60.9958,-2.63096,0
78.8998,-61.0177,-2.64456,0
79.0462,-61.0365,-2.65863,0
79.1935,-61.0519,-2.67319,0
79.3417,-61.064,-2.68821,0
79.4902,-61.0704,-2.70451,0
79.6377,-61.0648,-2.72415,0
79.7846,-61.0535,-2.74498,0
79.9277,-61.0232,-2.77137,0
80.0699,-60.9898,-2.79793,0
80.2112,-60.9534,-2.82462,0
80.3516,-60.9139,-2.85144,0
80.4909,-60.8714,-2.87838,0
80.6291,-60.826,-2.90543,0
80.7663,-60.7776,-2.93257,0
80.8988,-60.7183,-2.96234,0
81.0284,-60.653,-2.99314,0
81.1559,-60.5845,-3.02405,0
81.2812,-60.5129,-3.05507,0
81.4043,-60.4383,-3.08618,0
81.5252,-60.3607,-3.11734,0
81.6436,-60.2802,-3.14853,0
81.7597,-60.1969,-3.17974,0
81.8734,-60.1109,-3.21093,0
81.9844,-60.0222,-3.2421,0
82.0929,-59.931,-3.2732,0
82.1987,-59.8373,-3.30423,0
82.3036,-59.7434,-3.33449,0
82.4067,-59.6483,-3.36432,0
82.5073,-59.5507,-3.39408,0
82.605,-59.4508,-3.42375,0
82.6998,-59.3486,-3.45331,0
82.7919,-59.2442,-3.48275,0
82.881,-59.1378,-3.51203,0
82.9672,-59.0294,-3.54116,0
83.0503,-58.9191,-3.5701,0
83.1305,-58.807,-3.59883,0
83.2077,-58.6932,-3.62735,0
83.2818,-58.5777,-3.65561,0
83.3527,-58.4608,-3.68363,0
83.4207,-58.3423,-3.71138,0
83.4785,-58.2179,-3.74036,0
83.5282,-58.0894,-3.77,0
83.5744,-57.9603,-3.7992,0
83.6171,-57.8307,-3.82796,0
83.6564,-57.7007,-3.85626,0
83.6924,-57.5703,-3.88409,0
83.725,-57.4397,-3.91144,0
83.7541,-57.3089,-3.9383,0
83.7801,-57.1782,-3.96465,0
83.8028,-57.0475,-3.99049,0
83.8223,-56.9169,-4.01579,0
83.8386,-56.7866,-4.04057,0
83.8532,-56.6571,-4.0646,0
83.8719,-56.5301,-4.0871,0
83.8876,-56.4033,-4.1091,0
83.9006,-56.2766,-4.13059,0
83.9109,-56.1502,-4.15156,0
83.9184,-56.024,-4.17202,0
83.9233,-55.8983,-4.19196,0
83.9237,-55.7726,-4.21158,0
83.9187,-55.647,-4.23097,0
83.9112,-55.5222,-4.24979,0
83.9011,-55.3981,-4.26805,0
83.8886,-55.2748,-4.28576,0
83.8736,-55.1524,-4.3029,0
83.8562,-55.0308,-4.31947,0
83.8365,-54.9102,-4.33549,0
83.8144,-54.7906,-4.35096,0
83.7901,-54.6719,-4.36585,0
83.7634,-54.5543,-4.3802,0
83.7346,-54.4377,-4.39399,0
83.702,-54.3224,-4.40736,0
83.6619,-54.2089,-4.42063,0
83.6198,-54.0968,-4.43331,0
83.5756,-53.9863,-4.44541,0
83.5295,-53.8772,-4.45695,0
83.4816,-53.7697,-4.46792,0
83.4319,-53.6637,-4.47834,0
83.3803,-53.5593,-4.48819,0
83.327,-53.4564,-4.49749,0
83.2722,-53.3552,-4.50624,0
83.2233,-53.2531,-4.5139,0
83.1727,-53.1523,-4.52104,0
83.1203,-53.0529,-4.52768,0
83.0661,-52.9548,-4.53382,0
83.0101,-52.8582,-4.53946,0
82.9524,-52.763,-4.5446,0
82.8953,-52.6682,-4.54909,0
82.8479,-52.569,-4.55232,0
82.7986,-52.4708,-4.55507,0
78.6338,-60.975,-2.61999,0
78.7784,-60.9996,-2.63319,0
78.924,-61.0211,-2.64686,0
79.0705,-61.0393,-2.66101,0
79.218,-61.0542,-2.67564,0
79.3663,-61.0657,-2.69074,0
79.5147,-61.0697,-2.70775,0
79.6621,-61.0636,-2.72744,0
79.8084,-61.0487,-2.74934,0
79.9513,-61.0179,-2.77576,0
80.0934,-60.984,-2.80235,0
80.2345,-60.947,-2.82905,0
80.3748,-60.9071,-2.8559,0
80.5138,-60.8641,-2.88285,0
80.652,-60.8182,-2.90992,0
80.7889,-60.7693,-2.93708,0
80.9205,-60.7077,-2.96744,0
81.0496,-60.6418,-2.99825,0
81.1767,-60.5728,-3.0292,0
81.3017,-60.5008,-3.06023,0
81.4245,-60.4256,-3.09134,0
81.5449,-60.3475,-3.12251,0
81.663,-60.2666,-3.15371,0
81.7787,-60.1828,-3.1849,0
81.8919,-60.0963,-3.2161,0
82.0026,-60.0072,-3.24725,0
82.1106,-59.9156,-3.27835,0
82.216,-59.8215,-3.30936,0
82.3209,-59.7278,-3.33944,0
82.4237,-59.6323,-3.36925,0
82.5236,-59.5343,-3.399,0
82.6209,-59.434,-3.42865,0
82.7152,-59.3314,-3.4582,0
82.8068,-59.2268,-3.48761,0
82.8955,-59.12,-3.51688,0
82.9811,-59.0113,-3.54597,0
83.0638,-58.9007,-3.57487,0
83.1435,-58.7882,-3.60358,0
83.2202,-58.6742,-3.63205,0
83.2937,-58.5585,-3.66027,0
83.3643,-58.4412,-3.68825,0
83.4316,-58.3226,-3.71595,0
83.487,-58.1967,-3.7453,0
83.536,-58.0681,-3.77487,0
83.5816,-57.9389,-3.804,0
83.6239,-57.8092,-3.83268,0
83.6627,-57.6791,-3.86091,0
83.698,-57.5487,-3.88866,0
83.73,-57.418,-3.91593,0
83.7587,-57.2873,-3.9427,0
83.7841,-57.1565,-3.96896,0
83.8063,-57.0258,-3.99471,0
83.8252,-56.8953,-4.01993,0
83.8409,-56.765,-4.04463,0
83.8565,-56.636,-4.06836,0
83.8746,-56.5091,-4.09078,0
83.8899,-56.3822,-4.1127,0
83.9025,-56.2556,-4.13411,0
83.9123,-56.1292,-4.15499,0
83.9194,-56.0032,-4.17536,0
83.9238,-55.8775,-4.1952,0
83.923,-55.7517,-4.21483,0
83.9177,-55.6263,-4.23412,0
83.9097,-55.5016,-4.25286,0
83.8992,-55.3776,-4.27103,0
83.8862,-55.2545,-4.28863,0
83.8709,-55.1322,-4.30569,0
83.8531,-55.0108,-4.32217,0
83.833,-54.8903,-4.33809,0
83.8105,-54.7708,-4.35346,0
83.7859,-54.6524,-4.36826,0
83.7588,-54.5349,-4.38252,0
83.7297,-54.4185,-4.39622,0
83.6955,-54.3035,-4.4096,0
83.6551,-54.1902,-4.42276,0
83.6126,-54.0784,-4.43535,0
83.568,-53.9681,-4.44736,0
83.5217,-53.8593,-4.45881,0
83.4734,-53.752,-4.46969,0
83.4234,-53.6463,-4.48001,0
83.3716,-53.5421,-4.48976,0
83.318,-53.4395,-4.49897,0
83.264,-53.3382,-4.50755,0
83.215,-53.2363,-4.51512,0
83.1641,-53.1357,-4.52217,0
83.1114,-53.0365,-4.52873,0
83.0569,-52.9387,-4.53479,0
83.0006,-52.8423,-4.54034,0
82.9427,-52.7474,-4.54541,0
82.8877,-52.6517,-4.54965,0
82.8398,-52.5527,-4.55281,0
82.7902,-52.4546,-4.55548,0
78.5141,-60.952,-2.60935,0
78.6577,-60.9793,-2.62215,0
78.8024,-61.0034,-2.63542,0
78.9482,-61.0243,-2.64918,0
79.0949,-61.042,-2.66341,0
79.2426,-61.0563,-2.67811,0
79.3909,-61.0673,-2.69328,0
79.5391,-61.0689,-2.71098,0
79.6866,-61.0623,-2.73073,0
79.8321,-61.0438,-2.75371,0
79.9749,-61.0125,-2.78015,0
80.1168,-60.9781,-2.80676,0
80.2578,-60.9406,-2.83349,0
80.3979,-60.9002,-2.86036,0
80.5369,-60.8567,-2.88733,0
80.6748,-60.8103,-2.91441,0
80.8112,-60.7601,-2.94184,0
80.942,-60.697,-2.97254,0
81.0708,-60.6306,-3.00337,0
81.1977,-60.5611,-3.03433,0
81.3222,-60.4885,-3.06538,0
83.6513,-54.6904,-4.33874,0
83.6264,-54.5758,-4.35289,0
83.5994,-54.4623,-4.3665,0
83.5636,-54.3503,-4.38017,0
83.5257,-54.2397,-4.39328,0
83.4858,-54.1305,-4.40584,0
83.4439,-54.0227,-4.41784,0
83.4002,-53.9163,-4.42928,0
83.3545,-53.8114,-4.44017,0
83.3071,-53.708,-4.45051,0
83.258,-53.606,-4.46032,0
83.2071,-53.5056,-4.46959,0
83.1545,-53.4067,-4.47832,0
83.1038,-53.3082,-4.48625,0
83.0553,-53.2099,-4.49336,0
83.005,-53.1128,-4.49999,0
82.9529,-53.0171,-4.50613,0
82.8991,-52.9227,-4.51177,0
82.8436,-52.8297,-4.51693,0
82.792,-52.7355,-4.52118,0
82.7461,-52.6388,-4.5244,0
82.6984,-52.543,-4.52715,0
78.6104,-60.7777,-2.63987,0
78.7504,-60.8014,-2.65266,0
78.8913,-60.8219,-2.66592,0
79.0332,-60.8394,-2.67964,0
79.176,-60.8536,-2.69382,0
79.3195,-60.8646,-2.70845,0
79.4637,-60.8723,-2.72354,0
79.6086,-60.8767,-2.73906,0
79.7524,-60.8708,-2.75744,0
79.8917,-60.8429,-2.78257,0
80.03,-60.8106,-2.80836,0
80.1674,-60.7753,-2.8343,0
80.3019,-60.7314,-2.86228,0
80.4344,-60.6818,-2.89128,0
80.5652,-60.6288,-2.92048,0
80.6941,-60.5726,-2.94987,0
80.8213,-60.5132,-2.97943,0
80.9467,-60.4506,-3.00914,0
81.0701,-60.3849,-3.03899,0
81.1913,-60.3162,-3.06893,0
81.3106,-60.2446,-3.09895,0
81.4277,-60.1701,-3.12904,0
81.5425,-60.0928,-3.15916,0
81.655,-60.0127,-3.1893,0
81.7651,-59.9301,-3.21944,0
81.8728,-59.8448,-3.24954,0
81.978,-59.7571,-3.2796,0
82.0807,-59.667,-3.3096,0
82.1809,-59.5746,-3.33951,0
82.2794,-59.4813,-3.36888,0
82.3769,-59.3874,-3.39764,0
82.4716,-59.2912,-3.42631,0
82.5638,-59.1928,-3.4549,0
82.653,-59.0923,-3.48335,0
82.7396,-58.9898,-3.51167,0
82.8233,-58.8853,-3.53983,0
82.9041,-58.779,-3.56782,0
82.9822,-58.671,-3.59562,0
83.0572,-58.5613,-3.62321,0
83.1293,-58.45,-3.65057,0
83.1984,-58.3372,-3.6777,0
83.258,-58.2183,-3.70612,0
83.3102,-58.0956,-3.73517,0
83.359,-57.9722,-3.76381,0
83.4045,-57.8481,-3.79205,0
83.4468,-57.7235,-3.81987,0
83.4857,-57.5984,-3.84726,0
83.5213,-57.4729,-3.87421,0
83.5537,-57.3472,-3.9007,0
83.583,-57.2213,-3.92673,0
83.6089,-57.0954,-3.95227,0
83.6319,-56.9694,-3.97732,0
83.654,-56.8444,-4.00151,0
83.6781,-56.7214,-4.02439,0
83.6996,-56.5983,-4.0468,0
83.7184,-56.4753,-4.06872,0
83.7342,-56.3524,-4.09016,0
83.7475,-56.2296,-4.11111,0
83.7581,-56.107,-4.13155,0
83.7661,-55.9846,-4.1515,0
83.7713,-55.8626,-4.17094,0
83.7712,-55.7405,-4.19025,0
83.7671,-55.6186,-4.20918,0
83.7605,-55.4975,-4.22757,0
83.7514,-55.377,-4.24542,0
83.7399,-55.2573,-4.26273,0
83.726,-55.1384,-4.27949,0
83.7098,-55.0203,-4.29571,0
83.6912,-54.9031,-4.31139,0
83.6705,-54.7868,-4.32652,0
83.6474,-54.6714,-4.34112,0
83.622,-54.557,-4.35518,0
83.5938,-54.4436,-4.36879,0
83.5574,-54.3319,-4.38237,0
83.5192,-54.2215,-4.39541,0
83.479,-54.1126,-4.40787,0
83.4368,-54.005,-4.41977,0
83.3927,-53.8989,-4.43112,0
83.3468,-53.7942,-4.44193,0
83.2991,-53.691,-4.45218,0
83.2497,-53.5893,-4.46189,0
83.1985,-53.4891,-4.47107,0
83.1457,-53.3904,-4.47971,0
83.0959,-53.2919,-4.48747,0
83.0471,-53.1937,-4.49449,0
82.9965,-53.0968,-4.50105,0
82.9441,-53.0013,-4.50709,0
82.8901,-52.9072,-4.51266,0
82.8342,-52.8145,-4.51774,0
82.7845,-52.7194,-4.52175,0
82.7384,-52.6229,-4.52489,0
82.6902,-52.5272,-4.52758,0
78.6335,-60.7818,-2.64195,0
78.7737,-60.805,-2.65483,0
78.9148,-60.8251,-2.66816,0
79.0568,-60.842,-2.68196,0
79.1997,-60.8557,-2.69621,0
79.3433,-60.8661,-2.71092,0
79.4877,-60.8732,-2.72608,0
79.6326,-60.8771,-2.74169,0
79.7758,-60.8676,-2.76116,0
79.9148,-60.8378,-2.78683,0
80.0528,-60.805,-2.81265,0
80.19,-60.7692,-2.83861,0
80.324,-60.7234,-2.86708,0
80.4561,-60.6732,-2.8961,0
80.5866,-60.6197,-2.92533,0
80.7153,-60.563,-2.95476,0
80.8423,-60.503,-2.98435,0
80.9673,-60.4399,-3.01409,0
81.0903,-60.3737,-3.04394,0
81.2113,-60.3045,-3.0739,0
81.3302,-60.2324,-3.10394,0
81.4468,-60.1574,-3.13403,0
81.5612,-60.0797,-3.16415,0
81.6734,-59.9992,-3.1943,0
81.783,-59.9161,-3.22442,0
81.8905,-59.8305,-3.25453,0
81.9952,-59.7424,-3.28458,0
82.0975,-59.6519,-3.31456,0
82.1972,-59.559,-3.34446,0
82.2959,-59.4659,-3.37365,0
82.3928,-59.3716,-3.40239,0
82.4871,-59.275,-3.43106,0
82.5788,-59.1763,-3.45962,0
82.6677,-59.0754,-3.48805,0
82.7537,-58.9726,-3.51635,0
82.8369,-58.8679,-3.54448,0
82.9173,-58.7613,-3.57245,0
82.9948,-58.6529,-3.60021,0
83.0693,-58.5429,-3.62776,0
83.1409,-58.4314,-3.65508,0
83.2096,-58.3183,-3.68216,0
83.2669,-58.198,-3.71097,0
83.3185,-58.0752,-3.73993,0
83.3668,-57.9517,-3.76851,0
83.4118,-57.8275,-3.79669,0
83.4534,-57.7028,-3.82444,0
83.4918,-57.5776,-3.85176,0
83.5269,-57.4521,-3.87863,0
83.5588,-57.3264,-3.90505,0
83.5874,-57.2005,-3.93099,0
83.613,-57.0745,-3.95645,0
83.6353,-56.9485,-3.98143,0
83.6582,-56.8241,-4.00533,0
83.682,-56.701,-4.02813,0
83.7029,-56.5779,-4.05047,0
83.7212,-56.4549,-4.07231,0
83.7366,-56.332,-4.09366,0
83.7495,-56.2092,-4.11452,0
83.7597,-56.0867,-4.13489,0
83.7671,-55.9644,-4.15476,0
83.772,-55.8424,-4.17412,0
83.7707,-55.7202,-4.19341,0
83.7662,-55.5985,-4.21226,0
83.7591,-55.4775,-4.23056,0
83.7497,-55.3571,-4.24833,0
83.7378,-55.2375,-4.26554,0
83.7235,-55.1188,-4.28221,0
83.7069,-55.0008,-4.29835,0
83.688,-54.8837,-4.31394,0
83.6668,-54.7676,-4.32898,0
83.6434,-54.6523,-4.34349,0
83.6177,-54.5381,-4.35745,0
83.5878,-54.425,-4.37108,0
83.5512,-54.3135,-4.38458,0
83.5127,-54.2034,-4.3975,0
83.4721,-54.0946,-4.40988,0
83.4297,-53.9873,-4.4217,0
83.3852,-53.8814,-4.43295,0
83.3391,-53.777,-4.44366,0
83.2911,-53.674,-4.45382,0
83.2413,-53.5726,-4.46345,0
83.1899,-53.4726,-4.47254,0
83.1368,-53.3742,-4.4811,0
83.0879,-53.2755,-4.48867,0
83.0388,-53.1776,-4.49562,0
82.9879,-53.0809,-4.50208,0
82.9353,-52.9856,-4.50805,0
82.8809,-52.8917,-4.51353,0
82.8248,-52.7992,-4.51853,0
82.777,-52.7034,-4.5223,0
82.7305,-52.607,-4.52537,0
82.6821,-52.5114,-4.52797,0
78.5173,-60.7592,-2.63194,0
78.6567,-60.7859,-2.64405,0
78.797,-60.8085,-2.657,0
78.9383,-60.8281,-2.67041,0
79.0805,-60.8444,-2.68429,0
79.2234,-60.8576,-2.69862,0
79.3672,-60.8675,-2.7134,0
79.5117,-60.8741,-2.72863,0
79.6566,-60.8771,-2.74442,0
79.7988,-60.8629,-2.76541,0
79.9377,-60.8326,-2.7911,0
80.0756,-60.7993,-2.81695,0
80.2126,-60.7626,-2.84304,0
80.346,-60.7153,-2.87187,0
80.4779,-60.6646,-2.90092,0
80.608,-60.6106,-2.93019,0
80.7365,-60.5533,-2.95965,0
80.863,-60.4928,-2.98926,0
80.9878,-60.4292,-3.01902,0
81.1105,-60.3625,-3.0489,0
81.2311,-60.2928,-3.07887,0
83.5156,-54.6894,-4.3153,0
83.492,-54.5779,-4.32916,0
83.4603,-54.4677,-4.34309,0
83.4262,-54.3589,-4.35652,0
83.3901,-54.2513,-4.3694,0
83.352,-54.145,-4.38174,0
83.3119,-54.04,-4.39354,0
83.27,-53.9365,-4.40479,0
83.2262,-53.8343,-4.4155,0
83.1808,-53.7335,-4.4257,0
83.1335,-53.6341,-4.43536,0
83.0845,-53.5362,-4.4445,0
83.0341,-53.4398,-4.45312,0
82.9825,-53.3446,-4.46116,0
82.9356,-53.2488,-4.46817,0
82.8871,-53.1542,-4.47469,0
82.8367,-53.0609,-4.48073,0
82.7847,-52.9689,-4.48631,0
82.731,-52.8782,-4.49141,0
82.6862,-52.784,-4.49514,0
82.6416,-52.6897,-4.49828,0
82.5949,-52.5963,-4.50096,0
78.6095,-60.5594,-2.67435,0
78.7448,-60.5863,-2.68498,0
78.8812,-60.6097,-2.69631,0
79.0184,-60.6293,-2.70834,0
79.1566,-60.6452,-2.72107,0
79.2956,-60.6573,-2.73449,0
79.4352,-60.6656,-2.74861,0
79.5752,-60.6699,-2.76342,0
79.7157,-60.6702,-2.77891,0
79.8526,-60.6513,-2.80044,0
79.9852,-60.6154,-2.82708,0
80.1162,-60.5744,-2.85458,0
80.2458,-60.5302,-2.88232,0
80.374,-60.4826,-2.91031,0
80.5005,-60.4318,-2.93851,0
80.6255,-60.3779,-2.9669,0
80.7487,-60.3208,-2.99546,0
80.87,-60.2607,-3.02416,0
80.9895,-60.1976,-3.05299,0
81.1071,-60.1316,-3.08193,0
81.2227,-60.0628,-3.11094,0
81.3362,-59.9911,-3.14002,0
81.4475,-59.9168,-3.16914,0
81.5566,-59.8398,-3.19828,0
81.6635,-59.7603,-3.22742,0
81.768,-59.6782,-3.25655,0
81.8702,-59.5938,-3.28563,0
81.9699,-59.507,-3.31465,0
82.0672,-59.418,-3.34359,0
82.1619,-59.3268,-3.37244,0
82.2545,-59.234,-3.40098,0
82.3466,-59.1413,-3.42873,0
82.4359,-59.0465,-3.45637,0
82.5227,-58.9496,-3.48391,0
82.6068,-58.8507,-3.51133,0
82.6882,-58.75,-3.53859,0
82.7669,-58.6474,-3.56569,0
82.8427,-58.5432,-3.5926,0
82.9158,-58.4373,-3.61932,0
82.9859,-58.3298,-3.64584,0
83.0468,-58.2162,-3.67377,0
83.1012,-58.0991,-3.7022,0
83.1525,-57.9811,-3.73028,0
83.2005,-57.8624,-3.758,0
83.2453,-57.7429,-3.78534,0
83.287,-57.6229,-3.81229,0
83.3255,-57.5025,-3.83882,0
83.3608,-57.3816,-3.86493,0
83.393,-57.2604,-3.89061,0
83.4221,-57.139,-3.91585,0
83.4523,-57.0194,-3.93988,0
83.4819,-56.9004,-3.96307,0
83.5088,-56.7813,-3.98583,0
83.5329,-56.6621,-4.00812,0
83.5543,-56.5427,-4.02995,0
83.573,-56.4234,-4.05132,0
83.5891,-56.3042,-4.07222,0
83.6025,-56.185,-4.09264,0
83.6134,-56.0661,-4.11259,0
83.6217,-55.9473,-4.13206,0
83.6274,-55.8288,-4.15103,0
83.6267,-55.71,-4.17003,0
83.6234,-55.5917,-4.18853,0
83.6177,-55.4741,-4.2065,0
83.6095,-55.357,-4.22396,0
83.5989,-55.2407,-4.24089,0
83.586,-55.1251,-4.25729,0
83.5709,-55.0103,-4.27316,0
83.5534,-54.8963,-4.28851,0
83.5337,-54.7831,-4.30334,0
83.5118,-54.6709,-4.31763,0
83.4873,-54.5595,-4.33147,0
83.4548,-54.4496,-4.34535,0
83.4204,-54.3409,-4.35869,0
83.3839,-54.2336,-4.37149,0
83.3455,-54.1275,-4.38373,0
83.3051,-54.0228,-4.39543,0
83.2629,-53.9194,-4.4066,0
83.2188,-53.8175,-4.41723,0
83.173,-53.7169,-4.42734,0
83.1255,-53.6178,-4.43692,0
83.0763,-53.5202,-4.44596,0
83.0255,-53.424,-4.45449,0
82.9748,-53.3287,-4.46236,0
82.9277,-53.233,-4.46928,0
82.8789,-53.1386,-4.47573,0
82.8282,-53.0456,-4.48169,0
82.7759,-52.9538,-4.48718,0
82.7222,-52.8632,-4.49218,0
82.679,-52.7683,-4.4957,0
82.6339,-52.6742,-4.49876,0
82.587,-52.5809,-4.50136,0
78.6318,-60.5641,-2.67606,0
78.7673,-60.5904,-2.68681,0
78.9037,-60.6132,-2.69825,0
79.0412,-60.6322,-2.7104,0
79.1796,-60.6475,-2.72324,0
79.3187,-60.6589,-2.73679,0
79.4583,-60.6665,-2.75102,0
79.5984,-60.6702,-2.76593,0
79.739,-60.6699,-2.78153,0
79.8748,-60.6464,-2.80454,0
80.007,-60.6088,-2.83162,0
80.1378,-60.5673,-2.85916,0
80.2672,-60.5225,-2.88695,0
80.395,-60.4744,-2.91497,0
80.5213,-60.4231,-2.9432,0
80.6459,-60.3686,-2.97162,0
80.7689,-60.3111,-3.00021,0
80.89,-60.2505,-3.02893,0
81.0092,-60.1869,-3.05778,0
81.1264,-60.1204,-3.08673,0
81.2416,-60.0511,-3.11576,0
81.3548,-59.979,-3.14485,0
81.4657,-59.9042,-3.17396,0
81.5744,-59.8268,-3.20312,0
81.6809,-59.7468,-3.23224,0
81.7851,-59.6644,-3.26136,0
81.8868,-59.5796,-3.29044,0
81.9862,-59.4924,-3.31945,0
82.083,-59.403,-3.34837,0
82.1773,-59.3115,-3.3772,0
82.27,-59.2188,-3.40559,0
82.3615,-59.1257,-3.43331,0
82.4505,-59.0306,-3.46094,0
82.5368,-58.9333,-3.48846,0
82.6205,-58.8342,-3.51585,0
82.7014,-58.7331,-3.54309,0
82.7796,-58.6303,-3.57016,0
82.855,-58.5258,-3.59704,0
82.9276,-58.4196,-3.62373,0
82.9973,-58.3119,-3.6502,0
83.0561,-58.1968,-3.6785,0
83.11,-58.0796,-3.70688,0
83.1606,-57.9615,-3.7349,0
83.2081,-57.8426,-3.76257,0
83.2525,-57.7231,-3.78984,0
83.2936,-57.603,-3.81671,0
83.3315,-57.4824,-3.84318,0
83.3663,-57.3615,-3.86923,0
83.398,-57.2403,-3.89483,0
83.4266,-57.1189,-3.91999,0
83.4575,-56.9997,-3.94375,0
83.4866,-56.8807,-3.96688,0
83.5129,-56.7616,-3.98955,0
83.5366,-56.6423,-4.01176,0
83.5575,-56.523,-4.03352,0
83.5759,-56.4037,-4.05482,0
83.5916,-56.2844,-4.07564,0
83.6045,-56.1653,-4.09598,0
83.615,-56.0464,-4.11585,0
83.6228,-55.9277,-4.13523,0
83.6277,-55.8092,-4.1542,0
83.6263,-55.6904,-4.17313,0
83.6227,-55.5722,-4.19154,0
83.6165,-55.4546,-4.20943,0
83.6079,-55.3377,-4.22679,0
83.597,-55.2215,-4.24364,0
83.5837,-55.106,-4.25995,0
83.568,-54.9913,-4.27573,0
83.5503,-54.8775,-4.291,0
83.5302,-54.7645,-4.30574,0
83.508,-54.6523,-4.31995,0
83.482,-54.5412,-4.3338,0
83.4492,-54.4315,-4.3476,0
83.4145,-54.3231,-4.36085,0
83.3777,-54.2159,-4.37355,0
83.3389,-54.1101,-4.3857,0
83.2981,-54.0056,-4.39732,0
83.2557,-53.9025,-4.4084,0
83.2114,-53.8007,-4.41894,0
83.1653,-53.7004,-4.42896,0
83.1175,-53.6015,-4.43844,0
83.068,-53.5041,-4.44741,0
83.017,-53.4082,-4.45586,0
82.9672,-53.3127,-4.46354,0
82.9198,-53.2173,-4.47038,0
82.8706,-53.1231,-4.47675,0
82.8197,-53.0303,-4.48263,0
82.7671,-52.9387,-4.48805,0
82.7152,-52.8475,-4.4928,0
82.6716,-52.7526,-4.49623,0
82.6263,-52.6586,-4.49922,0
82.5791,-52.5655,-4.50174,0
78.5198,-60.5394,-2.66764,0
78.6542,-60.5687,-2.6778,0
78.7898,-60.5945,-2.68865,0
78.9266,-60.6166,-2.70022,0
79.0641,-60.635,-2.71248,0
79.2027,-60.6496,-2.72544,0
79.3417,-60.6605,-2.7391,0
79.4815,-60.6674,-2.75345,0
79.6218,-60.6704,-2.76848,0
79.7623,-60.6695,-2.78419,0
79.8969,-60.6409,-2.80885,0
80.0288,-60.6022,-2.83616,0
80.1593,-60.5601,-2.86374,0
80.2885,-60.5148,-2.89157,0
80.4161,-60.4661,-2.91964,0
80.5421,-60.4143,-2.9479,0
80.6665,-60.3593,-2.97634,0
80.7891,-60.3012,-3.00496,0
80.9098,-60.2401,-3.0337,0
81.0287,-60.1761,-3.06257,0
81.1457,-60.1091,-3.09153,0
83.3866,-54.6884,-4.293,0
83.3587,-54.5801,-4.30718,0
83.3283,-54.4729,-4.32088,0
83.2957,-54.367,-4.33406,0
83.2612,-54.2622,-4.34671,0
83.2247,-54.1587,-4.35883,0
83.1863,-54.0565,-4.37043,0
83.1462,-53.9556,-4.38151,0
83.1042,-53.856,-4.39205,0
83.0605,-53.7578,-4.40209,0
83.0152,-53.6609,-4.41161,0
82.968,-53.5654,-4.42062,0
82.9193,-53.4713,-4.42913,0
82.869,-53.3787,-4.43713,0
82.8219,-53.2858,-4.4442,0
82.7749,-53.1936,-4.45062,0
82.7262,-53.1026,-4.45658,0
82.6759,-53.0129,-4.46208,0
82.6272,-52.9229,-4.4668,0
82.5854,-52.8302,-4.4703,0
82.5417,-52.7383,-4.47335,0
82.4962,-52.6472,-4.47596,0
78.6086,-60.3529,-2.70754,0
78.7391,-60.378,-2.71794,0
78.8705,-60.3996,-2.72902,0
79.003,-60.4177,-2.74075,0
79.1362,-60.4322,-2.75316,0
79.2701,-60.443,-2.76623,0
79.4045,-60.4502,-2.77995,0
79.5395,-60.4536,-2.79434,0
79.6747,-60.4532,-2.80937,0
79.8083,-60.4416,-2.82768,0
79.9377,-60.4119,-2.85171,0
80.0661,-60.3785,-2.87616,0
80.1931,-60.3412,-2.90115,0
80.3172,-60.2955,-2.9282,0
80.4399,-60.2467,-2.95546,0
80.5609,-60.1949,-2.9829,0
80.6803,-60.1401,-3.01051,0
80.798,-60.0823,-3.03828,0
80.9139,-60.0216,-3.06616,0
81.0279,-59.9581,-3.09415,0
81.14,-59.8918,-3.12221,0
81.2501,-59.8228,-3.15035,0
81.3581,-59.7512,-3.17853,0
81.4641,-59.6771,-3.20673,0
81.5678,-59.6005,-3.23494,0
81.6693,-59.5214,-3.26314,0
81.7686,-59.44,-3.29129,0
81.8655,-59.3564,-3.3194,0
81.96,-59.2705,-3.34742,0
82.0522,-59.1825,-3.37537,0
82.1418,-59.0925,-3.40321,0
82.229,-59.0005,-3.43093,0
82.3157,-58.9088,-3.45777,0
82.4001,-58.8153,-3.48445,0
82.4819,-58.7198,-3.511,0
82.561,-58.6225,-3.53742,0
82.6375,-58.5235,-3.56367,0
82.7113,-58.4228,-3.58977,0
82.7824,-58.3205,-3.61566,0
82.8443,-58.2116,-3.64318,0
82.9008,-58.0999,-3.671,0
82.9541,-57.9872,-3.69853,0
83.0044,-57.8736,-3.72571,0
83.0516,-57.7592,-3.75256,0
83.0958,-57.6441,-3.77904,0
83.1368,-57.5284,-3.80515,0
83.1748,-57.4123,-3.83089,0
83.2113,-57.2964,-3.85591,0
83.2486,-57.1821,-3.87975,0
83.2833,-57.0674,-3.90319,0
83.3153,-56.9524,-3.92621,0
83.3445,-56.837,-3.94881,0
83.3712,-56.7215,-3.97096,0
83.3952,-56.6058,-3.9927,0
83.4165,-56.49,-4.01399,0
83.4352,-56.3743,-4.03482,0
83.4513,-56.2585,-4.05521,0
83.465,-56.1428,-4.07514,0
83.4761,-56.0273,-4.0946,0
83.4847,-55.9119,-4.11361,0
83.4899,-55.7966,-4.13226,0
83.4897,-55.6811,-4.15084,0
83.487,-55.5662,-4.16892,0
83.482,-55.4518,-4.1865,0
83.4747,-55.338,-4.20357,0
83.4649,-55.2249,-4.22012,0
83.453,-55.1125,-4.23618,0
83.4388,-55.0007,-4.25173,0
83.4223,-54.8898,-4.26675,0
83.4037,-54.7797,-4.28128,0
83.3827,-54.6704,-4.29533,0
83.3539,-54.5622,-4.30948,0
83.323,-54.4553,-4.32311,0
83.2901,-54.3495,-4.3362,0
83.2552,-54.245,-4.34876,0
83.2184,-54.1417,-4.36079,0
83.1798,-54.0397,-4.3723,0
83.1394,-53.939,-4.38329,0
83.0971,-53.8396,-4.39375,0
83.0531,-53.7416,-4.40371,0
83.0074,-53.645,-4.41314,0
82.96,-53.5497,-4.42206,0
82.9111,-53.4559,-4.43049,0
82.8605,-53.3634,-4.43841,0
82.8142,-53.2704,-4.44529,0
82.767,-53.1784,-4.45164,0
82.718,-53.0876,-4.45753,0
82.6673,-52.9981,-4.46295,0
82.6204,-52.9075,-4.46741,0
82.5783,-52.8149,-4.47083,0
82.5343,-52.7231,-4.47382,0
82.4886,-52.6322,-4.47634,0
78.6302,-60.3573,-2.70923,0
78.7608,-60.3818,-2.71973,0
78.8924,-60.4029,-2.73091,0
79.025,-60.4203,-2.74277,0
79.1583,-60.4342,-2.75528,0
79.2923,-60.4445,-2.76846,0
79.4269,-60.451,-2.7823,0
79.5618,-60.4538,-2.79679,0
79.6972,-60.4528,-2.81193,0
79.8298,-60.437,-2.83163,0
79.959,-60.4066,-2.85573,0
80.0872,-60.3726,-2.88026,0
80.2137,-60.3338,-2.90562,0
80.3377,-60.2876,-2.9327,0
80.46,-60.2383,-2.96,0
80.5808,-60.186,-2.98747,0
80.6999,-60.1307,-3.01511,0
80.8173,-60.0724,-3.04289,0
80.9329,-60.0112,-3.07079,0
81.0466,-59.9473,-3.0988,0
81.1584,-59.8806,-3.12688,0
81.2681,-59.8112,-3.15502,0
81.3759,-59.7391,-3.1832,0
81.4814,-59.6646,-3.21141,0
81.5848,-59.5875,-3.23961,0
81.6859,-59.5081,-3.2678,0
81.7848,-59.4263,-3.29595,0
81.8813,-59.3423,-3.32404,0
81.9755,-59.2561,-3.35207,0
82.0672,-59.1678,-3.38,0
82.1564,-59.0774,-3.40782,0
82.2434,-58.9853,-3.43544,0
82.3298,-58.8934,-3.4622,0
82.4137,-58.7996,-3.48885,0
82.4951,-58.7038,-3.51538,0
82.5738,-58.6063,-3.54177,0
82.6499,-58.5069,-3.568,0
82.7234,-58.406,-3.59406,0
82.794,-58.3034,-3.61994,0
82.8538,-58.1932,-3.64779,0
82.9098,-58.0813,-3.67559,0
82.9627,-57.9684,-3.70304,0
83.0125,-57.8547,-3.73019,0
83.0591,-57.7402,-3.75697,0
83.1028,-57.625,-3.7834,0
83.1433,-57.5092,-3.80945,0
83.1809,-57.393,-3.83511,0
83.2177,-57.2775,-3.85988,0
83.2546,-57.1631,-3.88366,0
83.2887,-57.0484,-3.90703,0
83.3202,-56.9333,-3.92999,0
83.3491,-56.8179,-3.95251,0
83.3753,-56.7023,-3.9746,0
83.3988,-56.5866,-3.99626,0
83.4198,-56.4709,-4.01747,0
83.4381,-56.3551,-4.03823,0
83.4538,-56.2393,-4.05854,0
83.467,-56.1236,-4.0784,0
83.4777,-56.0081,-4.09778,0
83.4859,-55.8928,-4.11671,0
83.49,-55.7774,-4.13537,0
83.4894,-55.6621,-4.15388,0
83.4863,-55.5472,-4.17187,0
83.4809,-55.4329,-4.18937,0
83.4732,-55.3192,-4.20635,0
83.4631,-55.2062,-4.22282,0
83.4508,-55.0939,-4.23879,0
83.4362,-54.9823,-4.25425,0
83.4194,-54.8715,-4.2692,0
83.4004,-54.7615,-4.28363,0
83.378,-54.6524,-4.2977,0
83.3489,-54.5444,-4.31177,0
83.3177,-54.4377,-4.3253,0
83.2845,-54.3321,-4.33832,0
83.2493,-54.2278,-4.35079,0
83.2122,-54.1247,-4.36274,0
83.1733,-54.0229,-4.37416,0
83.1325,-53.9224,-4.38506,0
83.0899,-53.8233,-4.39543,0
83.0456,-53.7255,-4.4053,0
82.9997,-53.6291,-4.41466,0
82.952,-53.5341,-4.4235,0
82.9028,-53.4404,-4.43184,0
82.8523,-53.3481,-4.43964,0
82.8065,-53.2551,-4.44638,0
82.7589,-53.1633,-4.45265,0
82.7097,-53.0727,-4.45845,0
82.6588,-52.9834,-4.46379,0
82.6136,-52.8921,-4.46801,0
82.5711,-52.7996,-4.47136,0
82.5269,-52.708,-4.47426,0
82.4808,-52.6172,-4.47673,0
78.5219,-60.3342,-2.70097,0
78.6517,-60.3616,-2.71092,0
78.7825,-60.3856,-2.72153,0
78.9143,-60.406,-2.73283,0
79.047,-60.4229,-2.74479,0
79.1805,-60.4362,-2.75741,0
79.3146,-60.4458,-2.7707,0
79.4491,-60.4517,-2.78465,0
79.5842,-60.4539,-2.79925,0
79.7195,-60.4522,-2.8145,0
79.8512,-60.4322,-2.83559,0
79.9803,-60.4012,-2.85977,0
80.1083,-60.3666,-2.88436,0
80.2345,-60.3264,-2.91009,0
80.358,-60.2797,-2.93721,0
80.4802,-60.2299,-2.96453,0
80.6006,-60.177,-2.99204,0
80.7195,-60.1212,-3.0197,0
80.8366,-60.0625,-3.0475,0
80.9519,-60.0008,-3.07542,0
81.0653,-59.9364,-3.10344,0
83.2588,-54.6876,-4.27235,0
83.2317,-54.5822,-4.28632,0
83.2027,-54.4779,-4.29977,0
83.1716,-54.3747,-4.31272,0
83.1386,-54.2726,-4.32513,0
83.1037,-54.1718,-4.33704,0
83.0669,-54.0722,-4.34844,0
83.0284,-53.9738,-4.35933,0
82.988,-53.8767,-4.36972,0
82.946,-53.7809,-4.3796,0
82.9023,-53.6864,-4.38898,0
82.8569,-53.5932,-4.39787,0
82.8099,-53.5014,-4.40627,0
82.7613,-53.4109,-4.41417,0
82.7134,-53.3211,-4.42136,0
82.668,-53.2311,-4.42769,0
82.6209,-53.1423,-4.43357,0
82.5721,-53.0548,-4.43898,0
82.5298,-52.9649,-4.44315,0
82.4889,-52.8744,-4.44656,0
82.4463,-52.7847,-4.44954,0
82.402,-52.6958,-4.45208,0
78.6077,-60.1597,-2.73862,0
78.7337,-60.1831,-2.74879,0
78.8607,-60.2032,-2.7596,0
78.9885,-60.2199,-2.77105,0
79.117,-60.2331,-2.78315,0
79.2462,-60.2428,-2.79588,0
79.3759,-60.249,-2.80924,0
79.506,-60.2516,-2.82322,0
79.6365,-60.2505,-2.83782,0
79.7669,-60.2454,-2.85317,0
79.8919,-60.2168,-2.87636,0
80.0159,-60.1847,-2.89998,0
80.1389,-60.1491,-2.92398,0
80.2606,-60.1101,-2.94836,0
80.381,-60.0678,-2.97308,0
80.5,-60.0222,-2.99812,0
80.6159,-59.9698,-3.0247,0
80.7302,-59.9142,-3.05157,0
80.8426,-59.8557,-3.07856,0
80.9533,-59.7945,-3.10566,0
81.0621,-59.7307,-3.13284,0
81.169,-59.6642,-3.16008,0
81.2739,-59.5952,-3.18737,0
81.3768,-59.5237,-3.2147,0
81.4777,-59.4498,-3.24203,0
81.5763,-59.3735,-3.26934,0
81.6727,-59.295,-3.29664,0
81.767,-59.2143,-3.32387,0
81.859,-59.1314,-3.35106,0
81.9487,-59.0464,-3.37815,0
82.0359,-58.9595,-3.40515,0
82.1208,-58.8706,-3.43203,0
82.2032,-58.7799,-3.45879,0
82.2844,-58.6886,-3.48494,0
82.3639,-58.5964,-3.51069,0
82.441,-58.5024,-3.5363,0
82.5155,-58.4066,-3.56177,0
82.5874,-58.3092,-3.58708,0
82.6499,-58.2049,-3.61421,0
82.7082,-58.0983,-3.64145,0
82.7635,-57.9906,-3.6684,0
82.8159,-57.8819,-3.69506,0
82.8652,-57.7724,-3.7214,0
82.9116,-57.6621,-3.74742,0
82.9564,-57.5519,-3.77278,0
83.0011,-57.4427,-3.79715,0
83.0432,-57.3329,-3.82113,0
83.0826,-57.2225,-3.84474,0
83.1195,-57.1117,-3.86798,0
83.1536,-57.0004,-3.8908,0
83.1852,-56.8888,-3.91323,0
83.2141,-56.7769,-3.93527,0
83.2405,-56.6647,-3.95688,0
83.2644,-56.5524,-3.97806,0
83.2856,-56.44,-3.99883,0
83.3045,-56.3276,-4.01915,0
83.3206,-56.2151,-4.03905,0
83.3344,-56.1027,-4.0585,0
83.3456,-55.9904,-4.07751,0
83.3545,-55.8782,-4.09606,0
83.359,-55.7659,-4.11445,0
83.3594,-55.6537,-4.13261,0
83.3573,-55.5419,-4.15029,0
83.353,-55.4307,-4.16748,0
83.3464,-55.32,-4.18417,0
83.3375,-55.2099,-4.20038,0
83.3263,-55.1004,-4.2161,0
83.3131,-54.9917,-4.23132,0
83.2976,-54.8837,-4.24605,0
83.2798,-54.7764,-4.26029,0
83.2545,-54.6701,-4.2747,0
83.227,-54.5648,-4.28859,0
83.1977,-54.4607,-4.30195,0
83.1663,-54.3577,-4.3148,0
83.133,-54.2558,-4.32715,0
83.0977,-54.1552,-4.33897,0
83.0606,-54.0558,-4.35029,0
83.0218,-53.9576,-4.3611,0
82.9812,-53.8607,-4.37138,0
82.9389,-53.7651,-4.3812,0
82.8948,-53.6708,-4.39049,0
82.8491,-53.5779,-4.39929,0
82.8019,-53.4863,-4.4076,0
82.7532,-53.396,-4.41543,0
82.7061,-53.3061,-4.42244,0
82.6603,-53.2163,-4.42869,0
82.6129,-53.1277,-4.43449,0
82.5639,-53.0404,-4.43984,0
82.5231,-52.9498,-4.44374,0
82.482,-52.8595,-4.44707,0
82.4391,-52.7699,-4.44998,0
82.3945,-52.6812,-4.45245,0
78.6285,-60.1638,-2.74025,0
78.7547,-60.1867,-2.75053,0
78.8818,-60.2062,-2.76146,0
79.0098,-60.2223,-2.77301,0
79.1384,-60.235,-2.78521,0
79.2677,-60.2441,-2.79805,0
79.3974,-60.2497,-2.81151,0
79.5277,-60.2517,-2.8256,0
79.6581,-60.25,-2.8403,0
79.7877,-60.2409,-2.85698,0
79.9126,-60.2117,-2.88026,0
80.0363,-60.179,-2.90393,0
80.1591,-60.1429,-2.92799,0
80.2806,-60.1034,-2.95243,0
80.4009,-60.0605,-2.97721,0
80.5195,-60.014,-3.00239,0
80.635,-59.9608,-3.02914,0
80.7489,-59.9047,-3.05604,0
80.861,-59.8458,-3.08304,0
80.9714,-59.7842,-3.11015,0
81.0799,-59.7199,-3.13736,0
81.1866,-59.653,-3.16461,0
81.2911,-59.5835,-3.19191,0
81.3937,-59.5116,-3.21923,0
81.4941,-59.4373,-3.24655,0
81.5925,-59.3607,-3.27387,0
81.6885,-59.2818,-3.30115,0
81.7824,-59.2007,-3.32839,0
81.874,-59.1174,-3.35555,0
81.9632,-59.0321,-3.38263,0
82.0502,-58.9449,-3.40962,0
82.1345,-58.8557,-3.43647,0
82.2166,-58.7647,-3.4632,0
82.2977,-58.6735,-3.48922,0
82.3769,-58.5809,-3.51494,0
82.4535,-58.4866,-3.54054,0
82.5276,-58.3906,-3.56597,0
82.599,-58.2929,-3.59129,0
82.6598,-58.1873,-3.61874,0
82.7175,-58.0805,-3.64592,0
82.7723,-57.9727,-3.67284,0
82.8242,-57.8639,-3.69945,0
82.873,-57.7542,-3.72573,0
82.919,-57.6438,-3.75171,0
82.9639,-57.5339,-3.77684,0
83.0083,-57.4246,-3.80114,0
83.0498,-57.3146,-3.82507,0
83.0889,-57.2042,-3.84861,0
83.1253,-57.0932,-3.87179,0
83.1591,-56.9819,-3.89455,0
83.1902,-56.8703,-3.91692,0
83.2187,-56.7583,-3.93887,0
83.2447,-56.6461,-3.96042,0
83.268,-56.5338,-3.98153,0
83.2889,-56.4214,-4.00222,0
83.3073,-56.3089,-4.02248,0
83.323,-56.1964,-4.04231,0
83.3364,-56.0841,-4.06168,0
83.3473,-55.9718,-4.08061,0
83.3557,-55.8597,-4.09909,0
83.3592,-55.7473,-4.11749,0
83.3591,-55.6351,-4.13557,0
83.3568,-55.5235,-4.15317,0
83.352,-55.4123,-4.17028,0
83.3451,-55.3017,-4.1869,0
83.3359,-55.1917,-4.20302,0
83.3243,-55.0824,-4.21865,0
83.3106,-54.9737,-4.2338,0
83.2948,-54.8658,-4.24844,0
83.2758,-54.7587,-4.26272,0
83.2501,-54.6526,-4.27703,0
83.2223,-54.5475,-4.29084,0
83.1926,-54.4435,-4.30411,0
83.1609,-54.3407,-4.31688,0
83.1273,-54.2391,-4.32913,0
83.0917,-54.1386,-4.34088,0
