29.7114,-13.8853,0.398714,0
29.7743,-13.826,0.399114,0
29.8358,-13.7652,0.399495,0
29.8959,-13.7029,0.399886,0
29.9545,-13.6393,0.400257,0
30.0116,-13.5742,0.400609,0
30.0671,-13.5077,0.40096,0
30.121,-13.44,0.401302,0
30.1734,-13.3709,0.401634,0
30.224,-13.3007,0.401956,0
30.273,-13.2292,0.402269,0
30.3203,-13.1565,0.402562,0
30.3662,-13.0829,0.402982,0
30.411,-13.0086,0.403695,0
30.454,-12.9332,0.404368,0
30.4952,-12.8567,0.405023,0
30.5346,-12.7792,0.405648,0
30.572,-12.7008,0.406234,0
30.6075,-12.6214,0.4068,0
30.6411,-12.5411,0.407327,0
30.6727,-12.46,0.407825,0
30.7023,-12.3781,0.408304,0
30.7299,-12.2954,0.408734,0
30.7555,-12.2121,0.409134,0
30.7791,-12.1282,0.409515,0
30.8005,-12.0437,0.409857,0
30.82,-11.9586,0.410159,0
30.8373,-11.8731,0.410433,0
30.8525,-11.7872,0.410667,0
30.8656,-11.7009,0.410882,0
30.8766,-11.6142,0.411048,0
30.8855,-11.5274,0.411195,0
30.8922,-11.4403,0.411292,0
30.8967,-11.3531,0.41137,0
30.9007,-11.2658,0.411986,0
30.9026,-11.1783,0.412571,0
30.9023,-11.0909,0.413118,0
30.8998,-11.0034,0.413626,0
30.8952,-10.916,0.414114,0
30.8886,-10.8286,0.414554,0
26.5538,-14.764,0.403245,0
26.6377,-14.7777,0.403148,0
26.7219,-14.7893,0.40303,0
26.8063,-14.7989,0.402884,0
26.8909,-14.8064,0.402708,0
26.9759,-14.809,0.401478,0
27.0608,-14.8094,0.40013,0
27.1455,-14.8077,0.398792,0
27.2302,-14.8041,0.397454,0
27.3146,-14.7984,0.396126,0
27.3988,-14.7908,0.394788,0
27.4827,-14.7813,0.39347,0
27.5662,-14.7697,0.392142,0
27.6494,-14.7563,0.390823,0
27.7321,-14.7409,0.389525,0
27.8145,-14.7237,0.388226,0
27.8963,-14.7053,0.38723,0
27.9787,-14.6891,0.387757,0
28.0605,-14.6708,0.388275,0
28.142,-14.6507,0.388792,0
28.223,-14.6287,0.3893,0
28.3036,-14.6047,0.389808,0
28.3835,-14.5788,0.390316,0
28.4629,-14.551,0.390814,0
28.5416,-14.5213,0.391321,0
28.6196,-14.4898,0.3918,0
28.6968,-14.4565,0.392298,0
28.7732,-14.4212,0.392786,0
28.8488,-14.3842,0.393255,0
28.9237,-14.3454,0.393734,0
28.9975,-14.3048,0.394193,0
29.0704,-14.2625,0.394661,0
29.1423,-14.2184,0.395111,0
29.2131,-14.1726,0.39556,0
29.2828,-14.1252,0.396009,0
29.3515,-14.0761,0.396439,0
29.4189,-14.0253,0.396859,0
29.4852,-13.9729,0.397279,0
29.5502,-13.919,0.397698,0
29.6139,-13.8635,0.398099,0
29.6763,-13.8065,0.398489,0
29.7373,-13.7481,0.39888,0
29.797,-13.6881,0.399251,0
29.8552,-13.6268,0.399622,0
29.912,-13.564,0.399984,0
29.9673,-13.5,0.400335,0
30.021,-13.4345,0.400677,0
30.0732,-13.3678,0.400999,0
30.1238,-13.2999,0.401321,0
30.1728,-13.2308,0.401634,0
30.2201,-13.1605,0.401927,0
30.2658,-13.0891,0.40222,0
30.3097,-13.0166,0.402493,0
30.3519,-12.943,0.402767,0
30.3933,-12.8689,0.403411,0
30.4329,-12.7939,0.404036,0
30.4706,-12.7178,0.404632,0
30.5066,-12.6408,0.405198,0
30.5406,-12.5629,0.405736,0
30.5727,-12.4842,0.406253,0
30.603,-12.4046,0.406722,0
30.6312,-12.3244,0.407171,0
30.6576,-12.2434,0.407581,0
30.6818,-12.1618,0.407972,0
30.7041,-12.0796,0.408323,0
30.7245,-11.9968,0.408646,0
30.7427,-11.9136,0.408939,0
30.7589,-11.8298,0.409183,0
30.773,-11.7458,0.409417,0
30.7852,-11.6613,0.409603,0
30.7952,-11.5766,0.409759,0
30.803,-11.4917,0.409886,0
30.8089,-11.4065,0.409984,0
30.8132,-11.3213,0.410247,0
30.8163,-11.2359,0.410833,0
30.8175,-11.1505,0.4114,0
30.8164,-11.065,0.411927,0
30.8133,-10.9796,0.412415,0
30.808,-10.8942,0.412835,0
30.799,-10.8091,0.41264,0
30.7878,-10.7243,0.412396,0
30.7745,-10.6398,0.412103,0
30.7592,-10.5557,0.411771,0
30.7417,-10.472,0.41137,0
30.7222,-10.3888,0.410941,0
30.7005,-10.3061,0.410462,0
30.6769,-10.224,0.409935,0
30.6512,-10.1426,0.409368,0
30.6234,-10.0619,0.408763,0
26.5397,-14.7615,0.403255,0
26.6235,-14.7755,0.403167,0
26.7077,-14.7875,0.40306,0
26.792,-14.7974,0.402913,0
26.8766,-14.8053,0.402747,0
26.9616,-14.8088,0.401702,0
27.0464,-14.8095,0.400364,0
27.1312,-14.8081,0.399027,0
27.2159,-14.8048,0.397689,0
27.3004,-14.7995,0.396351,0
27.3846,-14.7922,0.395013,0
27.4685,-14.783,0.393695,0
27.5521,-14.7718,0.392366,0
27.6354,-14.7587,0.391048,0
27.7182,-14.7437,0.389739,0
27.8005,-14.7267,0.388441,0
27.8824,-14.7078,0.387142,0
27.9648,-14.6919,0.387669,0
28.0468,-14.6741,0.388196,0
28.1283,-14.6542,0.388704,0
28.2095,-14.6325,0.389222,0
28.29,-14.6088,0.38972,0
28.3701,-14.5833,0.390237,0
28.4495,-14.5558,0.390726,0
28.5284,-14.5265,0.391234,0
28.6065,-14.4953,0.391732,0
28.6838,-14.4622,0.39221,0
28.7604,-14.4273,0.392698,0
28.8362,-14.3906,0.393177,0
28.9112,-14.3521,0.393655,0
28.9851,-14.3118,0.394124,0
29.0581,-14.2698,0.394583,0
29.1302,-14.226,0.395042,0
29.2012,-14.1805,0.395491,0
29.2712,-14.1333,0.395931,0
29.34,-14.0845,0.39637,0
29.4077,-14.034,0.39679,0
29.4741,-13.9819,0.39722,0
29.5393,-13.9282,0.39763,0
29.6032,-13.873,0.39803,0
29.6659,-13.8162,0.398421,0
29.7272,-13.758,0.398812,0
29.787,-13.6983,0.399183,0
29.8455,-13.6372,0.399564,0
29.9025,-13.5747,0.399925,0
29.9581,-13.5108,0.400277,0
30.0121,-13.4457,0.400618,0
30.0645,-13.3792,0.40095,0
30.1154,-13.3115,0.401273,0
30.1647,-13.2425,0.401575,0
30.2123,-13.1724,0.401888,0
30.2582,-13.1012,0.402171,0
30.3024,-13.0289,0.402445,0
30.3448,-12.9555,0.402718,0
30.3864,-12.8815,0.403304,0
30.4263,-12.8066,0.403929,0
30.4645,-12.7307,0.404534,0
30.5006,-12.6538,0.405111,0
30.535,-12.5761,0.405648,0
30.5674,-12.4975,0.406155,0
30.598,-12.4181,0.406644,0
30.6266,-12.3379,0.407093,0
30.6533,-12.2571,0.407513,0
30.6779,-12.1756,0.407904,0
30.7005,-12.0935,0.408265,0
30.7211,-12.0108,0.408587,0
30.7398,-11.9276,0.40889,0
30.7563,-11.844,0.409144,0
30.7708,-11.76,0.409368,0
30.7832,-11.6756,0.409573,0
30.7936,-11.5909,0.409739,0
30.8019,-11.506,0.409866,0
30.808,-11.4209,0.409964,0
30.8124,-11.3357,0.41015,0
30.8159,-11.2504,0.410745,0
30.8174,-11.1649,0.411302,0
30.8167,-11.0795,0.411839,0
30.814,-10.994,0.412337,0
30.8091,-10.9086,0.412786,0
30.8006,-10.8235,0.412679,0
30.7898,-10.7386,0.412435,0
30.777,-10.6541,0.412161,0
30.7619,-10.5699,0.411829,0
30.7448,-10.4861,0.411448,0
30.7256,-10.4028,0.411019,0
30.7043,-10.32,0.41055,0
30.681,-10.2378,0.410032,0
30.6556,-10.1563,0.409466,0
30.6282,-10.0754,0.408861,0
26.5256,-14.7589,0.403265,0
26.6094,-14.7733,0.403187,0
26.6934,-14.7856,0.403079,0
26.7778,-14.7959,0.402943,0
26.8624,-14.8041,0.402777,0
26.9472,-14.8085,0.401927,0
27.0321,-14.8095,0.400589,0
27.117,-14.8085,0.399251,0
27.2016,-14.8055,0.397913,0
27.2861,-14.8005,0.396575,0
27.3704,-14.7936,0.395238,0
27.4544,-14.7847,0.393919,0
27.5381,-14.7738,0.392581,0
27.6214,-14.761,0.391273,0
27.7043,-14.7463,0.389964,0
27.7866,-14.7297,0.388655,0
27.8687,-14.7112,0.387366,0
27.9509,-14.6948,0.387581,0
28.033,-14.6772,0.388099,0
28.1146,-14.6577,0.388616,0
28.1958,-14.6363,0.389134,0
28.2765,-14.613,0.389642,0
28.3566,-14.5877,0.39014,0
28.4362,-14.5606,0.390648,0
28.5151,-14.5316,0.391155,0
28.5934,-14.5007,0.391644,0
28.6709,-14.4679,0.392132,0
28.7475,-14.4333,0.392611,0
28.8234,-14.3969,0.393099,0
28.8985,-14.3587,0.393577,0
28.9727,-14.3187,0.394046,0
29.0459,-14.277,0.394505,0
29.1181,-14.2335,0.394964,0
29.1893,-14.1883,0.395413,0
29.2594,-14.1414,0.395853,0
29.3284,-14.0928,0.396292,0
29.3963,-14.0426,0.396722,0
29.463,-13.9908,0.397142,0
29.5284,-13.9374,0.397562,0
29.5926,-13.8824,0.397962,0
29.6554,-13.8259,0.398362,0
29.7169,-13.7679,0.398743,0
29.777,-13.7085,0.399124,0
29.8358,-13.6476,0.399495,0
29.893,-13.5854,0.399866,0
29.9488,-13.5217,0.400218,0
30.0031,-13.4567,0.40056,0
30.0558,-13.3905,0.400902,0
30.107,-13.323,0.401214,0
30.1565,-13.2542,0.401527,0
30.2044,-13.1843,0.401829,0
30.2505,-13.1133,0.402122,0
30.2951,-13.0411,0.402405,0
30.3379,-12.9679,0.402679,0
30.3795,-12.894,0.403196,0
30.4198,-12.8193,0.403831,0
30.4581,-12.7436,0.404437,0
30.4947,-12.6669,0.405013,0
30.5294,-12.5893,0.40556,0
30.5621,-12.5108,0.406077,0
30.593,-12.4315,0.406566,0
30.6219,-12.3515,0.407025,0
30.6489,-12.2708,0.407445,0
30.6738,-12.1894,0.407845,0
30.6968,-12.1074,0.408206,0
30.7178,-12.0248,0.408538,0
30.7367,-11.9417,0.408841,0
30.7537,-11.8581,0.409105,0
30.7684,-11.7742,0.409339,0
30.7812,-11.6898,0.409534,0
30.792,-11.6052,0.40971,0
30.8005,-11.5203,0.409847,0
30.8071,-11.4353,0.409954,0
30.8116,-11.35,0.410042,0
30.8155,-11.2648,0.410648,0
30.8173,-11.1793,0.411214,0
30.817,-11.0939,0.411751,0
30.8146,-11.0084,0.412249,0
30.8101,-10.923,0.412718,0
30.8023,-10.8378,0.412718,0
26.5684,-14.6844,0.402191,0
26.6503,-14.6978,0.402103,0
26.7326,-14.7092,0.401986,0
26.8152,-14.7186,0.401849,0
26.8978,-14.7259,0.401673,0
26.9807,-14.7311,0.401409,0
27.0637,-14.7315,0.400081,0
27.1467,-14.7299,0.398773,0
27.2295,-14.7264,0.397464,0
27.312,-14.721,0.396165,0
27.3945,-14.7136,0.394857,0
27.4765,-14.7044,0.393568,0
27.5583,-14.6932,0.392269,0
27.6397,-14.6801,0.390989,0
27.7206,-14.6651,0.3897,0
27.8012,-14.6483,0.388431,0
27.8812,-14.6296,0.387161,0
27.9616,-14.6137,0.38765,0
28.0418,-14.5958,0.388157,0
28.1215,-14.5761,0.388655,0
28.2008,-14.5545,0.389163,0
28.2795,-14.531,0.389661,0
28.3577,-14.5057,0.39015,0
28.4353,-14.4785,0.390638,0
28.5123,-14.4494,0.391136,0
28.5886,-14.4186,0.391614,0
28.6641,-14.3859,0.392093,0
28.7389,-14.3514,0.392562,0
28.8129,-14.3152,0.39303,0
28.8859,-14.2772,0.393489,0
28.9582,-14.2375,0.393948,0
29.0295,-14.1961,0.394407,0
29.0998,-14.1529,0.394847,0
29.1691,-14.1082,0.395286,0
29.2373,-14.0617,0.395716,0
29.3044,-14.0136,0.396136,0
29.3703,-13.964,0.396556,0
29.4352,-13.9127,0.396966,0
29.4987,-13.86,0.397366,0
29.561,-13.8057,0.397757,0
29.622,-13.7499,0.398148,0
29.6818,-13.6927,0.398529,0
29.7401,-13.6341,0.39889,0
29.797,-13.5741,0.399261,0
29.8526,-13.5127,0.399603,0
29.9066,-13.45,0.399945,0
29.9591,-13.386,0.400277,0
30.0102,-13.3208,0.400609,0
30.0597,-13.2543,0.400921,0
30.1075,-13.1867,0.401214,0
30.1537,-13.1179,0.401507,0
30.1984,-13.048,0.40179,0
30.2413,-12.9771,0.402073,0
30.2826,-12.9052,0.402327,0
30.3222,-12.8323,0.402581,0
30.3601,-12.7585,0.402884,0
30.397,-12.6841,0.40347,0
30.4321,-12.6088,0.404027,0
30.4653,-12.5327,0.404544,0
30.4967,-12.4557,0.405052,0
30.5262,-12.378,0.405511,0
30.5538,-12.2995,0.40595,0
30.5795,-12.2203,0.406351,0
30.6032,-12.1406,0.406732,0
30.625,-12.0602,0.407073,0
30.6448,-11.9793,0.407386,0
30.6626,-11.8979,0.407669,0
30.6784,-11.8161,0.407923,0
30.6923,-11.7339,0.408138,0
30.7041,-11.6514,0.408323,0
30.7138,-11.5686,0.40848,0
30.7216,-11.4855,0.408597,0
30.7272,-11.4024,0.408695,0
30.7314,-11.319,0.408968,0
30.7345,-11.2356,0.409544,0
30.7355,-11.1521,0.410091,0
30.7345,-11.0686,0.410599,0
30.7314,-10.9851,0.411087,0
30.7248,-10.9017,0.410999,0
30.716,-10.8186,0.410814,0
30.7052,-10.7358,0.41057,0
30.6923,-10.6532,0.410286,0
30.6772,-10.571,0.409954,0
30.6602,-10.4893,0.409573,0
30.6411,-10.408,0.409154,0
30.62,-10.3272,0.408685,0
30.5969,-10.247,0.408167,0
30.5717,-10.1674,0.407611,0
30.5447,-10.0885,0.407015,0
26.5545,-14.6819,0.4022,0
26.6364,-14.6957,0.402112,0
26.7187,-14.7074,0.402005,0
26.8012,-14.7171,0.401868,0
26.8839,-14.7248,0.401702,0
26.9666,-14.7305,0.401517,0
27.0498,-14.7315,0.400306,0
27.1327,-14.7303,0.398997,0
27.2155,-14.7272,0.397689,0
27.2982,-14.7221,0.39639,0
27.3806,-14.715,0.395081,0
27.4627,-14.7061,0.393782,0
27.5445,-14.6952,0.392493,0
27.6259,-14.6825,0.391204,0
27.707,-14.6678,0.389925,0
27.7876,-14.6513,0.388646,0
27.8677,-14.6329,0.387376,0
27.9481,-14.6165,0.387562,0
28.0284,-14.599,0.38807,0
28.1081,-14.5796,0.388577,0
28.1874,-14.5583,0.389075,0
28.2662,-14.5351,0.389573,0
28.3446,-14.5101,0.390071,0
28.4223,-14.4832,0.39056,0
28.4993,-14.4545,0.391048,0
28.5758,-14.4239,0.391527,0
28.6515,-14.3915,0.392005,0
28.7263,-14.3574,0.392484,0
28.8005,-14.3214,0.392952,0
28.8737,-14.2837,0.393411,0
28.9461,-14.2443,0.39387,0
29.0175,-14.2032,0.394329,0
29.088,-14.1603,0.394769,0
29.1574,-14.1158,0.395208,0
29.2259,-14.0696,0.395638,0
29.2931,-14.0218,0.396068,0
29.3593,-13.9725,0.396488,0
29.4243,-13.9215,0.396898,0
29.488,-13.869,0.397298,0
29.5505,-13.815,0.397698,0
29.6119,-13.7594,0.398089,0
29.6717,-13.7025,0.39846,0
29.7303,-13.6441,0.398841,0
29.7876,-13.5843,0.399193,0
29.8433,-13.5231,0.399544,0
29.8976,-13.4606,0.399896,0
29.9504,-13.3969,0.400218,0
30.0016,-13.3319,0.40055,0
30.0513,-13.2656,0.400872,0
30.0995,-13.1982,0.401165,0
30.1461,-13.1296,0.401458,0
30.191,-13.0599,0.401741,0
30.2342,-12.9892,0.402025,0
30.2757,-12.9174,0.402288,0
30.3156,-12.8446,0.402542,0
30.3537,-12.7709,0.402786,0
30.3909,-12.6967,0.403372,0
30.4263,-12.6216,0.403929,0
30.4598,-12.5456,0.404466,0
30.4916,-12.4688,0.404964,0
30.5214,-12.3911,0.405433,0
30.5493,-12.3128,0.405872,0
30.5753,-12.2337,0.406292,0
30.5994,-12.1541,0.406673,0
30.6214,-12.0738,0.407015,0
30.6416,-11.993,0.407337,0
30.6598,-11.9117,0.40762,0
30.6759,-11.8299,0.407874,0
30.6901,-11.7478,0.408099,0
30.7022,-11.6653,0.408284,0
30.7123,-11.5826,0.40846,0
30.7204,-11.4996,0.408577,0
30.7264,-11.4164,0.408685,0
30.7308,-11.3331,0.40887,0
30.7341,-11.2497,0.409446,0
30.7355,-11.1662,0.410003,0
30.7348,-11.0827,0.410521,0
30.7321,-10.9992,0.410999,0
30.7262,-10.9158,0.411029,0
30.7177,-10.8326,0.410843,0
30.7072,-10.7497,0.410609,0
30.6945,-10.6671,0.410335,0
30.6799,-10.5849,0.410003,0
30.6632,-10.503,0.409642,0
30.6445,-10.4216,0.409222,0
30.6237,-10.3408,0.408763,0
30.6009,-10.2605,0.408265,0
30.5761,-10.1808,0.407708,0
30.5495,-10.1017,0.407122,0
26.5408,-14.6794,0.40221,0
26.6227,-14.6935,0.402132,0
26.7048,-14.7056,0.402025,0
26.7872,-14.7156,0.401898,0
26.8699,-14.7237,0.401732,0
26.9527,-14.7297,0.401546,0
27.0357,-14.7315,0.40053,0
27.1187,-14.7307,0.399212,0
27.2016,-14.7278,0.397913,0
27.2842,-14.723,0.396595,0
27.3667,-14.7163,0.395306,0
27.4489,-14.7077,0.394007,0
27.5308,-14.6972,0.392698,0
27.6123,-14.6847,0.391419,0
27.6934,-14.6704,0.39013,0
27.774,-14.6542,0.388861,0
27.8542,-14.6361,0.387581,0
27.9345,-14.6192,0.387474,0
28.0148,-14.602,0.387982,0
28.0947,-14.583,0.388489,0
28.1741,-14.562,0.388987,0
28.253,-14.5391,0.389486,0
28.3314,-14.5144,0.389984,0
28.4092,-14.4879,0.390482,0
28.4864,-14.4594,0.39096,0
28.563,-14.4292,0.391448,0
28.6388,-14.3971,0.391937,0
28.7137,-14.3633,0.392415,0
28.788,-14.3276,0.392874,0
28.8615,-14.2902,0.393343,0
28.934,-14.2511,0.393792,0
29.0055,-14.2102,0.394251,0
29.0762,-14.1677,0.394691,0
29.1458,-14.1234,0.39513,0
29.2144,-14.0775,0.39557,0
29.2819,-14.03,0.395999,0
29.3482,-13.9809,0.396419,0
29.4134,-13.9302,0.396829,0
29.4773,-13.8779,0.39723,0
29.5402,-13.8242,0.39763,0
29.6016,-13.7689,0.398021,0
29.6618,-13.7122,0.398402,0
29.7205,-13.654,0.398782,0
29.778,-13.5944,0.399134,0
29.834,-13.5335,0.399486,0
29.8885,-13.4713,0.399827,0
29.9416,-13.4077,0.400169,0
29.9931,-13.3429,0.400491,0
30.0431,-13.2769,0.400814,0
30.0916,-13.2096,0.401116,0
30.1384,-13.1412,0.401419,0
30.1835,-13.0717,0.401702,0
30.227,-13.0012,0.401976,0
30.2689,-12.9296,0.402239,0
30.309,-12.857,0.402493,0
30.3473,-12.7834,0.402737,0
30.3848,-12.7093,0.403275,0
30.4204,-12.6343,0.403841,0
30.4544,-12.5585,0.404378,0
30.4863,-12.4818,0.404876,0
30.5165,-12.4043,0.405355,0
30.5447,-12.326,0.405804,0
30.571,-12.2471,0.406224,0
30.5954,-12.1675,0.406605,0
30.6179,-12.0874,0.406956,0
30.6384,-12.0066,0.407279,0
30.6568,-11.9254,0.407581,0
30.6733,-11.8437,0.407835,0
30.6878,-11.7617,0.40807,0
30.7003,-11.6793,0.408265,0
30.7107,-11.5965,0.408431,0
30.7191,-11.5136,0.408558,0
30.7255,-11.4304,0.408665,0
30.73,-11.3471,0.408763,0
30.7337,-11.2638,0.409349,0
30.7355,-11.1803,0.409905,0
30.7351,-11.0968,0.410433,0
30.7327,-11.0132,0.410921,0
30.7273,-10.9298,0.411058,0
30.7193,-10.8466,0.410882,0
26.5822,-14.6079,0.401185,0
26.6624,-14.621,0.401087,0
26.7429,-14.6322,0.40098,0
26.8236,-14.6414,0.400843,0
26.9045,-14.6486,0.400677,0
26.9855,-14.6538,0.400491,0
27.0666,-14.6565,0.400042,0
27.1477,-14.6551,0.398763,0
27.2288,-14.6517,0.397474,0
27.3096,-14.6465,0.396195,0
27.3902,-14.6394,0.394925,0
27.4706,-14.6304,0.393655,0
27.5506,-14.6195,0.392396,0
27.6303,-14.6068,0.391136,0
27.7095,-14.5922,0.389886,0
27.7884,-14.5758,0.388636,0
27.8667,-14.5576,0.387396,0
27.9453,-14.5411,0.387542,0
28.0238,-14.5236,0.38804,0
28.1018,-14.5043,0.388538,0
28.1794,-14.4831,0.389027,0
28.2564,-14.4601,0.389515,0
28.3329,-14.4353,0.390003,0
28.4088,-14.4087,0.390472,0
28.4841,-14.3802,0.39095,0
28.5588,-14.35,0.391429,0
28.6327,-14.318,0.391898,0
28.7059,-14.2843,0.392357,0
28.7782,-14.2488,0.392816,0
28.8498,-14.2116,0.393265,0
28.9204,-14.1727,0.393714,0
28.9902,-14.1322,0.394154,0
29.0589,-14.0899,0.394593,0
29.1267,-14.0461,0.395023,0
29.1934,-14.0006,0.395433,0
29.2591,-13.9536,0.395853,0
29.3237,-13.905,0.396263,0
29.387,-13.8548,0.396663,0
29.4491,-13.8032,0.397054,0
29.5102,-13.75,0.397445,0
29.5698,-13.6955,0.397825,0
29.6282,-13.6395,0.398187,0
29.6853,-13.5821,0.398548,0
29.741,-13.5233,0.3989,0
29.7953,-13.4633,0.399251,0
29.8482,-13.4019,0.399573,0
29.8996,-13.3393,0.399905,0
29.9495,-13.2754,0.400218,0
29.9978,-13.2104,0.40053,0
30.0447,-13.1443,0.400823,0
30.09,-13.077,0.401107,0
30.1336,-13.0086,0.40138,0
30.1756,-12.9392,0.401644,0
30.2159,-12.8688,0.401907,0
30.2546,-12.7974,0.402152,0
30.2916,-12.7252,0.402386,0
30.3269,-12.652,0.402611,0
30.3605,-12.5781,0.402884,0
30.393,-12.5036,0.403402,0
30.4236,-12.4284,0.40389,0
30.4525,-12.3523,0.404349,0
30.4794,-12.2756,0.404769,0
30.5045,-12.1982,0.405169,0
30.5277,-12.1202,0.40553,0
30.5489,-12.0416,0.405862,0
30.5683,-11.9625,0.406185,0
30.5857,-11.8829,0.406458,0
30.6012,-11.8029,0.406693,0
30.6146,-11.7225,0.406907,0
30.6261,-11.6418,0.407093,0
30.6357,-11.5609,0.407239,0
30.6432,-11.4797,0.407357,0
30.6488,-11.3983,0.407445,0
30.653,-11.3169,0.407747,0
30.6559,-11.2353,0.408304,0
30.6569,-11.1537,0.408831,0
30.6558,-11.072,0.409339,0
30.6516,-10.9904,0.409388,0
30.6451,-10.909,0.409232,0
30.6365,-10.8277,0.409046,0
30.6259,-10.7468,0.408812,0
30.6132,-10.6661,0.408529,0
30.5986,-10.5857,0.408206,0
30.582,-10.5058,0.407835,0
30.5633,-10.4264,0.407435,0
30.5427,-10.3474,0.406976,0
30.5201,-10.269,0.406478,0
30.4956,-10.1912,0.405931,0
30.4692,-10.1141,0.405345,0
26.5687,-14.6055,0.401195,0
26.6489,-14.6189,0.401107,0
26.7293,-14.6304,0.400999,0
26.81,-14.6399,0.400872,0
26.8908,-14.6475,0.400706,0
26.9718,-14.6531,0.400511,0
27.0529,-14.6565,0.400257,0
27.1341,-14.6554,0.398978,0
27.2152,-14.6524,0.397698,0
27.2961,-14.6475,0.396409,0
27.3766,-14.6407,0.39515,0
27.4571,-14.632,0.39387,0
27.5372,-14.6214,0.392601,0
27.6169,-14.609,0.391341,0
27.6962,-14.5948,0.390081,0
27.7752,-14.5787,0.388841,0
27.8536,-14.5608,0.387601,0
27.932,-14.5439,0.387464,0
28.0105,-14.5267,0.387952,0
28.0887,-14.5077,0.38845,0
28.1663,-14.4868,0.388939,0
28.2434,-14.4641,0.389437,0
28.32,-14.4396,0.389915,0
28.396,-14.4133,0.390394,0
28.4715,-14.3851,0.390872,0
28.5462,-14.3552,0.391351,0
28.6202,-14.3235,0.39181,0
28.6935,-14.2901,0.392279,0
28.7661,-14.2549,0.392738,0
28.8378,-14.218,0.393187,0
28.9086,-14.1794,0.393636,0
28.9784,-14.1391,0.394075,0
29.0473,-14.0972,0.394515,0
29.1153,-14.0536,0.394945,0
29.1823,-14.0084,0.395374,0
29.2481,-13.9616,0.395784,0
29.3128,-13.9133,0.396195,0
29.3764,-13.8634,0.396585,0
29.4387,-13.812,0.396986,0
29.4999,-13.7591,0.397376,0
29.5598,-13.7048,0.397747,0
29.6185,-13.649,0.398128,0
29.6757,-13.5919,0.398489,0
29.7316,-13.5333,0.398851,0
29.7862,-13.4735,0.399183,0
29.8394,-13.4123,0.399525,0
29.891,-13.3499,0.399857,0
29.9411,-13.2863,0.400169,0
29.9898,-13.2215,0.400472,0
30.0369,-13.1555,0.400775,0
30.0824,-13.0884,0.401058,0
30.1264,-13.0202,0.401331,0
30.1686,-12.951,0.401605,0
30.2092,-12.8807,0.401859,0
30.2482,-12.8095,0.402103,0
30.2855,-12.7374,0.402337,0
30.321,-12.6644,0.402571,0
30.3548,-12.5906,0.402806,0
30.3877,-12.5163,0.403323,0
30.4186,-12.4411,0.403802,0
30.4477,-12.3652,0.404271,0
30.475,-12.2886,0.4047,0
30.5003,-12.2113,0.405101,0
30.5239,-12.1334,0.405472,0
30.5455,-12.0549,0.405823,0
30.5652,-11.9758,0.406126,0
30.5829,-11.8963,0.406409,0
30.5987,-11.8164,0.406654,0
30.6124,-11.7361,0.406878,0
30.6244,-11.6555,0.407064,0
30.6341,-11.5745,0.40722,0
30.6421,-11.4934,0.407347,0
30.648,-11.4121,0.407435,0
30.6523,-11.3306,0.40765,0
30.6556,-11.2491,0.408216,0
30.6569,-11.1674,0.408743,0
30.6561,-11.0858,0.409261,0
30.6526,-11.0042,0.409407,0
30.6464,-10.9227,0.409261,0
30.6381,-10.8414,0.409085,0
30.6278,-10.7604,0.408861,0
30.6155,-10.6797,0.408577,0
30.6012,-10.5993,0.408265,0
30.5848,-10.5193,0.407904,0
30.5666,-10.4397,0.407503,0
30.5462,-10.3607,0.407054,0
30.524,-10.2822,0.406556,0
30.4999,-10.2043,0.406029,0
30.4737,-10.127,0.405443,0
26.5553,-14.603,0.401204,0
26.6354,-14.6168,0.401116,0
26.7158,-14.6286,0.401019,0
26.7963,-14.6385,0.400882,0
26.8772,-14.6464,0.400736,0
26.9581,-14.6523,0.40055,0
27.0392,-14.6562,0.400335,0
27.1204,-14.6557,0.399193,0
27.2016,-14.6531,0.397913,0
27.2824,-14.6485,0.396634,0
27.3631,-14.642,0.395355,0
27.4435,-14.6336,0.394085,0
27.5237,-14.6233,0.392816,0
27.6034,-14.6112,0.391556,0
27.6829,-14.5973,0.390306,0
27.7619,-14.5815,0.389046,0
27.8404,-14.5639,0.387806,0
27.9187,-14.5466,0.387366,0
27.9973,-14.5297,0.387864,0
28.0755,-14.511,0.388372,0
28.1532,-14.4905,0.388861,0
28.2305,-14.4681,0.389349,0
28.3071,-14.4439,0.389837,0
28.3833,-14.4179,0.390316,0
28.4588,-14.39,0.390794,0
28.5337,-14.3604,0.391273,0
28.6078,-14.329,0.391732,0
28.6812,-14.2959,0.3922,0
28.7539,-14.261,0.392659,0
28.8257,-14.2243,0.393109,0
28.8966,-14.186,0.393568,0
28.9667,-14.146,0.394007,0
29.0359,-14.1044,0.394437,0
29.1039,-14.0611,0.394876,0
29.171,-14.0161,0.395296,0
29.2371,-13.9696,0.395716,0
29.302,-13.9215,0.396126,0
29.3657,-13.8719,0.396527,0
29.4284,-13.8208,0.396927,0
29.4898,-13.7681,0.397308,0
29.5498,-13.714,0.397689,0
29.6087,-13.6585,0.39806,0
29.6663,-13.6016,0.398431,0
29.7223,-13.5433,0.398782,0
29.7771,-13.4837,0.399124,0
29.8305,-13.4227,0.399466,0
29.8824,-13.3605,0.399798,0
29.9328,-13.2971,0.400111,0
29.9817,-13.2325,0.400423,0
30.0291,-13.1667,0.400716,0
30.0749,-13.0998,0.401009,0
30.1191,-13.0318,0.401302,0
30.1616,-12.9627,0.401566,0
30.2025,-12.8926,0.40182,0
30.2418,-12.8216,0.402064,0
30.2794,-12.7496,0.402308,0
30.3152,-12.6768,0.402532,0
30.3492,-12.6031,0.402747,0
30.3822,-12.5288,0.403236,0
30.4135,-12.4538,0.403724,0
30.4429,-12.378,0.404193,0
30.4705,-12.3016,0.404632,0
30.4962,-12.2244,0.405042,0
30.52,-12.1465,0.405413,0
30.542,-12.0682,0.405765,0
30.562,-11.9892,0.406077,0
30.5801,-11.9098,0.406361,0
30.5962,-11.8299,0.406624,0
30.6103,-11.7497,0.406839,0
30.6225,-11.6691,0.407034,0
30.6327,-11.5882,0.407191,0
30.6409,-11.5071,0.407327,0
30.6471,-11.4258,0.407415,0
30.6515,-11.3443,0.407542,0
30.6552,-11.2628,0.408118,0
30.6568,-11.1812,0.408655,0
30.6564,-11.0995,0.409173,0
30.6534,-11.0179,0.409427,0
30.6475,-10.9364,0.40929,0
30.6396,-10.8551,0.409114,0
26.5956,-14.5343,0.400208,0
26.6741,-14.5471,0.40012,0
26.7527,-14.5581,0.400013,0
26.8317,-14.5671,0.399866,0
26.9109,-14.5742,0.39972,0
26.9901,-14.5793,0.399525,0
27.0695,-14.5825,0.39932,0
27.1488,-14.5829,0.398743,0
27.2282,-14.5797,0.397493,0
27.3073,-14.5747,0.396243,0
27.3862,-14.5678,0.394993,0
27.465,-14.5591,0.393753,0
27.5433,-14.5485,0.392503,0
27.6213,-14.5361,0.391273,0
27.6989,-14.5219,0.390052,0
27.7761,-14.5059,0.388831,0
27.8528,-14.4881,0.387611,0
27.9296,-14.4712,0.387445,0
28.0064,-14.4541,0.387933,0
28.0827,-14.4351,0.388421,0
28.1587,-14.4144,0.38889,0
28.2341,-14.3918,0.389368,0
28.309,-14.3675,0.389847,0
28.3833,-14.3414,0.390316,0
28.457,-14.3136,0.390775,0
28.5301,-14.284,0.391243,0
28.6024,-14.2526,0.391693,0
28.674,-14.2196,0.392152,0
28.7448,-14.1848,0.392601,0
28.8148,-14.1484,0.39305,0
28.884,-14.1103,0.39348,0
28.9523,-14.0706,0.393909,0
29.0195,-14.0293,0.394339,0
29.0859,-13.9863,0.394759,0
29.1512,-13.9418,0.395169,0
29.2155,-13.8957,0.395579,0
29.2786,-13.8481,0.39598,0
29.3406,-13.799,0.39637,0
29.4015,-13.7485,0.396751,0
29.4612,-13.6964,0.397132,0
29.5196,-13.643,0.397493,0
29.5767,-13.5882,0.397864,0
29.6325,-13.532,0.398216,0
29.687,-13.4745,0.398568,0
29.7402,-13.4157,0.3989,0
29.792,-13.3556,0.399222,0
29.8422,-13.2943,0.399544,0
29.8911,-13.2318,0.399857,0
29.9384,-13.1682,0.40015,0
29.9842,-13.1034,0.400443,0
30.0285,-13.0375,0.400716,0
30.0712,-12.9706,0.400989,0
30.1123,-12.9027,0.401253,0
30.1518,-12.8338,0.401507,0
30.1896,-12.7639,0.401732,0
30.2258,-12.6932,0.401966,0
30.2603,-12.6216,0.402181,0
30.293,-12.5492,0.402396,0
30.3241,-12.476,0.402581,0
30.3534,-12.4021,0.402777,0
30.3815,-12.3277,0.403226,0
30.4078,-12.2526,0.403636,0
30.4323,-12.1769,0.404027,0
30.455,-12.1005,0.404378,0
30.4758,-12.0237,0.40471,0
30.4947,-11.9463,0.405013,0
30.5117,-11.8684,0.405277,0
30.5268,-11.7902,0.405521,0
30.54,-11.7116,0.405726,0
30.5512,-11.6326,0.405902,0
30.5606,-11.5534,0.406048,0
30.5679,-11.474,0.406175,0
30.5734,-11.3945,0.406253,0
30.5775,-11.3148,0.406566,0
30.5803,-11.235,0.407112,0
30.5812,-11.1551,0.40763,0
30.5793,-11.0753,0.407777,0
30.5748,-10.9956,0.407679,0
30.5684,-10.9159,0.407542,0
30.5601,-10.8365,0.407357,0
30.5497,-10.7573,0.407122,0
30.5373,-10.6784,0.406859,0
30.523,-10.5999,0.406536,0
30.5067,-10.5217,0.406175,0
30.4885,-10.444,0.405765,0
30.4684,-10.3668,0.405325,0
30.4463,-10.2901,0.404837,0
30.4224,-10.2141,0.40431,0
30.3966,-10.1386,0.403734,0
26.5824,-14.532,0.400218,0
26.6609,-14.5451,0.40013,0
26.7395,-14.5564,0.400032,0
26.8184,-14.5657,0.399905,0
26.8975,-14.5731,0.399739,0
26.9768,-14.5786,0.399564,0
27.0561,-14.5821,0.399359,0
27.1355,-14.5833,0.398958,0
27.2148,-14.5804,0.397698,0
27.2941,-14.5757,0.396448,0
27.373,-14.5691,0.395198,0
27.4517,-14.5607,0.393958,0
27.5301,-14.5504,0.392718,0
27.6081,-14.5383,0.391488,0
27.6859,-14.5244,0.390257,0
27.7631,-14.5087,0.389027,0
27.8399,-14.4913,0.387816,0
27.9166,-14.4739,0.387357,0
27.9935,-14.4571,0.387855,0
28.0698,-14.4385,0.388333,0
28.1459,-14.418,0.388812,0
28.2214,-14.3958,0.3893,0
28.2963,-14.3718,0.389769,0
28.3708,-14.3459,0.390237,0
28.4446,-14.3184,0.390706,0
28.5178,-14.2891,0.391165,0
28.5902,-14.258,0.391624,0
28.662,-14.2253,0.392073,0
28.733,-14.1908,0.392523,0
28.8031,-14.1547,0.392972,0
28.8724,-14.1169,0.393411,0
28.9409,-14.0774,0.393841,0
29.0083,-14.0363,0.394261,0
29.0748,-13.9937,0.394691,0
29.1402,-13.9494,0.395101,0
29.2047,-13.9036,0.395511,0
29.268,-13.8562,0.395902,0
29.3302,-13.8074,0.396302,0
29.3912,-13.7571,0.396693,0
29.4511,-13.7053,0.397064,0
29.5098,-13.6521,0.397445,0
29.5672,-13.5975,0.397806,0
29.6232,-13.5416,0.398148,0
29.6779,-13.4843,0.398509,0
29.7313,-13.4257,0.398841,0
29.7833,-13.3658,0.399163,0
29.8338,-13.3047,0.399486,0
29.8829,-13.2424,0.399798,0
29.9305,-13.179,0.400101,0
29.9766,-13.1144,0.400394,0
30.0211,-13.0487,0.400677,0
30.0641,-12.982,0.400941,0
30.1055,-12.9142,0.401204,0
30.1452,-12.8454,0.401458,0
30.1834,-12.7758,0.401702,0
30.2198,-12.7052,0.401927,0
30.2545,-12.6337,0.402152,0
30.2877,-12.5614,0.402357,0
30.3189,-12.4884,0.402562,0
30.3485,-12.4146,0.402747,0
30.3769,-12.3403,0.403148,0
30.4035,-12.2653,0.403577,0
30.4284,-12.1897,0.403958,0
30.4513,-12.1135,0.404329,0
30.4724,-12.0367,0.404661,0
30.4916,-11.9594,0.404964,0
30.5089,-11.8816,0.405237,0
30.5244,-11.8034,0.405482,0
30.5379,-11.7249,0.405696,0
30.5495,-11.646,0.405882,0
30.5591,-11.5668,0.406029,0
30.5669,-11.4874,0.406146,0
30.5726,-11.4079,0.406243,0
30.5768,-11.3282,0.406468,0
30.58,-11.2485,0.407015,0
30.5812,-11.1686,0.407552,0
30.5798,-11.0888,0.407796,0
30.5757,-11.009,0.407708,0
30.5696,-10.9293,0.407562,0
30.5616,-10.8499,0.407396,0
30.5516,-10.7707,0.407161,0
30.5395,-10.6917,0.406898,0
30.5255,-10.6131,0.406595,0
30.5096,-10.5349,0.406243,0
30.4917,-10.4571,0.405843,0
30.472,-10.3798,0.405403,0
30.4502,-10.303,0.404925,0
30.4266,-10.2269,0.404398,0
30.401,-10.1513,0.403831,0
26.5692,-14.5296,0.400238,0
26.6476,-14.543,0.40015,0
26.7262,-14.5546,0.400052,0
26.8051,-14.5643,0.399925,0
26.8842,-14.572,0.399769,0
26.9634,-14.5778,0.399583,0
27.0427,-14.5816,0.399388,0
27.122,-14.5836,0.399163,0
27.2015,-14.581,0.397913,0
27.2807,-14.5766,0.396663,0
27.3597,-14.5703,0.395413,0
27.4384,-14.5622,0.394163,0
27.5169,-14.5522,0.392923,0
27.595,-14.5405,0.391693,0
27.6727,-14.5269,0.390462,0
27.7501,-14.5115,0.389241,0
27.827,-14.4943,0.388021,0
27.9036,-14.4766,0.387288,0
27.9805,-14.46,0.387767,0
28.057,-14.4417,0.388255,0
28.1331,-14.4216,0.388734,0
28.2087,-14.3996,0.389212,0
28.2837,-14.3759,0.389681,0
28.3583,-14.3504,0.390159,0
28.4322,-14.3232,0.390628,0
28.5055,-14.2941,0.391087,0
28.5781,-14.2634,0.391546,0
28.65,-14.2309,0.391995,0
28.7211,-14.1967,0.392445,0
28.7913,-14.1609,0.392894,0
28.8608,-14.1233,0.393333,0
28.9293,-14.0842,0.393773,0
28.997,-14.0434,0.394202,0
29.0636,-14.001,0.394622,0
29.1293,-13.957,0.395032,0
29.1939,-13.9114,0.395443,0
29.2574,-13.8643,0.395833,0
29.3198,-13.8158,0.396243,0
29.3811,-13.7657,0.396634,0
29.4412,-13.7141,0.397005,0
29.5,-13.6612,0.397386,0
29.5576,-13.6068,0.397738,0
29.6138,-13.5511,0.398099,0
29.6688,-13.494,0.398441,0
29.7224,-13.4357,0.398782,0
29.7747,-13.376,0.399114,0
29.8254,-13.3151,0.399437,0
29.8747,-13.253,0.399749,0
29.9226,-13.1898,0.400052,0
29.969,-13.1254,0.400345,0
30.0138,-13.0599,0.400628,0
30.057,-12.9933,0.400902,0
30.0987,-12.9257,0.401165,0
30.1387,-12.8571,0.401409,0
30.177,-12.7876,0.401663,0
30.2137,-12.7171,0.401888,0
30.2488,-12.6458,0.402112,0
30.2822,-12.5737,0.402327,0
30.3137,-12.5007,0.402523,0
30.3437,-12.4271,0.402708,0
30.3722,-12.3529,0.403079,0
30.3991,-12.278,0.403509,0
30.4243,-12.2025,0.4039,0
30.4476,-12.1264,0.404261,0
30.469,-12.0497,0.404603,0
30.4885,-11.9724,0.404915,0
30.5062,-11.8948,0.405198,0
30.5219,-11.8166,0.405452,0
30.5358,-11.7381,0.405657,0
30.5477,-11.6593,0.405853,0
30.5577,-11.5802,0.405999,0
30.5656,-11.5008,0.406136,0
30.5717,-11.4213,0.406234,0
30.576,-11.3417,0.40637,0
30.5796,-11.2619,0.406927,0
30.5812,-11.1821,0.407464,0
30.5803,-11.1022,0.407806,0
30.5766,-11.0224,0.407718,0
30.5709,-10.9428,0.407591,0
30.563,-10.8633,0.407425,0
26.6085,-14.4635,0.399271,0
26.6853,-14.476,0.399183,0
26.7623,-14.4868,0.399085,0
26.8395,-14.4956,0.398948,0
26.917,-14.5025,0.398792,0
26.9945,-14.5076,0.398607,0
27.0722,-14.5107,0.398402,0
27.1498,-14.512,0.398177,0
27.2276,-14.5103,0.397493,0
27.3052,-14.5055,0.396282,0
27.3824,-14.4988,0.395052,0
27.4595,-14.4903,0.393831,0
27.5362,-14.48,0.39262,0
27.6126,-14.4679,0.391409,0
27.6887,-14.4541,0.390218,0
27.7643,-14.4385,0.389007,0
27.8394,-14.4212,0.387825,0
27.9145,-14.4038,0.387347,0
27.9896,-14.387,0.387816,0
28.0644,-14.3685,0.388304,0
28.1387,-14.3481,0.388763,0
28.2126,-14.326,0.389232,0
28.2859,-14.3022,0.3897,0
28.3587,-14.2766,0.390159,0
28.4309,-14.2493,0.390609,0
28.5024,-14.2203,0.391068,0
28.5732,-14.1896,0.391517,0
28.6434,-14.1572,0.391966,0
28.7127,-14.1232,0.392405,0
28.7812,-14.0875,0.392835,0
28.8489,-14.0502,0.393255,0
28.9157,-14.0113,0.393685,0
28.9816,-13.9708,0.394105,0
29.0466,-13.9287,0.394515,0
29.1105,-13.8851,0.394915,0
29.1734,-13.84,0.395316,0
29.2352,-13.7933,0.395696,0
29.2959,-13.7453,0.396087,0
29.3555,-13.6957,0.396468,0
29.4139,-13.6448,0.396839,0
29.4711,-13.5925,0.397191,0
29.527,-13.5388,0.397542,0
29.5817,-13.4837,0.397884,0
29.6351,-13.4274,0.398226,0
29.687,-13.3698,0.398568,0
29.7377,-13.311,0.39888,0
29.787,-13.251,0.399193,0
29.8348,-13.1898,0.399495,0
29.8811,-13.1275,0.399788,0
29.9259,-13.064,0.400071,0
29.9692,-12.9995,0.400345,0
30.0111,-12.934,0.400609,0
30.0512,-12.8675,0.400862,0
30.09,-12.8,0.401107,0
30.127,-12.7316,0.401341,0
30.1623,-12.6623,0.401566,0
30.1961,-12.5922,0.40178,0
30.2282,-12.5213,0.401986,0
30.2585,-12.4497,0.402171,0
30.2872,-12.3773,0.402357,0
30.3141,-12.3043,0.402523,0
30.3393,-12.2306,0.402679,0
30.3629,-12.1564,0.402933,0
30.3851,-12.0817,0.403275,0
30.4054,-12.0064,0.403607,0
30.4239,-11.9307,0.40389,0
30.4405,-11.8545,0.404153,0
30.4552,-11.778,0.404388,0
30.4681,-11.701,0.404593,0
30.4791,-11.6238,0.404769,0
30.4882,-11.5463,0.404915,0
30.4955,-11.4686,0.405023,0
30.5007,-11.3908,0.405111,0
30.5048,-11.3128,0.405423,0
30.5076,-11.2347,0.40596,0
30.5077,-11.1566,0.406195,0
30.5053,-11.0785,0.406146,0
30.501,-11.0005,0.406048,0
30.4947,-10.9226,0.405911,0
30.4865,-10.8449,0.405726,0
30.4764,-10.7675,0.405501,0
30.4643,-10.6903,0.405237,0
30.4503,-10.6135,0.404925,0
30.4344,-10.537,0.404573,0
30.4166,-10.461,0.404183,0
30.3969,-10.3855,0.403743,0
30.3754,-10.3105,0.403265,0
30.352,-10.2361,0.402757,0
30.3275,-10.162,0.402532,0
26.5956,-14.4612,0.39928,0
26.6723,-14.4741,0.399202,0
26.7493,-14.4851,0.399105,0
26.8265,-14.4942,0.398968,0
26.9039,-14.5015,0.398812,0
26.9815,-14.5068,0.398636,0
27.0591,-14.5103,0.398431,0
27.1369,-14.5119,0.398206,0
27.2145,-14.511,0.397708,0
27.292,-14.5064,0.396488,0
27.3694,-14.5,0.395257,0
27.4465,-14.4918,0.394036,0
27.5233,-14.4818,0.392816,0
27.5998,-14.4701,0.391614,0
27.6759,-14.4566,0.390413,0
27.7516,-14.4412,0.389222,0
27.8268,-14.4242,0.388021,0
27.9017,-14.4065,0.387269,0
27.977,-14.39,0.387747,0
28.0519,-14.3717,0.388216,0
28.1262,-14.3517,0.388685,0
28.2002,-14.3299,0.389154,0
28.2736,-14.3063,0.389622,0
28.3464,-14.281,0.390081,0
28.4187,-14.254,0.39054,0
28.4904,-14.2253,0.390989,0
28.5613,-14.1949,0.391448,0
28.6316,-14.1628,0.391878,0
28.701,-14.129,0.392327,0
28.7697,-14.0936,0.392757,0
28.8376,-14.0566,0.393187,0
28.9045,-14.0179,0.393616,0
28.9705,-13.9777,0.394027,0
29.0357,-13.9359,0.394437,0
29.0998,-13.8926,0.394847,0
29.1629,-13.8477,0.395247,0
29.2248,-13.8013,0.395638,0
29.2858,-13.7535,0.396019,0
29.3455,-13.7042,0.3964,0
29.4041,-13.6535,0.396771,0
29.4616,-13.6014,0.397132,0
29.5177,-13.5479,0.397493,0
29.5726,-13.4931,0.397835,0
29.6261,-13.437,0.398177,0
29.6784,-13.3796,0.398509,0
29.7293,-13.321,0.398831,0
29.7787,-13.2612,0.399144,0
29.8267,-13.2002,0.399446,0
29.8734,-13.138,0.399739,0
29.9185,-13.0748,0.400023,0
29.9621,-13.0105,0.400296,0
30.0041,-12.9451,0.40056,0
30.0447,-12.8788,0.400823,0
30.0835,-12.8114,0.401068,0
30.1209,-12.7432,0.401302,0
30.1566,-12.6741,0.401527,0
30.1905,-12.6041,0.401741,0
30.2229,-12.5333,0.401946,0
30.2536,-12.4618,0.402142,0
30.2824,-12.3896,0.402327,0
30.3097,-12.3166,0.402493,0
30.3352,-12.243,0.40265,0
30.359,-12.1689,0.402874,0
30.3815,-12.0943,0.403226,0
30.4021,-12.0191,0.403538,0
30.4209,-11.9435,0.403841,0
30.4378,-11.8674,0.404114,0
30.4529,-11.7909,0.404359,0
30.4661,-11.714,0.404564,0
30.4774,-11.6368,0.404739,0
30.4869,-11.5594,0.404886,0
30.4944,-11.4817,0.405013,0
30.5,-11.4039,0.405091,0
30.5041,-11.3259,0.405335,0
30.5072,-11.2479,0.405872,0
30.508,-11.1698,0.406204,0
30.5059,-11.0917,0.406155,0
30.5019,-11.0136,0.406068,0
30.4959,-10.9357,0.405931,0
30.488,-10.858,0.405765,0
30.4782,-10.7805,0.40554,0
30.4664,-10.7033,0.405286,0
30.4527,-10.6264,0.404984,0
30.4373,-10.5499,0.404632,0
30.4198,-10.4738,0.404251,0
30.4004,-10.3982,0.403821,0
30.3792,-10.3231,0.403353,0
30.3561,-10.2486,0.402845,0
30.3318,-10.1745,0.402571,0
26.5827,-14.4588,0.39929,0
26.6594,-14.472,0.399212,0
26.7363,-14.4833,0.399114,0
26.8134,-14.4928,0.398988,0
26.8909,-14.5004,0.398851,0
26.9684,-14.5061,0.398675,0
27.0461,-14.5099,0.39847,0
27.1237,-14.5118,0.398245,0
27.2014,-14.5116,0.397913,0
27.279,-14.5073,0.396693,0
27.3563,-14.5012,0.395462,0
27.4335,-14.4933,0.394251,0
27.5104,-14.4837,0.39303,0
27.5869,-14.4722,0.39182,0
27.663,-14.4589,0.390609,0
27.7388,-14.444,0.389417,0
27.8141,-14.4272,0.388226,0
27.8891,-14.4091,0.387181,0
27.9643,-14.3929,0.387669,0
28.0392,-14.3749,0.388138,0
28.1137,-14.3552,0.388616,0
28.1877,-14.3337,0.389085,0
28.2612,-14.3104,0.389544,0
28.3342,-14.2854,0.390003,0
28.4066,-14.2587,0.390462,0
28.4784,-14.2303,0.390921,0
28.5494,-14.2001,0.391361,0
28.6198,-14.1683,0.39181,0
28.6894,-14.1349,0.392249,0
28.7582,-14.0997,0.392679,0
28.8262,-14.063,0.393118,0
28.8933,-14.0246,0.393538,0
28.9595,-13.9846,0.393958,0
29.0248,-13.9431,0.394368,0
29.0891,-13.9,0.394779,0
29.1523,-13.8554,0.395179,0
29.2145,-13.8092,0.39557,0
29.2756,-13.7617,0.39596,0
29.3355,-13.7126,0.396331,0
29.3944,-13.6621,0.396712,0
29.452,-13.6103,0.397073,0
29.5083,-13.557,0.397425,0
29.5634,-13.5024,0.397777,0
29.6173,-13.4465,0.398118,0
29.6697,-13.3894,0.39845,0
29.7208,-13.331,0.398773,0
29.7705,-13.2714,0.399085,0
29.8187,-13.2105,0.399398,0
29.8655,-13.1486,0.399691,0
29.9109,-13.0855,0.399984,0
29.9548,-13.0214,0.400257,0
29.9972,-12.9562,0.400521,0
30.038,-12.89,0.400775,0
30.0771,-12.8229,0.401029,0
30.1147,-12.7548,0.401273,0
30.1505,-12.6858,0.401487,0
30.1849,-12.616,0.401712,0
30.2175,-12.5453,0.401917,0
30.2485,-12.4739,0.402112,0
30.2777,-12.4018,0.402298,0
30.3052,-12.329,0.402474,0
30.331,-12.2555,0.40263,0
30.3551,-12.1814,0.402806,0
30.3778,-12.1069,0.403167,0
30.3987,-12.0319,0.403499,0
30.4179,-11.9563,0.403792,0
30.4352,-11.8803,0.404075,0
30.4505,-11.8038,0.40431,0
30.464,-11.727,0.404525,0
30.4756,-11.6499,0.40471,0
30.4854,-11.5725,0.404866,0
30.4933,-11.4948,0.404993,0
30.4991,-11.417,0.405081,0
30.5034,-11.3391,0.405237,0
30.5068,-11.2611,0.405784,0
30.5081,-11.1829,0.406204,0
30.5064,-11.1048,0.406175,0
30.5027,-11.0268,0.406087,0
30.497,-10.9489,0.40596,0
30.4895,-10.8711,0.405784,0
26.6209,-14.3952,0.398372,0
26.6961,-14.4075,0.398284,0
26.7715,-14.418,0.398187,0
26.8472,-14.4267,0.39805,0
26.923,-14.4335,0.397894,0
26.9988,-14.4384,0.397718,0
27.0748,-14.4416,0.397513,0
27.1509,-14.4428,0.397288,0
27.227,-14.4422,0.397044,0
27.303,-14.4387,0.396312,0
27.3787,-14.4322,0.395111,0
27.4542,-14.4239,0.393909,0
27.5294,-14.4139,0.392728,0
27.6042,-14.4021,0.391546,0
27.6787,-14.3886,0.390364,0
27.7528,-14.3734,0.389202,0
27.8265,-14.3565,0.38803,0
27.8998,-14.3388,0.387249,0
27.9734,-14.3223,0.387718,0
28.0467,-14.3041,0.388187,0
28.1195,-14.2842,0.388646,0
28.1919,-14.2625,0.389105,0
28.2637,-14.2392,0.389554,0
28.335,-14.2141,0.390013,0
28.4056,-14.1873,0.390452,0
28.4756,-14.1589,0.390902,0
28.5451,-14.1288,0.391341,0
28.6137,-14.0971,0.391771,0
28.6816,-14.0637,0.3922,0
28.7488,-14.0287,0.39263,0
28.8151,-13.9922,0.39305,0
28.8805,-13.954,0.39345,0
28.9451,-13.9144,0.393861,0
29.0086,-13.8731,0.394271,0
29.0712,-13.8304,0.394661,0
29.1328,-13.7862,0.395052,0
29.1934,-13.7405,0.395443,0
29.2528,-13.6934,0.395814,0
29.3112,-13.6449,0.396185,0
29.3684,-13.595,0.396546,0
29.4244,-13.5437,0.396898,0
29.4791,-13.4911,0.397239,0
29.5327,-13.4372,0.397591,0
29.5849,-13.382,0.397913,0
29.6359,-13.3256,0.398236,0
29.6855,-13.268,0.398548,0
29.7337,-13.2092,0.398861,0
29.7805,-13.1492,0.399154,0
29.8259,-13.0882,0.399437,0
29.8698,-13.026,0.39971,0
29.9122,-12.9629,0.399984,0
29.9531,-12.8987,0.400247,0
29.9925,-12.8335,0.400491,0
30.0303,-12.7674,0.400736,0
30.0666,-12.7004,0.40096,0
30.1012,-12.6326,0.401185,0
30.1342,-12.564,0.40139,0
30.1656,-12.4945,0.401585,0
30.1954,-12.4243,0.401771,0
30.2234,-12.3534,0.401946,0
30.2498,-12.2819,0.402112,0
30.2745,-12.2097,0.402269,0
30.2973,-12.137,0.402425,0
30.3185,-12.0637,0.402552,0
30.338,-11.9899,0.402679,0
30.3556,-11.9157,0.402816,0
30.372,-11.8412,0.40307,0
30.3863,-11.7662,0.403304,0
30.3989,-11.6909,0.403499,0
30.4097,-11.6153,0.403675,0
30.4186,-11.5394,0.403812,0
30.4256,-11.4634,0.403919,0
30.4309,-11.3871,0.403997,0
30.4348,-11.3108,0.404339,0
30.437,-11.2344,0.404632,0
30.4365,-11.158,0.404622,0
30.4341,-11.0816,0.404573,0
30.4299,-11.0053,0.404466,0
30.4237,-10.9291,0.404339,0
30.4158,-10.853,0.404163,0
30.4058,-10.7773,0.403939,0
30.394,-10.7017,0.403675,0
30.3803,-10.6266,0.403382,0
30.3648,-10.5517,0.40303,0
30.3476,-10.4773,0.402718,0
30.3289,-10.4033,0.402542,0
30.3084,-10.3297,0.402347,0
30.2863,-10.2566,0.402142,0
30.2624,-10.1841,0.401907,0
26.6083,-14.393,0.398382,0
26.6834,-14.4056,0.398294,0
26.7588,-14.4164,0.398206,0
26.8344,-14.4254,0.39807,0
26.9102,-14.4325,0.397923,0
26.986,-14.4377,0.397747,0
27.062,-14.4412,0.397552,0
27.1381,-14.4427,0.397337,0
27.2142,-14.4425,0.397093,0
27.2902,-14.4396,0.396507,0
27.3659,-14.4334,0.395316,0
27.4414,-14.4254,0.394124,0
27.5167,-14.4157,0.392923,0
27.5916,-14.4042,0.391751,0
27.6662,-14.391,0.39057,0
27.7404,-14.3761,0.389388,0
27.8141,-14.3595,0.388226,0
27.8874,-14.3414,0.387181,0
27.9611,-14.3252,0.38765,0
28.0344,-14.3073,0.388109,0
28.1073,-14.2877,0.388568,0
28.1796,-14.2663,0.389027,0
28.2516,-14.2432,0.389476,0
28.323,-14.2184,0.389935,0
28.3937,-14.192,0.390374,0
28.4639,-14.1638,0.390833,0
28.5334,-14.134,0.391263,0
28.6023,-14.1025,0.391693,0
28.6702,-14.0695,0.392132,0
28.7375,-14.0348,0.392552,0
28.8039,-13.9984,0.392972,0
28.8695,-13.9606,0.393392,0
28.9342,-13.9212,0.393792,0
28.998,-13.8802,0.394202,0
29.0607,-13.8377,0.394593,0
29.1226,-13.7938,0.394993,0
29.1833,-13.7483,0.395374,0
29.2429,-13.7014,0.395745,0
29.3015,-13.6532,0.396126,0
29.3588,-13.6035,0.396478,0
29.415,-13.5524,0.396839,0
29.47,-13.5001,0.397191,0
29.5237,-13.4464,0.397523,0
29.5763,-13.3914,0.397855,0
29.6273,-13.3352,0.398177,0
29.6772,-13.2778,0.398499,0
29.7255,-13.2192,0.398802,0
29.7727,-13.1594,0.399095,0
29.8182,-13.0985,0.399388,0
29.8624,-13.0366,0.399671,0
29.9051,-12.9736,0.399945,0
29.9462,-12.9096,0.400198,0
29.9859,-12.8446,0.400452,0
30.0241,-12.7787,0.400696,0
30.0605,-12.7118,0.400921,0
30.0955,-12.6441,0.401146,0
30.1288,-12.5756,0.401351,0
30.1605,-12.5063,0.401546,0
30.1905,-12.4362,0.401741,0
30.2188,-12.3654,0.401927,0
30.2455,-12.294,0.402093,0
30.2704,-12.2219,0.402249,0
30.2936,-12.1493,0.402396,0
30.3151,-12.0761,0.402532,0
30.3348,-12.0024,0.402659,0
30.3527,-11.9283,0.402777,0
30.3693,-11.8537,0.403021,0
30.384,-11.7789,0.403265,0
30.397,-11.7036,0.40347,0
30.408,-11.6281,0.403646,0
30.4172,-11.5523,0.403792,0
30.4246,-11.4762,0.403909,0
30.4301,-11.4,0.403987,0
30.4341,-11.3237,0.404241,0
30.4368,-11.2473,0.404632,0
30.4367,-11.1709,0.404622,0
30.4347,-11.0945,0.404583,0
30.4308,-11.0181,0.404495,0
30.4249,-10.9419,0.404359,0
30.4172,-10.8658,0.404193,0
30.4076,-10.79,0.403978,0
30.3962,-10.7145,0.403724,0
30.3827,-10.6392,0.403431,0
30.3675,-10.5643,0.403089,0
30.3505,-10.4899,0.402747,0
30.3322,-10.4157,0.402571,0
30.3121,-10.3421,0.402386,0
30.2902,-10.2689,0.402181,0
30.2666,-10.1963,0.401946,0
26.5956,-14.3907,0.398392,0
26.6707,-14.4036,0.398314,0
26.7461,-14.4147,0.398216,0
26.8216,-14.424,0.398099,0
26.8973,-14.4314,0.397952,0
26.9732,-14.437,0.397777,0
27.0492,-14.4407,0.397591,0
27.1253,-14.4426,0.397366,0
27.2013,-14.4426,0.397132,0
27.2773,-14.4404,0.396712,0
27.3531,-14.4345,0.395511,0
27.4287,-14.4269,0.39432,0
27.504,-14.4175,0.393128,0
27.5791,-14.4063,0.391946,0
27.6536,-14.3934,0.390765,0
27.7279,-14.3788,0.389593,0
27.8017,-14.3624,0.388421,0
27.8751,-14.3444,0.387269,0
27.9487,-14.3281,0.387571,0
28.022,-14.3105,0.38803,0
28.095,-14.2911,0.388489,0
28.1675,-14.27,0.388948,0
28.2395,-14.2472,0.389398,0
28.311,-14.2227,0.389857,0
28.3819,-14.1965,0.390296,0
28.4521,-14.1687,0.390755,0
28.5217,-14.1391,0.391195,0
28.5906,-14.108,0.391624,0
28.6588,-14.0751,0.392054,0
28.7262,-14.0407,0.392484,0
28.7928,-14.0047,0.392913,0
28.8585,-13.9671,0.393323,0
28.9234,-13.9279,0.393724,0
28.9873,-13.8872,0.394134,0
29.0502,-13.845,0.394534,0
29.1121,-13.8013,0.394915,0
29.173,-13.7561,0.395306,0
29.233,-13.7095,0.395687,0
29.2916,-13.6614,0.396068,0
29.3492,-13.6119,0.396419,0
29.4056,-13.5611,0.39678,0
29.4608,-13.509,0.397132,0
29.5148,-13.4555,0.397474,0
29.5675,-13.4008,0.397806,0
29.6188,-13.3448,0.398128,0
29.6689,-13.2875,0.398441,0
29.7175,-13.2291,0.398753,0
29.7648,-13.1696,0.399056,0
29.8107,-13.1089,0.399339,0
29.8551,-13.0471,0.399622,0
29.898,-12.9843,0.399896,0
29.9395,-12.9204,0.400159,0
29.9794,-12.8556,0.400413,0
30.0177,-12.7898,0.400657,0
30.0545,-12.7231,0.400882,0
30.0898,-12.6556,0.401107,0
30.1233,-12.5872,0.401312,0
30.1552,-12.518,0.401527,0
30.1855,-12.4481,0.401712,0
30.2141,-12.3774,0.401898,0
30.2411,-12.3061,0.402064,0
30.2663,-12.2341,0.40222,0
30.2898,-12.1616,0.402376,0
30.3116,-12.0885,0.402513,0
30.3316,-12.0149,0.40263,0
30.3498,-11.9408,0.402757,0
30.3666,-11.8664,0.402991,0
30.3816,-11.7915,0.403226,0
30.3948,-11.7163,0.403431,0
30.4062,-11.6408,0.403616,0
30.4159,-11.565,0.403773,0
30.4234,-11.4891,0.40389,0
30.4292,-11.4129,0.403978,0
30.4334,-11.3366,0.404144,0
30.4366,-11.2602,0.404622,0
30.4369,-11.1838,0.404632,0
30.4352,-11.1073,0.404583,0
30.4315,-11.031,0.404515,0
30.426,-10.9547,0.404388,0
30.4186,-10.8787,0.404222,0
26.633,-14.3294,0.397493,0
26.7066,-14.3415,0.397415,0
26.7804,-14.3518,0.397318,0
26.8544,-14.3603,0.397191,0
26.9287,-14.3669,0.397034,0
27.003,-14.3718,0.396868,0
27.0774,-14.3749,0.396663,0
27.152,-14.3761,0.396448,0
27.2264,-14.3756,0.396204,0
27.3009,-14.3732,0.395941,0
27.3751,-14.3679,0.395169,0
27.4491,-14.3598,0.393997,0
27.5227,-14.3501,0.392825,0
27.5962,-14.3386,0.391673,0
27.6691,-14.3254,0.390511,0
27.7417,-14.3106,0.389368,0
27.814,-14.2941,0.388236,0
27.8858,-14.276,0.387161,0
27.9578,-14.2599,0.38762,0
28.0296,-14.242,0.388079,0
28.1009,-14.2225,0.388528,0
28.1718,-14.2013,0.388978,0
28.2422,-14.1783,0.389427,0
28.312,-14.1537,0.389866,0
28.3812,-14.1275,0.390306,0
28.4499,-14.0996,0.390736,0
28.5179,-14.0701,0.391165,0
28.5852,-14.039,0.391585,0
28.6517,-14.0063,0.392015,0
28.7174,-13.972,0.392425,0
28.7824,-13.9362,0.392835,0
28.8466,-13.8988,0.393245,0
28.9097,-13.8599,0.393646,0
28.972,-13.8195,0.394036,0
29.0334,-13.7776,0.394427,0
29.0937,-13.7343,0.394798,0
29.153,-13.6895,0.395189,0
29.2112,-13.6433,0.39555,0
29.2684,-13.5958,0.395911,0
29.3244,-13.5469,0.396263,0
29.3793,-13.4966,0.396614,0
29.433,-13.4451,0.396956,0
29.4854,-13.3923,0.397279,0
29.5366,-13.3382,0.397611,0
29.5864,-13.2829,0.397923,0
29.6349,-13.2265,0.398226,0
29.6822,-13.1688,0.398529,0
29.728,-13.1101,0.398812,0
29.7725,-13.0503,0.399105,0
29.8155,-12.9894,0.399368,0
29.857,-12.9275,0.399642,0
29.8971,-12.8646,0.399886,0
29.9357,-12.8008,0.40014,0
29.9728,-12.736,0.400374,0
30.0082,-12.6704,0.400589,0
30.0423,-12.6039,0.400804,0
30.0746,-12.5366,0.401009,0
30.1052,-12.4686,0.401204,0
30.1345,-12.3999,0.40139,0
30.1619,-12.3304,0.401566,0
30.1877,-12.2603,0.401722,0
30.2118,-12.1896,0.401888,0
30.2343,-12.1184,0.402025,0
30.255,-12.0466,0.402152,0
30.274,-11.9743,0.402269,0
30.2913,-11.9016,0.402376,0
30.3069,-11.8285,0.402484,0
30.3207,-11.755,0.402562,0
30.3327,-11.6812,0.40264,0
30.343,-11.6071,0.402708,0
30.3515,-11.5328,0.402757,0
30.3583,-11.4583,0.402855,0
30.3634,-11.3837,0.402933,0
30.3668,-11.309,0.403079,0
30.3683,-11.2342,0.403109,0
30.3679,-11.1594,0.403109,0
30.3655,-11.0846,0.40305,0
30.3614,-11.0099,0.402962,0
30.3555,-10.9353,0.402825,0
30.3477,-10.8608,0.402718,0
30.3383,-10.7866,0.40264,0
30.3271,-10.7126,0.402523,0
30.3141,-10.6389,0.402405,0
30.2995,-10.5656,0.402259,0
30.2829,-10.4926,0.402103,0
30.2647,-10.4201,0.401927,0
