79.5094,-52.1658,-4.01626,0
78.9549,-51.6872,-3.99233,0
78.5966,-51.2581,-3.98001,0
78.251,-50.8484,-3.9675,0
77.9274,-50.4574,-3.95552,0
77.7803,-50.0895,-3.95462,0
77.7038,-49.7301,-3.95791,0
77.6251,-49.3745,-3.96049,0
77.5442,-49.0224,-3.96237,0
77.4612,-48.6736,-3.96358,0
77.3945,-48.3267,-3.96541,0
77.3271,-47.9816,-3.9667,0
77.2387,-47.6406,-3.96602,0
77.1338,-47.3041,-3.96365,0
77.0252,-46.9709,-3.96054,0
76.9127,-46.6408,-3.95667,0
76.8349,-46.3056,-3.95481,0
76.8514,-45.9483,-3.95933,0
76.993,-45.5536,-3.97252,0
77.1377,-45.1468,-3.98556,0
77.2834,-44.7278,-3.99826,0
77.4299,-44.2957,-4.01063,0
77.5775,-43.85,-4.02261,0
77.7715,-43.372,-4.03755,0
78.1972,-42.7806,-4.06896,0
78.6495,-42.1467,-4.10178,0
79.1052,-41.4775,-4.13427,0
79.7688,-40.6695,-4.1813,0
80.6654,-39.6901,-4.24453,0
81.6728,-38.5841,-4.31488,0
82.7233,-37.3781,-4.38721,174
83.8442,-36.0478,-4.46337,174
84.3893,-35.0011,-4.49656,174
77.8273,-70.1823,-2.73063,174
73.3059,-62.9136,-2.87273,174
73.549,-62.5897,-2.91656,174
68.7832,-56.7806,-2.93017,174
88.9855,-60.8389,-4.14513,0
87.4749,-59.5254,-4.10619,0
84.8366,-57.8852,-4.00679,0
83.3606,-56.7925,-3.95837,0
82.5693,-56.0023,-3.94068,0
81.3422,-55.1306,-3.8975,0
80.4526,-54.4171,-3.86891,0
79.9044,-53.8367,-3.85629,0
79.2823,-53.271,-3.83779,0
78.7573,-52.7583,-3.82291,0
78.2785,-52.2821,-3.80909,0
77.9583,-51.8553,-3.80299,0
77.647,-51.4471,-3.79633,0
77.3444,-51.0562,-3.78914,0
77.1568,-50.6904,-3.78783,0
77.0595,-50.3399,-3.79117,0
76.9591,-49.9945,-3.79368,0
76.8557,-49.6542,-3.79538,0
76.7491,-49.3188,-3.79629,0
76.6349,-48.9884,-3.79611,0
76.4962,-48.664,-3.79382,0
76.3673,-48.3443,-3.79155,0
76.2803,-48.0252,-3.79139,0
76.1896,-47.709,-3.79047,0
76.0951,-47.3957,-3.7888,0
76.0412,-47.0777,-3.78922,0
76.0581,-46.746,-3.79376,0
76.072,-46.4113,-3.79765,0
76.0824,-46.0733,-3.80088,0
76.1612,-45.7131,-3.8081,0
76.2845,-45.3319,-3.81779,0
76.4077,-44.94,-3.82701,0
76.5309,-44.5368,-3.83576,0
76.6541,-44.1217,-3.84399,0
76.7616,-43.7001,-3.8507,0
76.965,-43.2259,-3.86311,0
77.2897,-42.6791,-3.88284,0
77.6537,-42.0876,-3.90446,0
78.0376,-41.4566,-3.92663,0
76.624,-41.7468,-3.83156,174
77.7649,-40.6789,-3.90129,174
78.1463,-39.9792,-3.92089,174
83.8478,-35.9374,-4.27892,174
83.2974,-35.6009,-4.23514,174
73.23,-63.1889,-2.84625,174
73.3766,-62.7437,-2.89098,174
73.7112,-62.5269,-2.93463,174
68.8004,-56.6628,-2.93985,174
88.5382,-60.3576,-4.13803,0
86.032,-58.6933,-4.04898,0
84.1205,-57.385,-3.98208,0
83.0259,-56.4574,-3.95101,0
82.2074,-55.6787,-3.93077,0
80.7897,-54.777,-3.87627,0
80.222,-54.1723,-3.86371,0
79.5348,-53.572,-3.84274,0
79.0616,-53.0547,-3.83163,0
78.5486,-52.5562,-3.81677,0
78.1449,-52.1033,-3.80664,0
77.8285,-51.6843,-3.8003,0
77.5209,-51.2834,-3.79342,0
77.2199,-50.8993,-3.78592,0
77.117,-50.5448,-3.78931,0
77.0184,-50.1964,-3.79231,0
76.9168,-49.8532,-3.79449,0
76.812,-49.5149,-3.79585,0
76.7042,-49.1815,-3.79643,0
76.5779,-48.8535,-3.79525,0
76.4381,-48.5315,-3.79265,0
76.3318,-48.212,-3.79158,0
76.2434,-47.894,-3.79111,0
76.1509,-47.5791,-3.78987,0
76.0548,-47.267,-3.78787,0
76.0486,-46.9409,-3.79118,0
76.0642,-46.608,-3.79544,0
76.0767,-46.2719,-3.79907,0
76.0887,-45.9319,-3.80221,0
76.2122,-45.5567,-3.81216,0
76.3355,-45.1712,-3.82166,0
76.4587,-44.7747,-3.83069,0
76.5819,-44.3666,-3.83923,0
76.699,-43.9487,-3.84687,0
76.8056,-43.5224,-3.85327,0
77.0975,-43.0037,-3.87123,0
77.1491,-42.5712,-3.87285,174
77.8101,-41.8317,-3.91356,0
78.2025,-41.1832,-3.93595,0
76.5581,-41.6063,-3.82579,174
77.6686,-40.5393,-3.89317,174
77.9999,-39.8626,-3.90924,174
83.5936,-35.8133,-4.25921,174
84.4432,-34.5505,-4.30365,174
75.0778,-40.3624,-3.70536,174
77.7204,-70.2095,-2.71924,174
73.2761,-62.9851,-2.86501,174
73.4899,-62.6255,-2.90902,174
89.1047,-61.0147,-4.14471,0
88.0719,-59.8808,-4.1293,0
85.1963,-58.1221,-4.0198,0
83.5039,-56.9363,-3.96147,0
82.7019,-56.1342,-3.94371,0
81.5894,-55.287,-3.90704,0
80.5507,-54.5217,-3.87109,0
79.997,-53.9343,-3.85848,0
79.3731,-53.3626,-3.8402,0
78.8461,-52.8445,-3.82549,0
78.3445,-52.3596,-3.81063,0
78.013,-51.9277,-3.80409,0
77.7003,-51.5164,-3.79752,0
77.3962,-51.1227,-3.79041,0
77.1734,-50.7517,-3.78716,0
77.0766,-50.4002,-3.79065,0
76.9768,-50.0539,-3.79331,0
76.8737,-49.7127,-3.79515,0
76.7678,-49.3765,-3.79618,0
76.6587,-49.0451,-3.79643,0
76.5203,-48.7197,-3.79427,0
76.3819,-48.3998,-3.7915,0
76.2956,-48.0802,-3.79148,0
76.2056,-47.7635,-3.79069,0
76.1117,-47.4497,-3.78913,0
76.038,-47.1348,-3.78837,0
76.0555,-46.8036,-3.79303,0
76.0698,-46.4694,-3.79703,0
76.0809,-46.132,-3.80038,0
76.1398,-45.778,-3.80637,0
76.2631,-45.3986,-3.81615,0
76.3864,-45.0086,-3.82545,0
76.5097,-44.6074,-3.83428,0
76.6327,-44.1944,-3.8426,0
76.7432,-43.7739,-3.84959,0
76.9104,-43.3173,-3.85972,0
77.2324,-42.776,-3.8794,0
77.0741,-42.4342,-3.86708,174
77.9698,-41.5688,-3.92275,0
76.6837,-41.7885,-3.83603,174
77.808,-40.7359,-3.90484,174
80.3556,-38.7719,-4.06372,0
83.9017,-36.0226,-4.28379,174
83.3663,-35.6751,-4.2411,174
85.2815,-33.6744,-4.35215,174
77.7416,-70.0346,-2.5481,174
73.0425,-63.196,-2.70323,174
73.2029,-62.7684,-2.74976,174
73.5027,-62.5159,-2.79325,174
68.7064,-56.6852,-2.86007,174
68.9044,-56.5718,-2.88393,174
88.5166,-62.8114,-3.80338,0
87.6167,-61.6374,-3.81112,0
86.2551,-60.3211,-3.79698,0
83.9198,-58.6807,-3.73949,0
82.7138,-57.6241,-3.71966,0
81.8574,-56.7699,-3.70992,0
80.8635,-55.921,-3.69104,0
79.9479,-55.1551,-3.67221,0
78.7762,-54.366,-3.63889,0
78.428,-53.8627,-3.63999,0
78.1013,-53.3864,-3.64058,0
77.6772,-52.9085,-3.63511,0
77.3915,-52.4819,-3.63487,0
77.094,-52.0701,-3.63287,0
76.7948,-51.6746,-3.62963,0
76.537,-51.3006,-3.62742,0
76.3094,-50.9437,-3.62579,0
76.203,-50.6087,-3.62962,0
76.1191,-50.2811,-3.63394,0
76.0319,-49.958,-3.63744,0
75.9343,-49.6392,-3.63973,0
75.8173,-49.3252,-3.64035,0
75.6976,-49.0165,-3.64021,0
75.5754,-48.7129,-3.6393,0
75.4506,-48.4142,-3.63768,0
75.3723,-48.1156,-3.63808,0
75.3252,-47.8152,-3.63972,0
75.3442,-47.5056,-3.64462,0
75.3602,-47.1936,-3.64887,0
75.3728,-46.8791,-3.65247,0
75.3821,-46.5619,-3.6554,0
75.3883,-46.2419,-3.65766,0
75.398,-45.9171,-3.65964,0
75.5036,-45.5601,-3.66665,0
75.6084,-45.1938,-3.67313,0
75.7008,-44.8216,-3.67836,0
75.7899,-44.4406,-3.68286,0
75.8773,-44.0499,-3.68668,0
75.963,-43.6488,-3.68981,0
76.1524,-43.1899,-3.69826,0
76.4313,-42.6706,-3.71113,0
76.7219,-42.1213,-3.72385,0
76.6336,-41.7469,-3.71422,174
77.3993,-40.8896,-3.75203,0
78.0502,-40.0428,-3.78196,174
79.1511,-38.8636,-3.83539,0
83.3861,-35.554,-4.05855,174
75.1637,-40.4916,-3.59992,174
85.1472,-32.8631,-4.12633,174
77.4839,-70.2623,-2.5083,174
73.1026,-63.0095,-2.7228,174
73.303,-62.6359,-2.76808,174
68.7442,-56.9231,-2.84496,174
68.7504,-56.598,-2.87007,174
87.9682,-62.2308,-3.80094,0
87.3745,-61.2318,-3.81773,0
85.0013,-59.4996,-3.76321,0
83.4928,-58.2643,-3.73466,0
82.4049,-57.2818,-3.71788,0
81.4337,-56.4072,-3.702,0
80.3755,-55.5613,-3.67891,0
79.6699,-54.8849,-3.66798,0
78.6241,-54.1529,-3.63917,0
78.2919,-53.663,-3.64036,0
77.9239,-53.1853,-3.63841,0
77.5581,-52.7299,-3.63512,0
77.2734,-52.3105,-3.63443,0
76.9693,-51.9044,-3.63162,0
76.6734,-51.5162,-3.62809,0
76.4424,-51.1515,-3.62683,0
76.2507,-50.803,-3.6267,0
76.1688,-50.4727,-3.63151,0
76.0835,-50.1469,-3.63548,0
75.9949,-49.8257,-3.63864,0
75.8862,-49.5087,-3.64008,0
75.7681,-49.1969,-3.64039,0
75.6474,-48.8903,-3.63992,0
75.5241,-48.5888,-3.63871,0
75.4185,-48.2904,-3.63793,0
75.3391,-47.9928,-3.63805,0
75.3334,-47.6875,-3.64182,0
75.3512,-47.3769,-3.64646,0
75.3658,-47.0639,-3.65045,0
75.3771,-46.7482,-3.65377,0
75.3851,-46.4299,-3.65642,0
75.3898,-46.1087,-3.65839,0
75.4418,-45.7706,-3.6626,0
75.547,-45.4098,-3.66941,0
75.6478,-45.0407,-3.67543,0
75.7378,-44.6653,-3.6803,0
75.8262,-44.2803,-3.68452,0
75.913,-43.8853,-3.68807,0
75.998,-43.4798,-3.69089,0
76.2664,-42.9786,-3.7036,0
76.5499,-42.4473,-3.71641,0
76.8457,-41.8848,-3.72908,0
76.557,-41.6124,-3.7078,174
77.6504,-40.5561,-3.76355,174
77.9989,-39.8704,-3.77609,174
79.7613,-38.2532,-3.86543,0
84.4855,-34.5342,-4.11352,174
75.0101,-40.4173,-3.58818,174
86.1543,-31.7928,-4.17328,174
77.641,-70.0689,-2.53697,174
73.1075,-63.389,-2.69331,174
73.1732,-62.8389,-2.74187,174
73.4432,-62.5508,-2.78584,174
68.6991,-56.7342,-2.85579,174
68.8481,-56.5684,-2.87985,174
87.7195,-61.8102,-3.80821,0
87.0824,-60.8116,-3.82189,0
84.0975,-58.8578,-3.74127,0
82.8816,-57.7852,-3.72178,0
82.0403,-56.9269,-3.71327,0
81.0281,-56.0611,-3.69424,0
80.0387,-55.2619,-3.67274,0
79.0303,-54.5133,-3.64719,0
78.4855,-53.9474,-3.63979,0
78.1573,-53.4672,-3.64056,0
77.7405,-52.9871,-3.63569,0
77.4404,-52.5544,-3.63497,0
77.1466,-52.1403,-3.63336,0
76.8459,-51.7417,-3.63024,0
76.5768,-51.3637,-3.62763,0
76.3485,-51.0046,-3.62612,0
76.2173,-50.6659,-3.62879,0
76.1339,-50.3374,-3.63326,0
76.0473,-50.0135,-3.63689,0
75.9541,-49.694,-3.63954,0
75.8377,-49.3791,-3.64031,0
75.7185,-49.0695,-3.64029,0
75.5967,-48.765,-3.63952,0
75.4723,-48.4656,-3.638,0
75.3862,-48.1671,-3.63806,0
75.3216,-47.8686,-3.63881,0
75.3412,-47.5594,-3.64382,0
75.3577,-47.2478,-3.64819,0
75.3709,-46.9337,-3.65189,0
75.3808,-46.6169,-3.65494,0
75.3874,-46.2974,-3.65731,0
75.3907,-45.9751,-3.659,0
75.4854,-45.6225,-3.66549,0
75.5903,-45.2579,-3.67205,0
75.6852,-44.8866,-3.67752,0
75.7746,-44.5073,-3.68212,0
75.8623,-44.1182,-3.68607,0
75.9484,-43.7189,-3.68931,0
76.1052,-43.2769,-3.69602,0
76.3823,-42.7625,-3.70891,0
76.6708,-42.2186,-3.72167,0
76.7595,-41.754,-3.7222,174
77.2865,-41.0311,-3.7467,0
78.0726,-40.1141,-3.78445,0
78.9817,-39.0605,-3.82747,0
82.2091,-36.4348,-3.99595,0
75.2577,-40.5029,-3.60643,174
85.1473,-33.0002,-4.12906,174
86.0844,-31.4948,-4.16228,174
77.3912,-70.5099,-2.29322,174
77.6589,-69.8913,-2.36784,174
72.9636,-63.0744,-2.581,174
73.1221,-62.6502,-2.62877,174
68.6816,-56.9816,-2.76361,174
68.6802,-56.6454,-2.79094,174
68.8671,-56.522,-2.81442,174
80.1944,-61.9271,-3.16175,174
87.206,-64.3533,-3.4232,0
86.0922,-62.9668,-3.44451,0
85.153,-61.7582,-3.46386,0
84.5406,-60.7853,-3.48659,0
82.8219,-59.3343,-3.47431,0
81.957,-58.3749,-3.48032,0
80.9595,-57.4177,-3.47814,0
80.0716,-56.5667,-3.47534,0
78.7309,-55.6032,-3.45362,0
77.8723,-54.882,-3.44428,0
77.5877,-54.3937,-3.45269,0
77.3094,-53.9271,-3.45975,0
77.0332,-53.4797,-3.46539,0
76.7858,-53.0572,-3.47078,0
76.5146,-52.6452,-3.47394,0
76.2497,-52.2508,-3.47612,0
76.0176,-51.8777,-3.4785,0
75.8159,-51.5224,-3.48114,0
75.6165,-51.179,-3.48291,0
75.433,-50.8483,-3.48448,0
75.3636,-50.5367,-3.49036,0
75.2804,-50.2286,-3.49493,0
75.1834,-49.9246,-3.4982,0
75.0833,-49.6254,-3.50067,0
74.9803,-49.331,-3.50237,0
74.8745,-49.0412,-3.50329,0
74.7673,-48.7558,-3.50355,0
74.6744,-48.4734,-3.5039,0
74.6822,-48.1842,-3.50862,0
74.703,-47.8916,-3.5135,0
74.7202,-47.597,-3.5177,0
74.7339,-47.3002,-3.52124,0
74.744,-47.0011,-3.52409,0
74.7504,-46.6998,-3.52625,0
74.753,-46.396,-3.52772,0
74.7518,-46.0899,-3.52847,0
74.7923,-45.768,-3.53078,0
74.8734,-45.4271,-3.5346,0
74.9491,-45.0795,-3.53758,0
75.0227,-44.7238,-3.53987,0
75.0942,-44.3596,-3.54145,0
75.1635,-43.9865,-3.54227,0
75.2305,-43.6041,-3.54232,0
75.4055,-43.1598,-3.54698,0
75.6443,-42.6659,-3.55395,0
75.8679,-42.1577,-3.55927,0
76.0966,-41.6241,-3.56385,0
76.3324,-41.062,-3.56772,0
75.708,-41.0077,-3.53002,174
74.5039,-41.3587,-3.46541,174
75.1035,-40.5401,-3.48377,174
85.1942,-32.8432,-3.92519,174
85.6571,-31.6852,-3.92535,174
77.3511,-70.0473,-2.33002,174
73.0282,-62.8958,-2.60103,174
73.2576,-62.5615,-2.6464,174
68.6362,-56.7903,-2.77592,174
68.7229,-56.5576,-2.80114,174
80.0333,-62.1705,-3.13533,174
80.3801,-61.8042,-3.18133,174
87.5609,-65.025,-3.40159,0
86.7802,-63.7896,-3.43357,0
85.5316,-62.3633,-3.44908,0
84.8923,-61.3458,-3.47356,0
83.568,-60.0428,-3.47527,0
82.4584,-58.9277,-3.47714,0
81.5231,-57.962,-3.47929,0
80.5818,-57.0547,-3.47711,0
79.7108,-56.2334,-3.47333,0
78.1717,-55.2256,-3.44313,0
77.7538,-54.6774,-3.44793,0
77.4719,-54.1982,-3.45576,0
77.1841,-53.7367,-3.46183,0
76.9479,-53.3075,-3.46843,0
76.6729,-52.8846,-3.47222,0
76.4043,-52.4801,-3.47496,0
76.1419,-52.0927,-3.47674,0
75.934,-51.7293,-3.4797,0
75.7332,-51.379,-3.48198,0
75.5346,-51.0403,-3.48341,0
75.4048,-50.719,-3.48702,0
75.3338,-50.4091,-3.49255,0
75.2406,-50.1023,-3.49638,0
75.1423,-49.8003,-3.49933,0
75.041,-49.5031,-3.50147,0
74.9369,-49.2106,-3.50284,0
74.8298,-48.9226,-3.50345,0
74.7227,-48.639,-3.50346,0
74.6683,-48.3548,-3.50546,0
74.6912,-48.0635,-3.51071,0
74.7105,-47.77,-3.51531,0
74.7263,-47.4745,-3.51924,0
74.7386,-47.1768,-3.5225,0
74.7471,-46.8768,-3.52507,0
74.7519,-46.5745,-3.52695,0
74.753,-46.2697,-3.52812,0
74.7478,-45.9632,-3.52843,0
74.8281,-45.6273,-3.53254,0
74.905,-45.2843,-3.53592,0
74.9798,-44.9334,-3.53862,0
75.0525,-44.5742,-3.54061,0
75.1231,-44.2064,-3.54188,0
75.1915,-43.8295,-3.54238,0
75.2691,-43.4379,-3.54267,0
75.5031,-42.9587,-3.54992,0
75.7369,-42.4584,-3.55627,0
75.9617,-41.9403,-3.56126,0
76.1933,-41.3952,-3.56554,0
76.5534,-40.7478,-3.57482,0
77.2355,-39.8619,-3.59779,0
78.0324,-38.8423,-3.62414,0
75.0023,-40.4302,-3.47503,174
85.3534,-32.3952,-3.92415,174
85.734,-31.2766,-3.91963,174
77.5624,-69.93,-2.35689,174
72.9425,-63.1574,-2.57234,174
73.0922,-62.7195,-2.62071,174
68.7042,-57.0674,-2.75825,174
68.6659,-56.6863,-2.78657,174
68.8187,-56.5266,-2.81057,174
80.1319,-61.9884,-3.15377,174
87.3098,-64.5487,-3.41697,0
86.3433,-63.2336,-3.44262,0
85.2637,-61.9341,-3.45964,0
84.6403,-60.9468,-3.48278,0
82.978,-59.5094,-3.47301,0
82.1255,-58.5453,-3.48013,0
81.1222,-57.5745,-3.47852,0
80.2191,-56.7075,-3.47589,0
78.9763,-55.7695,-3.45816,0
77.9222,-54.9688,-3.44269,0
77.6365,-54.4766,-3.45133,0
77.3572,-54.0063,-3.45861,0
77.0645,-53.5513,-3.46389,0
76.8334,-53.1303,-3.47013,0
76.561,-52.7152,-3.47347,0
76.2951,-52.3179,-3.47581,0
76.0527,-51.9403,-3.47795,0
75.8506,-51.583,-3.48075,0
75.6509,-51.2376,-3.48267,0
75.453,-50.9035,-3.48376,0
75.3758,-50.5904,-3.48941,0
75.2969,-50.2818,-3.49429,0
75.2003,-49.9768,-3.4977,0
75.1008,-49.6768,-3.50031,0
74.9983,-49.3816,-3.50213,0
74.893,-49.0909,-3.50319,0
74.7859,-48.8048,-3.50354,0
74.683,-48.5226,-3.50352,0
74.6782,-48.2346,-3.50771,0
74.6996,-47.9424,-3.51269,0
74.7175,-47.6481,-3.51703,0
74.7319,-47.3517,-3.52068,0
74.7425,-47.053,-3.52365,0
74.7495,-46.7521,-3.52594,0
74.7528,-46.4488,-3.52751,0
74.7523,-46.143,-3.52839,0
74.7769,-45.8265,-3.52999,0
74.8602,-45.4865,-3.53402,0
74.9362,-45.1402,-3.53711,0
75.0102,-44.7859,-3.53953,0
75.082,-44.4232,-3.54123,0
75.1516,-44.0517,-3.54218,0
75.2191,-43.6709,-3.54237,0
75.3648,-43.2427,-3.54571,0
75.6023,-42.7532,-3.55278,0
75.829,-42.2473,-3.55841,0
76.0566,-41.7183,-3.56311,0
76.2911,-41.1614,-3.56711,0
76.8268,-40.3936,-3.58413,0
74.5513,-41.3974,-3.46906,174
75.1558,-40.5794,-3.48785,174
75.0235,-40.2335,-3.47169,174
85.6375,-31.8445,-3.92818,174
77.1005,-70.0738,-2.12409,174
77.6511,-69.8466,-2.18645,174
72.9285,-63.008,-2.45904,174
73.0952,-62.5967,-2.50789,174
68.5738,-56.8466,-2.69597,174
68.6562,-56.608,-2.72241,174
68.8546,-56.4982,-2.74524,174
81.7567,-67.351,-2.68223,174
79.7889,-62.2301,-2.95944,174
79.9836,-61.7648,-3.00391,174
80.5745,-61.5647,-3.05044,174
83.4005,-62.7381,-3.12162,0
82.9519,-61.8116,-3.16022,0
76.9267,-57.7929,-3.11179,174
76.9851,-57.3875,-3.14061,174
81.0369,-59.003,-3.2423,0
80.0491,-58.0004,-3.2544,0
79.0248,-57.047,-3.2609,0
77.2685,-55.85,-3.24572,0
76.983,-55.3358,-3.26066,0
76.7182,-54.8512,-3.27424,0
76.4584,-54.3882,-3.28622,0
76.2795,-53.9697,-3.29891,0
76.1304,-53.574,-3.31115,0
75.9439,-53.1802,-3.32101,0
75.7117,-52.7882,-3.3282,0
75.507,-52.4171,-3.33501,0
75.3303,-52.0645,-3.34166,0
75.1548,-51.7231,-3.34731,0
74.9803,-51.3925,-3.35201,0
74.8063,-51.072,-3.3558,0
74.6695,-50.7652,-3.36007,0
74.5928,-50.4708,-3.36584,0
74.5129,-50.1808,-3.37078,0
74.4298,-49.895,-3.37493,0
74.3437,-49.6134,-3.3783,0
74.2544,-49.3359,-3.3809,0
74.1639,-49.0624,-3.38282,0
74.1223,-48.7899,-3.38615,0
74.0775,-48.5188,-3.38878,0
74.0709,-48.2449,-3.39246,0
74.0883,-47.9671,-3.39663,0
74.102,-47.6875,-3.40013,0
74.1123,-47.4059,-3.40296,0
74.119,-47.1224,-3.40511,0
74.1219,-46.8369,-3.40659,0
74.117,-46.5503,-3.40717,0
74.0995,-46.2642,-3.40668,0
74.078,-45.9765,-3.40545,0
74.1389,-45.6601,-3.4072,0
74.2095,-45.333,-3.40877,0
74.2775,-44.9986,-3.40961,0
74.3428,-44.6565,-3.40969,0
74.4053,-44.3065,-3.40897,0
74.4648,-43.9483,-3.40743,0
74.5213,-43.5815,-3.40504,0
74.6693,-43.1584,-3.40561,0
74.8582,-42.6971,-3.40693,0
75.0423,-42.2188,-3.40706,0
75.2303,-41.7173,-3.40626,0
75.4225,-41.1911,-3.40446,0
74.5023,-41.3662,-3.35938,174
75.1124,-40.5413,-3.37133,174
77.1116,-38.6642,-3.4311,0
79.0335,-36.691,-3.48295,0
75.2935,-39.0315,-3.33756,174
77.2784,-69.9141,-2.15231,174
72.9811,-63.45,-2.4229,174
72.9932,-62.831,-2.47966,174
68.6408,-57.1259,-2.67611,174
68.6067,-56.7456,-2.70708,174
68.6957,-56.5175,-2.73289,174
81.4679,-67.5633,-2.64677,174
86.1098,-67.2851,-2.94792,0
79.7796,-61.9734,-2.97756,174
80.1766,-61.65,-3.02272,174
80.8403,-61.4898,-3.07002,174
83.2134,-62.3485,-3.13806,0
76.9971,-58.095,-3.09574,174
77.0053,-57.6543,-3.12471,174
81.52,-59.5724,-3.23116,0
80.5912,-58.5619,-3.24718,0
79.6915,-57.6287,-3.25903,0
78.3945,-56.5814,-3.25758,0
77.1408,-55.6307,-3.2519,0
76.873,-55.1327,-3.26648,0
76.6102,-54.6572,-3.27938,0
76.3664,-54.2074,-3.29113,0
76.218,-53.8047,-3.30413,0
76.0684,-53.4138,-3.31584,0
75.8474,-53.0161,-3.32412,0
75.617,-52.6308,-3.33083,0
75.4338,-52.2699,-3.33788,0
75.2577,-51.922,-3.34411,0
75.0825,-51.5851,-3.34936,0
74.9084,-51.2588,-3.35369,0
74.7329,-50.9422,-3.35705,0
74.6382,-50.6429,-3.36256,0
74.5602,-50.3503,-3.36798,0
74.4789,-50.0621,-3.37259,0
74.3945,-49.7781,-3.37641,0
74.3071,-49.4982,-3.37946,0
74.2167,-49.2224,-3.38175,0
74.1472,-48.9495,-3.38428,0
74.1042,-48.6776,-3.38733,0
74.0591,-48.407,-3.38971,0
74.0785,-48.1303,-3.39426,0
74.0944,-47.8517,-3.39816,0
74.1067,-47.5713,-3.40138,0
74.1155,-47.289,-3.40394,0
74.1206,-47.0046,-3.40581,0
74.122,-46.7183,-3.40699,0
74.1103,-46.4322,-3.40705,0
74.0911,-46.1454,-3.40626,0
74.0964,-45.8485,-3.40596,0
74.1684,-45.5257,-3.40794,0
74.238,-45.1956,-3.40921,0
74.3048,-44.8581,-3.40973,0
74.369,-44.5128,-3.40949,0
74.4302,-44.1594,-3.40844,0
74.4886,-43.7977,-3.40655,0
74.5591,-43.4198,-3.40442,0
74.7477,-42.9698,-3.40629,0
74.9339,-42.502,-3.40709,0
75.1195,-42.0143,-3.40684,0
75.3092,-41.5028,-3.40564,0
75.5248,-40.9522,-3.40423,0
75.3246,-40.6523,-3.38589,174
75.0045,-40.4361,-3.3625,174
77.7545,-37.9781,-3.44779,0
75.4758,-39.1734,-3.35261,174
77.5407,-69.8666,-2.17637,174
72.9029,-63.0848,-2.45024,174
73.0589,-62.6578,-2.49986,174
68.5885,-56.9221,-2.69038,174
68.6402,-56.6468,-2.71796,174
68.7984,-56.4944,-2.74179,174
81.6647,-67.4076,-2.67187,174
85.4473,-66.4565,-2.97111,0
79.907,-61.8151,-2.99606,174
80.4357,-61.5767,-3.04206,174
83.4794,-62.9039,-3.11451,0
83.0286,-61.9682,-3.15382,0
76.9344,-57.8739,-3.10694,174
76.9841,-57.462,-3.13586,174
81.2301,-59.1946,-3.2401,0
80.1924,-58.1558,-3.2521,0
79.2161,-57.2136,-3.26042,0
77.5716,-56.0494,-3.24881,0
77.0294,-55.422,-3.25814,0
76.7637,-54.9335,-3.27201,0
76.5029,-54.4667,-3.28426,0
76.3052,-54.0394,-3.29666,0
76.1562,-53.6416,-3.30912,0
75.9845,-53.2496,-3.31966,0
75.7516,-52.8549,-3.32703,0
75.5376,-52.4793,-3.33377,0
75.3608,-52.1247,-3.34058,0
75.1852,-51.7814,-3.3464,0
75.0105,-51.4489,-3.35126,0
74.8367,-51.1268,-3.35522,0
74.6825,-50.8165,-3.359,0
74.6063,-50.5214,-3.36489,0
74.527,-50.2306,-3.36998,0
74.4444,-49.9442,-3.37426,0
74.3588,-49.6619,-3.37777,0
74.2702,-49.3837,-3.38049,0
74.1784,-49.1095,-3.38249,0
74.1298,-48.8369,-3.38562,0
74.0855,-48.5656,-3.38838,0
74.0676,-48.2928,-3.39168,0
74.0855,-48.0153,-3.39595,0
74.0999,-47.736,-3.39957,0
74.1108,-47.4548,-3.40252,0
74.118,-47.1716,-3.4048,0
74.1216,-46.8865,-3.40638,0
74.1196,-46.5997,-3.40719,0
74.1028,-46.3138,-3.40681,0
74.082,-46.0264,-3.40571,0
74.1265,-45.7159,-3.40686,0
74.1975,-45.3901,-3.40855,0
74.266,-45.057,-3.40952,0
74.3317,-44.7163,-3.40972,0
74.3947,-44.3676,-3.40915,0
74.4548,-44.0109,-3.40776,0
74.5118,-43.6456,-3.40551,0
74.6366,-43.2363,-3.40528,0
74.8268,-42.7777,-3.40682,0
75.0102,-42.3031,-3.4071,0
75.1975,-41.8058,-3.40646,0
75.3889,-41.284,-3.40484,0
74.5272,-41.4193,-3.36205,174
75.1605,-40.5834,-3.37511,174
75.0168,-40.246,-3.35791,174
78.6333,-37.094,-3.47199,0
75.3208,-39.0939,-3.34112,174
77.0274,-69.9379,-1.94854,174
77.6619,-69.8262,-2.0045,174
72.894,-62.9425,-2.33806,174
68.5979,-57.2089,-2.59289,174
68.5474,-56.8049,-2.62742,174
68.6323,-56.5709,-2.65448,174
68.8422,-56.4745,-2.67641,174
81.3642,-67.7797,-2.43136,174
81.6076,-67.1894,-2.49647,174
83.5881,-68.1211,-2.53002,0
82.9662,-66.7693,-2.60788,0
82.4058,-65.5436,-2.67743,0
81.971,-64.4807,-2.73929,0
79.7567,-62.1892,-2.80434,174
79.8853,-61.6803,-2.8496,174
80.3736,-61.4167,-2.89313,174
81.082,-61.2759,-2.9372,0
80.8385,-60.544,-2.97778,0
76.8378,-57.7317,-2.98996,174
76.9378,-57.3516,-3.01996,174
77.6672,-57.2929,-3.05551,0
76.5544,-56.3268,-3.06949,0
76.0673,-55.7113,-3.08708,0
75.854,-55.2453,-3.10614,0
75.6727,-54.8104,-3.12397,0
75.5559,-54.4149,-3.14138,0
75.4366,-54.0303,-3.15741,0
75.3152,-53.6563,-3.17213,0
75.1791,-53.2888,-3.18529,0
75.003,-52.9214,-3.19633,0
74.8505,-52.5721,-3.20674,0
74.6946,-52.2328,-3.21594,0
74.5382,-51.9038,-3.22406,0
74.382,-51.5847,-3.23118,0
74.2261,-51.2752,-3.23735,0
74.0704,-50.9749,-3.24259,0
73.9774,-50.6898,-3.24885,0
73.9103,-50.4124,-3.25514,0
73.8399,-50.1388,-3.26065,0
73.7663,-49.8689,-3.26538,0
73.6895,-49.6028,-3.26934,0
73.6499,-49.34,-3.27389,0
73.6149,-49.0786,-3.278,0
73.5766,-48.8187,-3.28142,0
73.535,-48.56,-3.28416,0
73.5167,-48.3,-3.28713,0
73.5311,-48.0356,-3.29069,0
73.542,-47.7695,-3.2936,0
73.5493,-47.5017,-3.29584,0
73.5531,-47.2323,-3.29741,0
73.5427,-46.9633,-3.29794,0
73.5277,-46.6933,-3.29771,0
73.5085,-46.4221,-3.2968,0
73.4855,-46.1496,-3.29516,0
73.4796,-45.8692,-3.29355,0
73.5379,-45.5632,-3.29359,0
73.5934,-45.2508,-3.2929,0
73.6459,-44.9319,-3.29143,0
73.6952,-44.6061,-3.28916,0
73.7414,-44.2733,-3.28606,0
73.7842,-43.9333,-3.28207,0
73.8235,-43.5856,-3.27719,0
73.9402,-43.1874,-3.27399,0
74.0972,-42.7516,-3.27109,0
74.2563,-42.2962,-3.26716,0
74.4177,-41.8198,-3.26212,0
74.4913,-41.3797,-3.25321,174
74.8242,-40.7456,-3.25049,0
75.2595,-40.0028,-3.24869,0
75.7298,-39.1891,-3.24555,0
74.4945,-39.6711,-3.1977,174
84.1981,-31.1884,-3.40722,174
77.2863,-69.8897,-1.97178,174
72.894,-63.3148,-2.30226,174
72.9586,-62.7666,-2.35926,174
68.5262,-56.9794,-2.60972,174
68.5802,-56.7046,-2.63884,174
68.6853,-56.4955,-2.66471,174
81.3478,-67.4247,-2.4612,174
81.8622,-67.0865,-2.51979,174
83.327,-67.5491,-2.56324,0
82.7184,-66.2408,-2.63769,0
82.2483,-65.1145,-2.7035,0
81.7759,-64.046,-2.76333,0
79.7694,-61.9489,-2.82343,174
80.0627,-61.5565,-2.86764,174
80.7063,-61.3874,-2.91127,174
81.0264,-60.9971,-2.95452,0
76.861,-58.0044,-2.97228,174
76.8072,-57.5344,-3.00196,174
78.41,-57.9403,-3.0456,0
77.0723,-56.8184,-3.06042,0
76.3152,-56.0505,-3.07663,0
75.9788,-55.5162,-3.09519,0
75.7663,-55.0583,-3.1135,0
75.6247,-54.6455,-3.13134,0
75.5069,-54.2546,-3.14818,0
75.3866,-53.8744,-3.16366,0
75.2644,-53.5047,-3.17784,0
75.0967,-53.1326,-3.18979,0
74.9398,-52.7757,-3.20078,0
74.7863,-52.4306,-3.21069,0
74.6299,-52.0955,-3.21943,0
74.4736,-51.7707,-3.22713,0
74.3176,-51.4556,-3.23384,0
74.1617,-51.1499,-3.23962,0
74.0152,-50.8543,-3.24478,0
73.9502,-50.5746,-3.25154,0
73.8816,-50.2988,-3.25752,0
73.8099,-50.0267,-3.2627,0
73.735,-49.7584,-3.26711,0
73.6688,-49.4939,-3.27115,0
73.6358,-49.2317,-3.27568,0
73.5995,-48.971,-3.2795,0
73.5598,-48.7115,-3.28264,0
73.5169,-48.4535,-3.28508,0
73.523,-48.1909,-3.28868,0
73.536,-47.9257,-3.29197,0
73.5454,-47.659,-3.2946,0
73.5513,-47.3905,-3.29657,0
73.5498,-47.1211,-3.29773,0
73.5369,-46.8518,-3.29793,0
73.5202,-46.5813,-3.29742,0
73.4995,-46.3096,-3.29621,0
73.4748,-46.0365,-3.29427,0
73.504,-45.7434,-3.29365,0
73.5612,-45.4348,-3.2934,0
73.6154,-45.1198,-3.29238,0
73.6666,-44.798,-3.29059,0
73.7147,-44.4694,-3.28798,0
73.7595,-44.1336,-3.28451,0
73.8009,-43.7904,-3.28017,0
73.8491,-43.4343,-3.27524,0
74.0048,-43.0094,-3.27291,0
74.1627,-42.5657,-3.2696,0
74.3228,-42.1018,-3.26521,0
74.4852,-41.6163,-3.25968,0
74.646,-41.1102,-3.2528,0
74.9889,-40.4544,-3.24955,174
75.4494,-39.6755,-3.24756,0
75.4841,-39.1761,-3.23229,174
75.4752,-38.6925,-3.21451,174
77.5506,-69.845,-1.99485,174
72.87,-63.0209,-2.3289,174
68.6376,-57.3184,-2.58519,174
68.5335,-56.8471,-2.62258,174
68.6164,-56.6095,-2.64993,174
68.7862,-56.4709,-2.67326,174
81.5083,-67.2382,-2.48657,174
83.6508,-68.3238,-2.51651,0
83.0714,-66.9955,-2.59502,0
82.4757,-65.7291,-2.6662,0
82.0533,-64.6659,-2.72894,0
81.6603,-63.6789,-2.78598,0
79.8222,-61.7393,-2.84202,174
80.2378,-61.4294,-2.88562,174
81.0842,-61.3807,-2.92975,174
80.9405,-60.7042,-2.97124,0
76.8361,-57.8067,-2.98476,174
76.8821,-57.3963,-3.01453,174
77.9977,-57.5375,-3.05395,0
76.657,-56.4456,-3.06637,0
76.1045,-55.794,-3.0836,0
75.8907,-55.3245,-3.10298,0
75.6927,-54.8799,-3.12081,0
75.5762,-54.4825,-3.13847,0
75.4574,-54.0961,-3.15474,0
75.3364,-53.7203,-3.16967,0
75.2133,-53.3547,-3.18334,0
75.0294,-52.983,-3.19442,0
74.8769,-52.6318,-3.20501,0
74.7216,-52.2908,-3.21442,0
74.5652,-51.96,-3.22273,0
74.4091,-51.6392,-3.23003,0
74.253,-51.3281,-3.23635,0
74.0973,-51.0262,-3.24175,0
73.9887,-50.7382,-3.24767,0
73.9222,-50.4601,-3.25412,0
73.8523,-50.1858,-3.25976,0
73.7793,-49.9153,-3.26462,0
73.703,-49.6486,-3.26871,0
73.6555,-49.3853,-3.27311,0
73.6212,-49.1237,-3.27735,0
73.5835,-48.8635,-3.28089,0
73.5425,-48.6047,-3.28373,0
73.5138,-48.3456,-3.28644,0
73.5288,-48.0815,-3.29012,0
73.5403,-47.8156,-3.29314,0
73.5483,-47.5482,-3.2955,0
73.5527,-47.279,-3.29719,0
73.545,-47.0099,-3.2979,0
73.5305,-46.7401,-3.2978,0
73.5122,-46.4691,-3.297,0
73.4898,-46.1968,-3.2955,0
73.4693,-45.9215,-3.29347,0
73.528,-45.6166,-3.29363,0
73.5839,-45.3053,-3.29306,0
73.637,-44.9875,-3.29174,0
73.6869,-44.663,-3.2896,0
73.7337,-44.3314,-3.28666,0
73.777,-43.9926,-3.28283,0
73.817,-43.6463,-3.27811,0
73.9133,-43.2609,-3.2744,0
74.0698,-42.8283,-3.27167,0
74.2287,-42.3764,-3.26792,0
74.3897,-41.9037,-3.26307,0
74.519,-41.4309,-3.25602,174
74.755,-40.8656,-3.25076,0
75.0323,-40.2426,-3.24497,174
75.6457,-39.3354,-3.2462,0
74.5826,-39.6808,-3.20271,174
84.2524,-31.2891,-3.41395,174
77.0522,-69.9364,-1.7677,174
77.6741,-69.8078,-1.82251,174
72.8612,-62.8794,-2.21793,174
68.499,-57.0785,-2.52691,174
68.5212,-56.7635,-2.55952,174
68.6158,-56.542,-2.5868,174
68.8298,-56.451,-2.60792,174
80.5758,-67.8146,-2.19398,0
80.2151,-66.6611,-2.28142,0
79.9331,-65.6435,-2.35927,0
79.9538,-64.9416,-2.42314,0
79.9898,-64.2783,-2.48313,0
80.0132,-63.6278,-2.54017,0
79.9665,-62.946,-2.59534,0
79.818,-62.2157,-2.64866,174
79.8119,-61.6131,-2.69686,174
79.7155,-60.9701,-2.74323,0
78.1458,-59.4335,-2.7955,0
77.4634,-58.534,-2.83503,0
76.5669,-57.5685,-2.86996,0
75.8291,-56.7514,-2.89953,0
75.3371,-56.1103,-2.92528,0
75.031,-55.5938,-2.94862,0
74.9463,-55.2011,-2.97098,0
74.858,-54.8185,-2.99184,0
74.7596,-54.4429,-3.0112,0
74.6535,-54.0755,-3.02912,0
74.5444,-53.7179,-3.0457,0
74.4866,-53.387,-3.06172,0
74.3629,-53.0439,-3.0757,0
74.2293,-52.7084,-3.08834,0
74.0952,-52.3826,-3.09983,0
73.9602,-52.0664,-3.11023,0
73.8248,-51.7591,-3.11959,0
73.6888,-51.4606,-3.12794,0
73.5523,-51.1705,-3.13534,0
73.4153,-50.8884,-3.14183,0
73.3579,-50.6224,-3.14927,0
73.2988,-50.36,-3.15597,0
73.2364,-50.1011,-3.1619,0
73.2005,-49.8466,-3.16779,0
73.175,-49.5942,-3.17334,0
73.1462,-49.3432,-3.17819,0
73.114,-49.0934,-3.18235,0
73.0785,-48.8449,-3.18583,0
73.0398,-48.5977,-3.18863,0
73.0117,-48.3502,-3.19115,0
73.0236,-48.0979,-3.19421,0
73.032,-47.8442,-3.19661,0
73.0313,-47.5899,-3.1982,0
73.0226,-47.3352,-3.199,0
73.0099,-47.0796,-3.19911,0
72.9936,-46.8228,-3.19854,0
72.9733,-46.5651,-3.19729,0
72.9492,-46.3062,-3.19532,0
72.9212,-46.0463,-3.19264,0
72.9371,-45.7691,-3.19057,0
72.9823,-45.4761,-3.18866,0
73.0242,-45.1774,-3.18597,0
73.063,-44.8729,-3.18247,0
73.0983,-44.5622,-3.17816,0
73.1302,-44.2454,-3.17296,0
73.1583,-43.9221,-3.16688,0
73.1825,-43.5921,-3.15985,0
73.2712,-43.2171,-3.15347,0
73.3987,-42.8058,-3.14693,0
73.5266,-42.3771,-3.13922,0
73.6418,-41.9388,-3.12999,0
73.7515,-41.4859,-3.11933,0
73.8601,-41.0145,-3.10725,0
74.1889,-40.3569,-3.09743,0
74.5019,-39.6741,-3.08509,174
74.933,-38.8544,-3.07205,0
73.332,-39.7403,-3.0307,174
72.0552,-40.4423,-2.99685,174
77.3064,-69.8817,-1.79048,174
72.8179,-63.1941,-2.18309,174
72.9242,-62.7028,-2.2398,174
68.474,-56.9064,-2.54252,174
68.5546,-56.6646,-2.57123,174
68.6754,-56.4741,-2.59682,174
68.9725,-56.467,-2.61448,174
80.3783,-67.2824,-2.23278,0
80.0989,-66.234,-2.31436,0
79.9267,-65.3367,-2.38655,0
79.9702,-64.6657,-2.44831,0
80.0009,-64.0077,-2.50707,0
80.0195,-63.3626,-2.56292,0
79.9379,-62.6646,-2.61735,0
79.7916,-61.9474,-2.66921,174
79.7819,-61.351,-2.71631,0
79.2449,-60.4351,-2.76473,0
77.8566,-59.0506,-2.8125,0
76.7901,-57.9517,-2.85097,174
76.185,-57.1819,-2.88279,0
75.6214,-56.4796,-2.91058,0
75.1437,-55.8608,-2.935,0
74.9964,-55.4302,-2.95805,0
74.9102,-55.0417,-2.97978,0
74.8203,-54.663,-3.00004,0
74.7161,-54.2898,-3.01877,0
74.6087,-53.9265,-3.03613,0
74.5137,-53.5779,-3.05237,0
74.4409,-53.2455,-3.06773,0
74.3077,-52.904,-3.08107,0
74.1739,-52.5725,-3.09323,0
74.0394,-52.2507,-3.10427,0
73.9043,-51.9383,-3.11423,0
73.7686,-51.6347,-3.12316,0
73.6323,-51.3397,-3.13111,0
73.4956,-51.0529,-3.13813,0
73.3909,-50.7779,-3.14498,0
73.3338,-50.5135,-3.15214,0
73.2734,-50.2525,-3.15851,0
73.2138,-49.9952,-3.16423,0
73.1904,-49.7421,-3.17018,0
73.1635,-49.4903,-3.17543,0
73.1333,-49.2397,-3.17999,0
73.0998,-48.9905,-3.18387,0
73.0629,-48.7425,-3.18707,0
73.0227,-48.4958,-3.18959,0
73.017,-48.2461,-3.19249,0
73.0274,-47.9932,-3.19528,0
73.0345,-47.7388,-3.19741,0
73.0282,-47.4847,-3.19861,0
73.0178,-47.2296,-3.19912,0
73.0036,-46.9735,-3.19896,0
72.9857,-46.7164,-3.19811,0
72.9639,-46.4582,-3.19656,0
72.9382,-46.1989,-3.1943,0
72.9093,-45.9383,-3.19134,0
72.9562,-45.6486,-3.18987,0
73,-45.3533,-3.18764,0
73.0406,-45.0522,-3.18463,0
73.078,-44.7452,-3.18079,0
73.1119,-44.432,-3.17612,0
73.1422,-44.1125,-3.17056,0
73.1687,-43.7864,-3.16409,0
73.1968,-43.4508,-3.15679,0
73.3239,-43.0491,-3.1509,0
73.4516,-42.6307,-3.14388,0
73.577,-42.1963,-3.13561,0
73.6873,-41.7537,-3.12575,0
73.7965,-41.2933,-3.11452,0
73.9897,-40.7517,-3.10334,0
74.3339,-40.0672,-3.09287,0
74.4436,-39.5312,-3.07648,174
73.5332,-39.8287,-3.04458,174
71.9907,-40.3308,-2.98836,174
77.5628,-69.8266,-1.81323,174
72.8374,-62.9574,-2.20848,174
68.5369,-57.1848,-2.51864,174
68.5074,-56.8054,-2.55455,174
68.5928,-56.5725,-2.58248,174
68.7745,-56.4479,-2.60505,174
80.6945,-68.0775,-2.1759,0
80.2634,-66.8425,-2.2673,0
79.9823,-65.8159,-2.34624,0
79.9463,-65.0577,-2.41246,0
79.9845,-64.3921,-2.47297,0
80.0101,-63.7394,-2.53051,0
79.9843,-63.0695,-2.58588,0
79.908,-62.3866,-2.6388,0
79.8037,-61.7096,-2.68881,174
79.7377,-61.0833,-2.73538,0
78.2699,-59.5987,-2.7881,0
77.5773,-58.6832,-2.82857,0
76.733,-57.737,-2.86431,0
75.9178,-56.8681,-2.89473,0
75.4198,-56.2173,-2.92105,0
75.0561,-55.668,-2.94464,0
74.9612,-55.2683,-2.96721,0
74.8736,-54.8839,-2.98834,0
74.7777,-54.5074,-3.00797,0
74.672,-54.1384,-3.02612,0
74.5634,-53.7791,-3.04292,0
74.4948,-53.4431,-3.059,0
74.3859,-53.103,-3.07339,0
74.2525,-52.7657,-3.08623,0
74.1184,-52.4383,-3.09792,0
73.9836,-52.1204,-3.10851,0
73.8482,-51.8117,-3.11804,0
73.7123,-51.5117,-3.12656,0
73.5759,-51.2201,-3.13412,0
73.4391,-50.9366,-3.14077,0
73.3677,-50.6681,-3.14804,0
73.3093,-50.4052,-3.15487,0
73.2474,-50.1457,-3.16092,0
73.2045,-49.8904,-3.16676,0
73.1797,-49.6378,-3.17243,0
73.1514,-49.3865,-3.17739,0
73.1198,-49.1365,-3.18168,0
73.0849,-48.8878,-3.18528,0
73.0466,-48.6404,-3.1882,0
73.0093,-48.3937,-3.19056,0
73.0218,-48.1417,-3.19373,0
73.0308,-47.8882,-3.19624,0
73.0325,-47.6338,-3.19799,0
73.0244,-47.3794,-3.1989,0
73.0123,-47.1239,-3.19913,0
72.9967,-46.8673,-3.19869,0
72.9772,-46.6098,-3.19755,0
72.9537,-46.3511,-3.19571,0
72.9263,-46.0914,-3.19316,0
72.9291,-45.8192,-3.19083,0
72.9747,-45.5272,-3.18904,0
73.0172,-45.2295,-3.18648,0
73.0565,-44.926,-3.18314,0
73.0924,-44.6164,-3.17896,0
73.1248,-44.3007,-3.17392,0
73.1537,-43.9785,-3.16799,0
73.1786,-43.6497,-3.16113,0
73.2492,-43.2866,-3.15449,0
73.3766,-42.8781,-3.14814,0
73.5044,-42.4526,-3.14063,0
73.6227,-42.0154,-3.1317,0
73.7326,-41.5655,-3.12128,0
73.8413,-41.0975,-3.10945,0
74.1294,-40.4753,-3.09924,0
74.4828,-39.7675,-3.08797,0
74.862,-38.9968,-3.07457,0
73.3456,-39.8053,-3.03423,174
77.0772,-69.9352,-1.58653,174
72.8048,-63.4208,-2.03212,174
72.8288,-62.8169,-2.0987,174
68.4456,-57.0027,-2.46012,174
68.4953,-56.7225,-2.49226,174
68.6048,-56.519,-2.51923,174
68.8175,-56.4275,-2.53976,174
77.7824,-65.0153,-2.14262,0
77.9318,-64.4702,-2.20337,0
78.0657,-63.9271,-2.26194,0
78.1844,-63.3866,-2.31835,0
78.2004,-62.7765,-2.37543,0
78.088,-62.0866,-2.43304,0
77.7981,-61.292,-2.49142,0
77.2949,-60.3832,-2.55006,0
76.7849,-59.5211,-2.60338,0
76.2742,-58.7075,-2.65163,0
75.6088,-57.8441,-2.69739,0
75.0945,-57.1234,-2.73621,0
74.6496,-56.4833,-2.77029,0
74.2836,-55.921,-2.80029,0
74.1769,-55.5185,-2.82596,0
74.1084,-55.1479,-2.84977,0
74.0354,-54.7861,-2.8721,0
73.9583,-54.4331,-2.893,0
73.9062,-54.1,-2.9126,0
73.8795,-53.7843,-2.93106,0
73.8482,-53.4735,-2.94844,0
73.767,-53.1529,-2.96445,0
73.654,-52.8312,-2.97909,0
73.5397,-52.5185,-2.99256,0
73.424,-52.2143,-3.00492,0
73.307,-51.9183,-3.01621,0
73.1889,-51.6302,-3.02647,0
73.0698,-51.3499,-3.03575,0
72.9495,-51.0768,-3.0441,0
72.8487,-50.8135,-3.05186,0
72.7999,-50.5616,-3.0596,0
72.7704,-50.3147,-3.06696,0
72.7541,-50.0707,-3.07388,0
72.7343,-49.828,-3.08011,0
72.7112,-49.5864,-3.08565,0
72.6848,-49.3461,-3.09051,0
72.655,-49.107,-3.0947,0
72.6219,-48.869,-3.09822,0
72.5857,-48.6322,-3.10107,0
72.5496,-48.3961,-3.10334,0
72.5574,-48.1552,-3.10592,0
72.5547,-47.9141,-3.1077,0
72.5484,-47.6721,-3.10883,0
72.5384,-47.4292,-3.1093,0
72.5247,-47.1854,-3.10911,0
72.5073,-46.9408,-3.10826,0
72.4863,-46.6952,-3.10672,0
72.4613,-46.4488,-3.10449,0
72.4327,-46.2014,-3.10156,0
72.4001,-45.9531,-3.09795,0
72.4331,-45.6785,-3.09498,0
72.4664,-45.3978,-3.09133,0
72.4963,-45.1119,-3.08688,0
72.5228,-44.8208,-3.08159,0
72.5456,-44.5243,-3.07546,0
72.5647,-44.2222,-3.06845,0
72.5798,-43.9145,-3.06052,0
72.5909,-43.6009,-3.05164,0
72.6545,-43.2479,-3.04259,0
72.7455,-42.8657,-3.03282,0
72.8305,-42.4722,-3.02176,0
72.9136,-42.0646,-3.00938,0
72.9944,-41.6421,-2.99562,0
73.0725,-41.2038,-2.98037,0
73.2559,-40.664,-2.96424,0
73.5391,-40.0139,-2.94656,0
73.3301,-39.7512,-2.92479,174
71.9804,-40.5187,-2.90103,174
75.3971,-36.8726,-2.87584,0
77.2375,-69.7544,-1.6165,0
72.7808,-63.1236,-2.06284,174
68.6012,-57.3988,-2.42719,174
68.4481,-56.8643,-2.47481,174
68.5313,-56.6273,-2.5041,174
68.6655,-56.4528,-2.52922,174
68.9523,-56.4359,-2.54589,174
77.8461,-64.7897,-2.16801,0
77.9891,-64.2453,-2.22786,0
78.1166,-63.7032,-2.28553,0
78.2129,-63.1502,-2.3416,0
78.1888,-62.5159,-2.39865,0
77.9684,-61.7533,-2.45775,0
77.678,-60.9748,-2.51424,0
77.08,-60.0178,-2.57283,0
76.5834,-59.1854,-2.62375,0
76.0569,-58.3808,-2.67029,0
75.3545,-57.5156,-2.71451,0
74.917,-56.858,-2.75068,0
74.4576,-56.2248,-2.78342,0
74.2148,-55.74,-2.81129,0
74.1491,-55.3642,-2.83599,0
74.0788,-54.9972,-2.85918,0
74.004,-54.6391,-2.88091,0
73.9252,-54.2896,-2.90125,0
73.8958,-53.9689,-2.92037,0
73.8671,-53.6552,-2.93838,0
73.8323,-53.3458,-2.9553,0
73.7204,-53.0188,-2.97065,0
73.6069,-52.7009,-2.9848,0
73.492,-52.3917,-2.99781,0
73.3758,-52.0909,-3.00972,0
73.2583,-51.7982,-3.02057,0
73.1398,-51.5134,-3.03042,0
73.0202,-51.2361,-3.03932,0
72.8995,-50.966,-3.04729,0
72.8289,-50.709,-3.05515,0
72.7787,-50.4584,-3.06258,0
72.7641,-50.2136,-3.0699,0
72.7462,-49.9702,-3.07654,0
72.7251,-49.7279,-3.08249,0
72.7007,-49.4869,-3.08775,0
72.6729,-49.2471,-3.09233,0
72.6417,-49.0084,-3.09624,0
72.6074,-48.7709,-3.09948,0
72.5698,-48.5346,-3.10206,0
72.5541,-48.2965,-3.10449,0
72.5567,-48.0556,-3.10673,0
72.5525,-47.8141,-3.10825,0
72.5447,-47.5718,-3.10911,0
72.5332,-47.3285,-3.1093,0
72.518,-47.0844,-3.10884,0
72.4991,-46.8393,-3.1077,0
72.4764,-46.5934,-3.10588,0
72.45,-46.3466,-3.10337,0
72.4197,-46.0988,-3.10016,0
72.412,-45.8409,-3.09677,0
72.4473,-45.5631,-3.09357,0
72.4792,-45.2802,-3.08958,0
72.5077,-44.9922,-3.0848,0
72.5327,-44.6989,-3.07916,0
72.554,-44.4001,-3.07268,0
72.5714,-44.0957,-3.06529,0
72.5848,-43.7855,-3.05697,0
72.5945,-43.4693,-3.0477,0
72.6947,-43.0901,-3.03873,0
72.7809,-42.7047,-3.02841,0
72.8652,-42.3054,-3.0168,0
72.9472,-41.8917,-3.00387,0
73.027,-41.4628,-2.98951,0
73.1041,-41.0178,-2.97361,0
73.3712,-40.4011,-2.95722,0
73.5731,-39.8041,-2.93814,174
73.8931,-39.0707,-2.91699,0
71.9272,-40.3984,-2.89242,174
77.3138,-69.4647,-1.65287,0
72.8051,-62.8945,-2.08897,174
68.4825,-57.1071,-2.45122,174
68.4815,-56.7641,-2.48716,174
68.5812,-56.5487,-2.51491,174
68.7673,-56.4297,-2.53692,174
77.7549,-65.1098,-2.13189,0
77.9071,-64.5643,-2.19302,0
78.0437,-64.0208,-2.25197,0
72.6202,-58.6389,-2.50971,174
78.2045,-62.8862,-2.36557,0
78.1379,-62.2281,-2.42246,0
77.8484,-61.4266,-2.48165,0
77.3984,-60.5486,-2.53993,0
76.8708,-59.6651,-2.59457,0
76.3671,-58.8479,-2.64356,0
75.7486,-58.005,-2.68948,0
75.1702,-57.2371,-2.72996,0
74.7316,-56.5943,-2.7646,0
74.3329,-56.0086,-2.79543,0
74.1883,-55.5835,-2.82168,0
74.1205,-55.2114,-2.84576,0
74.0484,-54.8481,-2.86833,0
73.9719,-54.4935,-2.88948,0
73.9105,-54.1551,-2.90929,0
73.8845,-53.8386,-2.92795,0
73.8539,-53.5269,-2.94551,0
73.7863,-53.2095,-2.96179,0
73.6737,-52.8862,-2.97665,0
73.5595,-52.572,-2.99031,0
73.4441,-52.2663,-3.00286,0
73.3273,-51.9689,-3.01433,0
73.2094,-51.6795,-3.02477,0
73.0904,-51.3978,-3.03422,0
72.9704,-51.1235,-3.04272,0
72.8568,-50.8574,-3.05043,0
72.8086,-50.605,-3.05832,0
72.773,-50.357,-3.06569,0
72.7571,-50.1128,-3.07274,0
72.7379,-49.8699,-3.07908,0
72.7154,-49.6281,-3.08475,0
72.6895,-49.3876,-3.08972,0
72.6603,-49.1483,-3.09402,0
72.6279,-48.9101,-3.09767,0
72.5923,-48.6731,-3.10063,0
72.5533,-48.4372,-3.10294,0
72.5576,-48.1968,-3.10553,0
72.5555,-47.9558,-3.10743,0
72.5498,-47.714,-3.10869,0
72.5404,-47.4713,-3.10927,0
72.5273,-47.2277,-3.1092,0
72.5107,-46.9832,-3.10845,0
72.4902,-46.7378,-3.10702,0
72.4659,-46.4915,-3.10492,0
72.4379,-46.2443,-3.10212,0
72.406,-45.9961,-3.09862,0
72.427,-45.7266,-3.09554,0
72.4609,-45.4467,-3.09202,0
72.4915,-45.1617,-3.0877,0
72.5185,-44.8715,-3.08257,0
72.542,-44.576,-3.07659,0
72.5616,-44.2749,-3.06973,0
72.5775,-43.9681,-3.06196,0
72.5892,-43.6556,-3.05325,0
72.6369,-43.3137,-3.04414,0
72.7306,-42.9323,-3.03462,0
72.816,-42.5413,-3.02377,0
72.8994,-42.1362,-3.01163,0
72.9805,-41.7162,-2.99811,0
73.0592,-41.2808,-2.98312,0
73.2084,-40.7717,-2.96708,0
73.489,-40.1299,-2.94979,0
73.3696,-39.7938,-2.92862,174
72.0332,-40.5414,-2.90462,174
75.0863,-37.2623,-2.88119,0
74.6152,-66.539,-1.65138,0
72.7705,-63.3526,-1.91101,174
73.2223,-63.2841,-1.9441,174
68.4141,-56.9531,-2.39285,174
68.4697,-56.6819,-2.42562,174
68.5938,-56.4961,-2.45197,174
68.8099,-56.4089,-2.47163,174
76.1826,-63.4069,-2.07837,0
76.1787,-62.7877,-2.14192,0
76.0449,-62.0768,-2.20803,0
72.7197,-58.6397,-2.41318,174
76.1304,-61.0471,-2.31241,0
75.9749,-60.4015,-2.36797,0
70.9189,-56.0948,-2.58804,174
75.1337,-58.8156,-2.48443,0
74.7127,-58.0886,-2.53523,0
74.282,-57.3959,-2.5818,0
73.8796,-56.7601,-2.62351,0
73.6409,-56.2561,-2.65815,0
73.4269,-55.7897,-2.68962,0
73.3862,-55.4364,-2.71597,0
73.3402,-55.0906,-2.74087,0
73.3072,-54.7606,-2.76414,0
73.3024,-54.4517,-2.78581,0
73.2927,-54.147,-2.80635,0
73.2784,-53.8467,-2.8258,0
73.2595,-53.5505,-2.84416,0
73.2139,-53.2509,-2.86154,0
73.1194,-52.9424,-2.8779,0
73.0228,-52.6418,-2.89307,0
72.9244,-52.3491,-2.90712,0
72.8241,-52.0638,-2.92009,0
72.7222,-51.7857,-2.93202,0
72.6187,-51.5146,-2.94296,0
72.5136,-51.2503,-2.95295,0
72.4073,-50.9926,-2.96201,0
72.3567,-50.7484,-2.97064,0
72.3481,-50.5122,-2.97888,0
72.3343,-50.277,-2.98641,0
72.3164,-50.0431,-2.99324,0
72.2943,-49.8105,-2.99939,0
72.2681,-49.5791,-3.00485,0
72.238,-49.3491,-3.00963,0
72.2038,-49.1204,-3.01374,0
72.1657,-48.8932,-3.01717,0
72.1237,-48.6674,-3.01994,0
72.088,-48.4421,-3.02219,0
72.0825,-48.2136,-3.02424,0
72.0781,-47.9839,-3.02571,0
72.0698,-47.7535,-3.02655,0
72.0573,-47.5225,-3.02674,0
72.0408,-47.291,-3.02626,0
72.0201,-47.0589,-3.02513,0
71.9952,-46.8263,-3.02333,0
71.9662,-46.5933,-3.02086,0
71.9329,-46.3599,-3.0177,0
71.8954,-46.1261,-3.01385,0
71.8695,-45.8861,-3.00952,0
71.8995,-45.6215,-3.00517,0
71.9257,-45.3524,-3.00003,0
71.9478,-45.0788,-2.99407,0
71.9657,-44.8007,-2.98729,0
71.9791,-44.518,-2.97963,0
71.9881,-44.2306,-2.97107,0
71.9923,-43.9386,-2.96159,0
72.0002,-43.6367,-2.95119,0
72.0386,-43.3076,-2.93996,0
72.1085,-42.9469,-2.92773,0
72.1755,-42.5742,-2.91423,0
72.2394,-42.1892,-2.89935,0
72.2998,-41.7911,-2.88305,0
72.3562,-41.3797,-2.86521,0
72.422,-40.9432,-2.84572,0
72.5827,-40.4051,-2.82382,0
71.8837,-40.6148,-2.80692,174
72.9062,-39.2387,-2.7727,0
73.071,-38.6035,-2.74303,0
73.8823,-37.2631,-2.69975,174
72.1314,-38.5937,-2.69851,174
74.7075,-66.3327,-1.68065,0
72.7543,-63.0669,-1.94267,174
68.5184,-57.2848,-2.36144,174
68.4225,-56.8226,-2.40774,174
68.5139,-56.5967,-2.43713,174
68.6579,-56.4339,-2.46175,174
68.9394,-56.4122,-2.47734,174
76.2513,-63.216,-2.1012,0
76.1248,-62.4908,-2.16976,0
72.5394,-58.728,-2.39721,174
76.1059,-61.3421,-2.28296,0
76.1452,-60.8406,-2.33272,0
75.8113,-60.0664,-2.3934,0
71.0223,-56.0431,-2.59634,174
74.9632,-58.5124,-2.50589,0
74.5312,-57.795,-2.5551,0
74.112,-57.1262,-2.59961,0
73.7802,-56.5482,-2.6382,0
73.5441,-56.0558,-2.67162,0
73.4107,-55.6427,-2.7007,0
73.3679,-55.2925,-2.72644,0
73.3198,-54.9498,-2.75074,0
73.3058,-54.6324,-2.77323,0
73.299,-54.3252,-2.79444,0
73.2874,-54.0223,-2.81452,0
73.2711,-53.7237,-2.83351,0
73.2503,-53.4292,-2.85145,0
73.1751,-53.1223,-2.86844,0
73.0797,-52.8171,-2.88431,0
72.9823,-52.5199,-2.89902,0
72.8831,-52.2302,-2.91261,0
72.7822,-51.9479,-2.92515,0
72.6795,-51.6728,-2.93666,0
72.5755,-51.4045,-2.9472,0
72.4698,-51.1429,-2.9568,0
72.3629,-50.8878,-2.9655,0
72.354,-50.6506,-2.97413,0
72.3429,-50.4148,-2.98208,0
72.3274,-50.1802,-2.98932,0
72.3077,-49.9468,-2.99586,0
72.284,-49.7146,-3.00173,0
72.2562,-49.4838,-3.00691,0
72.2243,-49.2543,-3.01141,0
72.1886,-49.0263,-3.01524,0
72.1488,-48.7996,-3.01841,0
72.1087,-48.5741,-3.02095,0
72.0832,-48.348,-3.02308,0
72.0812,-48.1187,-3.02493,0
72.0752,-47.8887,-3.02614,0
72.0651,-47.6581,-3.0267,0
72.051,-47.4269,-3.02662,0
72.0327,-47.1951,-3.02587,0
72.0103,-46.9628,-3.02447,0
71.9837,-46.73,-3.02239,0
71.953,-46.4968,-3.01964,0
71.9179,-46.2632,-3.0162,0
71.8785,-46.0293,-3.01207,0
71.8823,-45.7772,-3.00781,0
71.9109,-45.5108,-3.00314,0
71.9353,-45.2398,-2.99767,0
71.9558,-44.9644,-2.99138,0
71.9718,-44.6844,-2.98424,0
71.9834,-44.3997,-2.9762,0
71.9904,-44.1104,-2.96726,0
71.9932,-43.8161,-2.95739,0
72.0042,-43.509,-2.94662,0
72.0679,-43.1599,-2.93506,0
72.1366,-42.7943,-2.9223,0
72.2023,-42.4166,-2.90825,0
72.2648,-42.0262,-2.89279,0
72.3237,-41.6226,-2.87587,0
72.377,-41.2067,-2.85739,0
72.4894,-40.7232,-2.83693,0
72.649,-40.1746,-2.81408,0
71.8115,-40.5139,-2.7983,174
72.9742,-38.9805,-2.7608,0
73.4693,-37.9979,-2.72507,0
72.2425,-38.7611,-2.71426,174
72.935,-63.6813,-1.8828,174
73.1401,-63.2921,-1.93867,174
68.4292,-57.0308,-2.38502,174
68.4558,-56.7231,-2.4204,174
68.5703,-56.5257,-2.44762,174
68.7601,-56.4115,-2.46902,174
76.1497,-63.4833,-2.06892,0
76.2006,-62.9131,-2.13006,0
76.069,-62.1981,-2.1969,0
72.6151,-58.6212,-2.41082,174
76.1235,-61.1338,-2.3038,0
76.0443,-60.5448,-2.357,0
70.9044,-56.1379,-2.58357,174
75.2062,-58.9455,-2.47517,0
74.7902,-58.2146,-2.52663,0
74.3545,-57.5116,-2.57411,0
73.9463,-56.8656,-2.61664,0
73.6817,-56.3413,-2.65236,0
73.4484,-55.8601,-2.68464,0
73.3937,-55.497,-2.71152,0
73.3485,-55.1499,-2.73666,0
73.3075,-54.8145,-2.76027,0
73.3035,-54.5048,-2.78215,0
73.2948,-54.1994,-2.80288,0
73.2812,-53.8983,-2.82251,0
73.263,-53.6014,-2.84106,0
73.23,-53.3051,-2.85859,0
73.1359,-52.9952,-2.87515,0
73.0397,-52.6933,-2.89053,0
72.9415,-52.3992,-2.90477,0
72.8416,-52.1126,-2.91793,0
72.7398,-51.8333,-2.93004,0
72.6366,-51.561,-2.94114,0
72.532,-51.2956,-2.95128,0
72.4258,-51.0367,-2.96051,0
72.3577,-50.7893,-2.96914,0
72.3501,-50.553,-2.9775,0
72.337,-50.3176,-2.98515,0
72.3198,-50.0835,-2.99211,0
72.2984,-49.8506,-2.99837,0
72.273,-49.619,-3.00395,0
72.2434,-49.3887,-3.00886,0
72.21,-49.1599,-3.01307,0
72.1726,-48.9324,-3.01663,0
72.1312,-48.7063,-3.01951,0
72.0943,-48.481,-3.02185,0
72.0829,-48.2532,-3.02392,0
72.0792,-48.0237,-3.02551,0
72.0715,-47.7934,-3.02645,0
72.0598,-47.5626,-3.02674,0
72.0439,-47.3311,-3.02638,0
72.024,-47.0991,-3.02537,0
71.9998,-46.8666,-3.02369,0
71.9715,-46.6337,-3.02133,0
71.9389,-46.4003,-3.01829,0
71.9022,-46.1665,-3.01457,0
71.8638,-45.9314,-3.0102,0
71.8946,-45.6676,-3.00598,0
71.9215,-45.3993,-3.00097,0
71.9443,-45.1265,-2.99517,0
71.9629,-44.8491,-2.98853,0
71.9772,-44.5672,-2.98102,0
71.9869,-44.2807,-2.97261,0
71.9919,-43.9894,-2.96329,0
71.9984,-43.6898,-2.95305,0
72.0262,-43.3688,-2.94195,0
72.0966,-43.0101,-2.92994,0
72.1641,-42.6396,-2.91666,0
72.2286,-42.2567,-2.90202,0
72.2896,-41.8609,-2.88597,0
72.347,-41.4517,-2.86841,0
72.3969,-41.0313,-2.84927,0
72.5552,-40.5,-2.82776,0
71.9386,-40.6348,-2.81028,174
71.79,-40.3649,-2.78899,174
73.0423,-38.7161,-2.74838,0
74.0414,-37.1948,-2.70305,0
72.1678,-38.6394,-2.70313,174
71.1169,-61.7424,-1.89019,174
72.7098,-63.2502,-1.7936,174
72.7233,-62.6419,-1.86682,174
68.3913,-56.9139,-2.32559,174
68.4469,-56.6446,-2.35936,174
68.5829,-56.4733,-2.385,174
68.8025,-56.3908,-2.40371,174
74.6382,-61.8582,-2.04239,0
74.7562,-61.4228,-2.09401,0
74.8514,-60.9796,-2.14448,0
74.6645,-60.3062,-2.2078,0
74.2168,-59.4517,-2.27973,0
73.9447,-58.7865,-2.33733,0
70.8951,-56.0676,-2.51062,174
73.4374,-57.5859,-2.43812,0
73.1894,-57.0352,-2.48264,0
72.9982,-56.5491,-2.52185,0
72.8102,-56.0876,-2.55812,0
72.6926,-55.6886,-2.58977,0
72.6894,-55.3691,-2.61635,0
72.7061,-55.0682,-2.64104,0
72.7176,-54.771,-2.66458,0
72.724,-54.4775,-2.68699,0
72.7254,-54.1877,-2.70831,0
72.722,-53.9015,-2.72856,0
72.7141,-53.619,-2.74777,0
72.6987,-53.339,-2.766,0
72.6206,-53.0429,-2.78382,0
72.5401,-52.754,-2.80046,0
72.4571,-52.4721,-2.81598,0
72.3719,-52.197,-2.83041,0
72.2659,-51.9239,-2.8439,0
72.1527,-51.6569,-2.85635,0
72.0376,-51.3973,-2.86779,0
71.9434,-51.1487,-2.87822,0
71.8734,-50.9099,-2.88776,0
71.8619,-50.6831,-2.89652,0
71.8545,-50.4586,-2.90459,0
