22.2799,-8.87716,0.504085,0
22.3532,-8.82035,0.498763,0
22.4252,-8.76209,0.493597,0
22.4957,-8.70236,0.488548,0
22.5649,-8.64122,0.483626,0
22.6328,-8.57869,0.478851,0
22.6992,-8.5148,0.474193,0
22.7641,-8.44957,0.469671,0
22.8277,-8.38303,0.465286,0
22.8898,-8.31523,0.461048,0
22.9515,-8.24723,0.457386,0
23.0185,-8.18358,0.456282,0
23.0841,-8.11824,0.455247,0
23.1482,-8.0512,0.454261,0
23.2109,-7.98252,0.453353,0
23.272,-7.9122,0.452493,0
23.3315,-7.8403,0.451712,0
23.3894,-7.76683,0.450989,0
23.4457,-7.69183,0.450335,0
23.5002,-7.61535,0.449769,0
23.553,-7.53739,0.449232,0
23.604,-7.45805,0.448802,0
23.6531,-7.3773,0.448421,0
23.7004,-7.29525,0.448118,0
23.7457,-7.21189,0.447894,0
23.7891,-7.12726,0.447718,0
23.8305,-7.04144,0.44763,0
23.8698,-6.95447,0.447611,0
23.907,-6.86638,0.447659,0
23.9421,-6.77723,0.447786,0
23.9752,-6.68705,0.447982,0
24.0059,-6.59596,0.448265,0
24.0345,-6.50395,0.448626,0
24.0608,-6.41105,0.449027,0
24.0798,-6.31658,0.448187,0
24.0965,-6.22163,0.447425,0
24.1107,-6.12623,0.446712,0
24.1225,-6.03044,0.446077,0
24.132,-5.93436,0.445501,0
24.1388,-5.838,0.444993,0
24.1434,-5.74146,0.444554,0
24.1454,-5.64483,0.444202,0
24.1449,-5.54812,0.4439,0
24.1422,-5.45146,0.443685,0
24.1368,-5.35483,0.443519,0
24.1291,-5.25837,0.443441,0
24.1273,-5.16105,0.445628,0
24.1273,-5.06293,0.449036,0
24.1252,-4.96451,0.452611,0
24.1209,-4.86582,0.456331,0
24.1142,-4.76688,0.460208,0
24.1053,-4.66778,0.464241,0
24.0941,-4.56856,0.468441,0
24.0806,-4.46929,0.472806,0
24.0648,-4.36995,0.477308,0
24.0467,-4.27064,0.481946,0
24.0262,-4.17146,0.48678,0
24.0033,-4.0724,0.491741,0
23.978,-3.97354,0.496859,0
23.9379,-3.88069,0.498548,0
23.8898,-3.79165,0.498636,0
23.8398,-3.70378,0.4989,0
23.7879,-3.61711,0.49932,0
23.7343,-3.53171,0.499925,0
23.6788,-3.44757,0.500687,0
23.6216,-3.36471,0.501595,0
20.3527,-9.66099,0.638148,0
20.4488,-9.66148,0.635999,0
20.5436,-9.64695,0.629847,0
20.6373,-9.62669,0.622591,0
20.7303,-9.60445,0.615433,0
20.8227,-9.58027,0.608372,0
20.9143,-9.55421,0.601419,0
21.0052,-9.52625,0.594564,0
21.0952,-9.49642,0.587825,0
21.1843,-9.46476,0.581195,0
21.2726,-9.43129,0.574681,0
21.3601,-9.396,0.568275,0
21.4465,-9.35893,0.561976,0
21.5321,-9.32012,0.555804,0
21.6166,-9.27958,0.549749,0
21.7002,-9.23733,0.543831,0
21.7827,-9.19342,0.538011,0
21.8641,-9.14781,0.532318,0
21.9445,-9.1006,0.526761,0
22.0238,-9.05176,0.521331,0
22.1019,-9.00131,0.516009,0
22.1788,-8.94934,0.510843,0
22.2546,-8.89579,0.505794,0
22.3285,-8.83981,0.50056,0
22.4009,-8.78203,0.495335,0
22.4719,-8.7228,0.490247,0
22.5416,-8.66215,0.485286,0
22.6099,-8.60007,0.480443,0
22.6768,-8.53664,0.475755,0
22.7423,-8.47188,0.471204,0
22.8063,-8.40577,0.466761,0
22.8689,-8.33841,0.462474,0
22.9299,-8.26975,0.458314,0
22.9959,-8.2054,0.456654,0
23.062,-8.14062,0.455599,0
23.1266,-8.07416,0.454593,0
23.1898,-8.00603,0.453655,0
23.2514,-7.93628,0.452796,0
23.3116,-7.8649,0.451976,0
23.3699,-7.79196,0.451243,0
23.4268,-7.71748,0.45057,0
23.482,-7.6415,0.449954,0
23.5353,-7.56405,0.449427,0
23.5869,-7.48517,0.448948,0
23.6366,-7.40486,0.448528,0
23.6845,-7.32327,0.448216,0
23.7305,-7.24034,0.447952,0
23.7746,-7.15613,0.447757,0
23.8166,-7.07072,0.44765,0
23.8566,-6.98411,0.447591,0
23.8946,-6.89641,0.44763,0
23.9305,-6.80762,0.447728,0
23.9641,-6.71781,0.447913,0
23.9958,-6.627,0.448167,0
24.0251,-6.53528,0.448489,0
24.0521,-6.4427,0.44888,0
24.0737,-6.34873,0.44846,0
24.0911,-6.25393,0.447659,0
24.1061,-6.15869,0.446956,0
24.1188,-6.06301,0.446282,0
24.129,-5.96702,0.445687,0
24.1367,-5.87074,0.445159,0
24.1421,-5.77428,0.4447,0
24.1449,-5.67765,0.4443,0
24.1454,-5.58097,0.443987,0
24.1434,-5.48426,0.443734,0
24.1389,-5.38764,0.443577,0
24.132,-5.29112,0.44346,0
24.1267,-5.1943,0.444525,0
24.1276,-5.0963,0.447864,0
24.1262,-4.99797,0.45138,0
24.1226,-4.89937,0.455052,0
24.1168,-4.80053,0.45888,0
24.1086,-4.70146,0.462845,0
24.0982,-4.60228,0.466995,0
24.0855,-4.50299,0.471292,0
24.0705,-4.40368,0.475755,0
24.0531,-4.30437,0.480355,0
24.0334,-4.20513,0.485111,0
24.0113,-4.10602,0.490032,0
23.9869,-4.00707,0.495101,0
23.9538,-3.91119,0.498548,0
23.9063,-3.82176,0.498587,0
23.857,-3.7335,0.498792,0
23.8058,-3.64642,0.499153,0
23.7527,-3.56058,0.4997,0
23.6979,-3.47599,0.500404,0
23.6412,-3.3927,0.501263,0
20.5964,-9.54487,0.627757,0
20.6877,-9.52393,0.620726,0
20.7781,-9.50108,0.613782,0
20.868,-9.47638,0.606956,0
20.9571,-9.44979,0.600208,0
21.0454,-9.42136,0.593577,0
21.133,-9.39113,0.587054,0
21.2196,-9.35909,0.580628,0
21.3055,-9.32529,0.574329,0
21.3904,-9.28974,0.568138,0
21.4744,-9.25245,0.562054,0
21.5574,-9.21347,0.556087,0
21.6395,-9.1728,0.550247,0
21.7206,-9.13045,0.544505,0
21.8006,-9.08646,0.53889,0
21.8797,-9.04087,0.533411,0
21.9576,-8.99368,0.52804,0
22.0344,-8.94493,0.522806,0
22.1101,-8.89462,0.517698,0
22.1841,-8.84194,0.512415,0
22.2566,-8.78745,0.507132,0
22.3278,-8.73148,0.501976,0
22.3978,-8.67409,0.496946,0
22.4664,-8.61529,0.492054,0
22.5337,-8.5551,0.487279,0
22.5996,-8.49356,0.48265,0
22.6641,-8.43067,0.478128,0
22.7273,-8.36649,0.473753,0
22.789,-8.30103,0.469505,0
22.8492,-8.23433,0.465394,0
22.908,-8.16641,0.461429,0
22.9684,-8.09994,0.458773,0
23.0318,-8.03552,0.457777,0
23.0937,-7.96948,0.456859,0
23.1541,-7.90187,0.455999,0
23.213,-7.83264,0.455189,0
23.2705,-7.76188,0.454446,0
23.3262,-7.68966,0.453782,0
23.3803,-7.61594,0.453177,0
23.4327,-7.54078,0.45262,0
23.4834,-7.46422,0.452152,0
23.5323,-7.38634,0.451761,0
23.5794,-7.3071,0.451409,0
23.6247,-7.22658,0.451146,0
23.668,-7.14483,0.450941,0
23.7094,-7.06187,0.450804,0
23.7489,-6.97779,0.450745,0
23.7863,-6.8926,0.450755,0
23.8217,-6.80634,0.450843,0
23.8551,-6.71908,0.450999,0
23.8863,-6.63087,0.451224,0
23.9154,-6.54176,0.451527,0
23.9423,-6.45176,0.451888,0
23.9644,-6.36055,0.451614,0
23.9821,-6.26835,0.450814,0
23.9974,-6.17572,0.450101,0
24.0104,-6.08267,0.449437,0
24.0211,-5.98925,0.448821,0
24.0294,-5.89558,0.448294,0
24.0352,-5.80169,0.447835,0
24.0388,-5.70763,0.447425,0
24.0399,-5.6135,0.447103,0
24.0387,-5.51931,0.446829,0
24.0351,-5.42518,0.446634,0
24.0291,-5.33114,0.446517,0
24.0316,-5.23608,0.449398,0
24.0327,-5.14055,0.45262,0
24.0318,-5.04468,0.456009,0
24.0286,-4.94856,0.459583,0
24.0234,-4.85221,0.463284,0
24.0158,-4.75563,0.467132,0
24.006,-4.65896,0.471155,0
23.994,-4.56218,0.475316,0
23.9798,-4.46538,0.479642,0
23.9633,-4.36855,0.484095,0
23.9444,-4.27183,0.488714,0
23.9233,-4.1752,0.49347,0
23.8998,-4.07877,0.498392,0
23.8741,-3.98255,0.503441,0
23.836,-3.89135,0.505687,0
23.7884,-3.80465,0.505823,0
23.739,-3.71912,0.506126,0
23.6877,-3.63479,0.506595,0
23.6348,-3.55167,0.50723,0
23.5801,-3.46978,0.508001,0
20.3792,-9.57072,0.639554,0
20.4731,-9.5699,0.637337,0
20.5653,-9.55154,0.630169,0
20.6567,-9.53126,0.623109,0
20.7475,-9.50906,0.616136,0
20.8376,-9.48498,0.609261,0
20.9269,-9.45903,0.602493,0
21.0155,-9.43123,0.595823,0
21.1033,-9.4016,0.589251,0
21.1902,-9.37017,0.582796,0
21.2763,-9.33696,0.576458,0
21.3616,-9.30201,0.570228,0
21.4459,-9.26531,0.564105,0
21.5293,-9.22689,0.558099,0
21.6117,-9.18678,0.5522,0
21.6931,-9.145,0.546429,0
21.7736,-9.10159,0.540794,0
21.853,-9.05654,0.535267,0
21.9312,-9.00989,0.529857,0
22.0084,-8.96167,0.524573,0
22.0845,-8.91188,0.519427,0
22.1591,-8.86007,0.514212,0
22.2321,-8.80611,0.508909,0
22.3037,-8.75064,0.503714,0
22.3742,-8.69376,0.498655,0
22.4433,-8.63542,0.493704,0
22.511,-8.57569,0.48889,0
22.5774,-8.51462,0.484212,0
22.6424,-8.45216,0.479642,0
22.706,-8.38843,0.475228,0
22.7682,-8.32341,0.470931,0
22.8289,-8.25713,0.46678,0
22.8882,-8.18961,0.462757,0
22.9466,-8.12144,0.459114,0
23.0105,-8.05757,0.458099,0
23.0728,-7.9921,0.457161,0
23.1337,-7.92499,0.456273,0
23.1932,-7.85633,0.455462,0
23.2512,-7.78609,0.454691,0
23.3073,-7.71435,0.453997,0
23.3621,-7.64113,0.453362,0
23.4151,-7.56646,0.452806,0
23.4664,-7.49039,0.452308,0
23.5159,-7.41293,0.451878,0
23.5636,-7.33416,0.451527,0
23.6095,-7.25407,0.451224,0
23.6534,-7.17273,0.450999,0
23.6956,-7.09018,0.450833,0
23.7357,-7.00649,0.450765,0
23.7738,-6.92165,0.450745,0
23.81,-6.83575,0.450804,0
23.844,-6.74884,0.450931,0
23.8759,-6.66094,0.451146,0
23.9058,-6.57213,0.451429,0
23.9334,-6.48243,0.451771,0
23.9579,-6.39174,0.451907,0
23.9763,-6.29971,0.451077,0
23.9924,-6.20723,0.450335,0
24.0063,-6.11429,0.449642,0
24.0177,-6.021,0.449007,0
24.0268,-5.92742,0.44846,0
24.0335,-5.83359,0.447982,0
24.0379,-5.73959,0.447552,0
24.0398,-5.64548,0.44721,0
24.0394,-5.5513,0.446917,0
24.0366,-5.45715,0.446702,0
24.0314,-5.36309,0.446566,0
24.0306,-5.26843,0.448314,0
24.0326,-5.17302,0.451507,0
24.0323,-5.07728,0.454857,0
24.03,-4.98124,0.458353,0
24.0254,-4.88495,0.462005,0
24.0186,-4.78845,0.465804,0
24.0096,-4.69181,0.469769,0
23.9984,-4.59506,0.47389,0
23.9849,-4.49824,0.478148,0
23.9691,-4.40144,0.482562,0
23.951,-4.30466,0.487122,0
23.9307,-4.20801,0.491839,0
23.908,-4.11149,0.496702,0
23.8831,-4.0152,0.501702,0
23.8517,-3.92104,0.505667,0
23.8048,-3.83396,0.505755,0
23.756,-3.74806,0.506019,0
23.7054,-3.66329,0.506419,0
23.653,-3.57977,0.506995,0
23.5988,-3.49746,0.507728,0
23.543,-3.41642,0.508607,0
20.3473,-9.57038,0.640267,0
20.4412,-9.57071,0.638187,0
20.5341,-9.558,0.632591,0
20.6258,-9.53837,0.625501,0
20.7168,-9.51681,0.618489,0
20.8071,-9.49338,0.611585,0
20.8966,-9.46804,0.604769,0
20.9855,-9.44087,0.59807,0
21.0736,-9.41187,0.591478,0
21.1609,-9.38105,0.584984,0
21.2473,-9.34846,0.578607,0
21.3327,-9.31407,0.572327,0
21.4174,-9.27796,0.566165,0
21.5011,-9.24014,0.56013,0
21.5839,-9.2006,0.554193,0
21.6656,-9.15938,0.548392,0
21.7464,-9.11651,0.542689,0
21.8262,-9.07203,0.537132,0
21.9048,-9.02592,0.531683,0
21.9823,-8.97823,0.526361,0
22.0588,-8.92897,0.521165,0
22.1341,-8.87808,0.516048,0
22.2075,-8.82461,0.510696,0
22.2796,-8.76964,0.505452,0
22.3505,-8.71322,0.500345,0
22.42,-8.65539,0.495374,0
22.4881,-8.59614,0.490511,0
22.555,-8.53551,0.485784,0
22.6205,-8.47353,0.481185,0
22.6846,-8.41022,0.476712,0
22.7473,-8.34565,0.472396,0
22.8085,-8.27978,0.468177,0
22.8683,-8.2127,0.464114,0
22.9266,-8.14438,0.460189,0
22.9889,-8.07943,0.458431,0
23.0518,-8.01451,0.457474,0
23.1132,-7.94797,0.456575,0
23.1732,-7.87983,0.455736,0
23.2316,-7.81011,0.454935,0
23.2884,-7.73889,0.454232,0
23.3438,-7.66616,0.453568,0
23.3973,-7.59198,0.452982,0
23.4491,-7.51639,0.452474,0
23.4993,-7.43936,0.452005,0
23.5476,-7.36105,0.451634,0
23.5941,-7.28141,0.451312,0
23.6388,-7.20051,0.451068,0
23.6815,-7.11837,0.450902,0
23.7223,-7.03505,0.450784,0
23.7611,-6.95059,0.450745,0
23.7979,-6.86507,0.450794,0
23.8327,-6.77848,0.450882,0
23.8653,-6.69091,0.451068,0
23.8959,-6.60238,0.451312,0
23.9243,-6.51299,0.451644,0
23.9505,-6.42274,0.452025,0
23.9703,-6.33103,0.451361,0
23.9873,-6.23869,0.450579,0
24.0019,-6.14591,0.449876,0
24.0141,-6.05272,0.449222,0
24.024,-5.95924,0.448646,0
24.0315,-5.86547,0.448128,0
24.0367,-5.77152,0.447689,0
24.0394,-5.67744,0.447318,0
24.0398,-5.58329,0.447015,0
24.0378,-5.48911,0.446761,0
24.0334,-5.39501,0.446595,0
24.0295,-5.30074,0.447259,0
24.0322,-5.20548,0.450413,0
24.0327,-5.10984,0.453704,0
24.031,-5.0139,0.457161,0
24.0272,-4.91768,0.460745,0
24.0212,-4.82126,0.464505,0
24.0129,-4.72464,0.468402,0
24.0024,-4.62792,0.472464,0
23.9897,-4.53111,0.476673,0
23.9747,-4.43431,0.481038,0
23.9574,-4.33753,0.48556,0
23.9379,-4.24083,0.490228,0
23.916,-4.14426,0.495042,0
23.8919,-4.04787,0.499993,0
23.8653,-3.95176,0.505101,0
23.8209,-3.86342,0.505706,0
23.7727,-3.7771,0.505902,0
23.7227,-3.69194,0.506263,0
23.6709,-3.60799,0.50679,0
23.6175,-3.52526,0.507454,0
23.5622,-3.4438,0.508284,0
20.5859,-9.45982,0.630501,0
20.6752,-9.43952,0.623616,0
20.7638,-9.41736,0.616829,0
20.8516,-9.39334,0.61013,0
20.9389,-9.3675,0.603538,0
21.0253,-9.33985,0.597044,0
21.1109,-9.31041,0.590648,0
21.1958,-9.27921,0.584368,0
21.2798,-9.24627,0.578187,0
21.3629,-9.21161,0.572122,0
21.4452,-9.17525,0.566165,0
21.5265,-9.1372,0.560316,0
21.6068,-9.09751,0.554583,0
21.6862,-9.0562,0.548988,0
21.7646,-9.01324,0.54348,0
21.842,-8.96872,0.538109,0
21.9183,-8.92263,0.532855,0
21.9934,-8.87482,0.527669,0
22.0669,-8.82455,0.522249,0
22.1391,-8.77282,0.516976,0
22.2101,-8.71961,0.51182,0
22.2798,-8.66497,0.50678,0
22.3484,-8.60888,0.501849,0
22.4155,-8.55142,0.497054,0
22.4814,-8.4926,0.492386,0
22.5459,-8.43243,0.487835,0
22.6091,-8.37098,0.483421,0
22.6709,-8.30823,0.479134,0
22.7313,-8.24422,0.474964,0
22.7903,-8.17899,0.470941,0
22.8478,-8.11257,0.467054,0
22.9039,-8.04497,0.463294,0
22.9609,-7.97803,0.460521,0
23.0211,-7.9135,0.459632,0
23.0799,-7.84738,0.458782,0
23.1372,-7.77976,0.458001,0
23.193,-7.71064,0.457298,0
23.2473,-7.64008,0.456644,0
23.2999,-7.56808,0.456058,0
23.3509,-7.49469,0.45554,0
23.4002,-7.41992,0.455071,0
23.4477,-7.34386,0.454691,0
23.4934,-7.2665,0.454359,0
23.5374,-7.18791,0.454105,0
23.5795,-7.10812,0.453919,0
23.6198,-7.02718,0.453792,0
23.658,-6.94513,0.453753,0
23.6944,-6.86199,0.453763,0
23.7287,-6.77785,0.453851,0
23.761,-6.69271,0.453997,0
23.7913,-6.60669,0.454241,0
23.8195,-6.51977,0.454534,0
23.8455,-6.43202,0.454896,0
23.8661,-6.3429,0.454359,0
23.8832,-6.25308,0.453597,0
23.8981,-6.16276,0.452874,0
23.9107,-6.07209,0.45223,0
23.921,-5.98107,0.451644,0
23.9291,-5.88978,0.451126,0
23.9348,-5.79829,0.450677,0
23.9382,-5.70666,0.450296,0
23.9393,-5.61493,0.449974,0
23.938,-5.52316,0.44971,0
23.9345,-5.43146,0.449534,0
23.938,-5.33899,0.452015,0
23.941,-5.24607,0.455052,0
23.942,-5.15278,0.458236,0
23.9407,-5.0592,0.461566,0
23.9373,-4.96536,0.465052,0
23.9318,-4.87132,0.468704,0
23.9242,-4.77709,0.472474,0
23.9143,-4.68275,0.476419,0
23.9023,-4.58834,0.480501,0
23.888,-4.4939,0.48472,0
23.8716,-4.39949,0.489095,0
23.853,-4.30519,0.493626,0
23.832,-4.211,0.498294,0
23.8088,-4.11697,0.503089,0
23.7834,-4.02321,0.50804,0
23.7536,-3.93073,0.512513,0
23.7071,-3.84592,0.51265,0
23.659,-3.76226,0.512952,0
23.6089,-3.67974,0.513402,0
23.5572,-3.5984,0.513997,0
23.5037,-3.51831,0.514769,0
20.3734,-9.48371,0.641614,0
20.4653,-9.48318,0.639593,0
20.5555,-9.46629,0.632864,0
20.6449,-9.44663,0.625941,0
20.7337,-9.4251,0.619114,0
20.8219,-9.40169,0.612386,0
20.9093,-9.37648,0.605765,0
20.996,-9.34943,0.599232,0
21.082,-9.32061,0.592806,0
21.1671,-9.29001,0.586487,0
21.2514,-9.25765,0.580267,0
21.3348,-9.22356,0.574163,0
21.4173,-9.18778,0.568167,0
21.499,-9.15029,0.562279,0
21.5797,-9.11117,0.556517,0
21.6594,-9.07039,0.550862,0
21.7381,-9.02801,0.545335,0
21.8158,-8.98401,0.539915,0
21.8925,-8.93845,0.534622,0
21.9681,-8.89133,0.529446,0
22.0421,-8.84181,0.524085,0
22.1147,-8.79056,0.518753,0
22.1861,-8.73784,0.513558,0
22.2563,-8.68367,0.50847,0
22.3252,-8.62807,0.503489,0
22.3928,-8.57107,0.498665,0
22.4591,-8.51271,0.493939,0
22.5241,-8.45301,0.489359,0
22.5878,-8.39198,0.484896,0
22.6501,-8.32968,0.48057,0
22.711,-8.26609,0.476361,0
22.7705,-8.20128,0.472298,0
22.8284,-8.13527,0.468362,0
22.8851,-8.06806,0.464554,0
22.9402,-7.99972,0.460902,0
23.0008,-7.93559,0.459925,0
23.0601,-7.87002,0.459075,0
23.1179,-7.8029,0.458265,0
23.1742,-7.73431,0.457542,0
23.2291,-7.66421,0.456859,0
23.2822,-7.59269,0.456253,0
23.3337,-7.51976,0.455696,0
23.3836,-7.44548,0.455237,0
23.4317,-7.36984,0.454818,0
23.478,-7.29293,0.454476,0
23.5227,-7.21474,0.454173,0
23.5654,-7.13535,0.453978,0
23.6062,-7.0548,0.453831,0
23.6452,-6.97311,0.453753,0
23.6823,-6.89035,0.453753,0
23.7173,-6.80653,0.453802,0
23.7503,-6.72175,0.453948,0
23.7813,-6.63602,0.454154,0
23.8102,-6.54938,0.454417,0
23.837,-6.46191,0.454769,0
23.8598,-6.3733,0.454642,0
23.8776,-6.28363,0.453841,0
23.8933,-6.19348,0.453109,0
23.9067,-6.10293,0.452445,0
23.9178,-6.01201,0.451829,0
23.9266,-5.92082,0.451292,0
23.9331,-5.82939,0.450833,0
23.9373,-5.73778,0.450413,0
23.9392,-5.64606,0.450062,0
23.9387,-5.55433,0.449798,0
23.9359,-5.46259,0.449583,0
23.9366,-5.37049,0.451028,0
23.9402,-5.27768,0.454007,0
23.9419,-5.1845,0.457132,0
23.9413,-5.09103,0.460423,0
23.9387,-4.99726,0.463851,0
23.9339,-4.90328,0.467445,0
23.927,-4.80909,0.471165,0
23.918,-4.71481,0.475071,0
23.9066,-4.62042,0.479105,0
23.8932,-4.52597,0.483265,0
23.8775,-4.43157,0.487611,0
23.8596,-4.33721,0.492073,0
23.8394,-4.24297,0.496693,0
23.817,-4.14889,0.501448,0
23.7923,-4.05505,0.506361,0
23.7653,-3.96147,0.51139,0
23.7231,-3.8746,0.512591,0
23.6755,-3.79056,0.512835,0
23.6261,-3.70763,0.513226,0
23.575,-3.62589,0.513773,0
23.5221,-3.54537,0.514495,0
23.4675,-3.46607,0.515345,0
20.3422,-9.48342,0.642308,0
20.4341,-9.48358,0.640267,0
20.5249,-9.47254,0.635238,0
20.6146,-9.45352,0.628284,0
20.7037,-9.43263,0.621429,0
20.792,-9.40985,0.614661,0
20.8797,-9.38524,0.608001,0
20.9667,-9.35883,0.601439,0
21.0529,-9.3306,0.594974,0
21.1382,-9.3006,0.588626,0
21.2228,-9.26884,0.582366,0
21.3066,-9.23534,0.576224,0
21.3894,-9.20013,0.570198,0
21.4713,-9.16321,0.564261,0
21.5523,-9.12465,0.55846,0
21.6324,-9.08444,0.552786,0
21.7115,-9.04258,0.5472,0
21.7896,-8.99913,0.541741,0
21.8666,-8.95411,0.536419,0
21.9426,-8.90751,0.531195,0
22.0171,-8.85887,0.525921,0
22.0902,-8.80814,0.52056,0
22.162,-8.75592,0.515316,0
22.2326,-8.70224,0.510189,0
22.302,-8.64712,0.505169,0
22.3701,-8.59062,0.500306,0
22.4368,-8.53269,0.49553,0
22.5022,-8.47344,0.490902,0
22.5664,-8.41286,0.4864,0
22.6291,-8.35098,0.482034,0
22.6905,-8.28782,0.477777,0
22.7504,-8.22345,0.473675,0
22.8089,-8.15781,0.469681,0
22.866,-8.09102,0.465833,0
22.9216,-8.02304,0.462122,0
22.9803,-7.95751,0.460238,0
23.0401,-7.89246,0.459349,0
23.0984,-7.82587,0.458529,0
23.1553,-7.75775,0.457767,0
23.2106,-7.68817,0.457093,0
23.2643,-7.61714,0.456448,0
23.3164,-7.54469,0.455882,0
23.3669,-7.47085,0.455384,0
23.4155,-7.39565,0.454935,0
23.4626,-7.31919,0.454583,0
23.5077,-7.24145,0.45428,0
23.5512,-7.16247,0.454046,0
23.5926,-7.0823,0.45388,0
23.6323,-7.00099,0.453782,0
23.6699,-6.91856,0.453734,0
23.7056,-6.83511,0.453773,0
23.7393,-6.75066,0.45389,0
23.771,-6.66523,0.454075,0
23.8006,-6.5789,0.45432,0
23.8281,-6.49169,0.454632,0
23.8531,-6.40363,0.454915,0
23.8718,-6.31414,0.454105,0
23.8882,-6.22417,0.453362,0
23.9024,-6.13373,0.452669,0
23.9143,-6.04292,0.452025,0
23.9239,-5.95183,0.451478,0
23.9312,-5.86047,0.45098,0
23.9362,-5.76893,0.45055,0
23.9388,-5.67724,0.450179,0
23.9391,-5.58551,0.449896,0
23.9372,-5.49375,0.449661,0
23.9349,-5.4019,0.450042,0
23.9393,-5.30925,0.452972,0
23.9416,-5.21617,0.456048,0
23.9418,-5.1228,0.45929,0
23.9398,-5.02914,0.462679,0
23.9358,-4.93522,0.466214,0
23.9296,-4.84109,0.469876,0
23.9212,-4.74685,0.473724,0
23.9107,-4.65246,0.477698,0
23.898,-4.55804,0.481829,0
23.8831,-4.46361,0.486107,0
23.8659,-4.36925,0.49054,0
23.8466,-4.27496,0.495111,0
23.8248,-4.18081,0.499808,0
23.8009,-4.08687,0.504671,0
23.7748,-3.99323,0.509671,0
23.7389,-3.90341,0.512542,0
23.6919,-3.81896,0.512728,0
23.643,-3.73565,0.51307,0
23.5925,-3.65352,0.513568,0
23.5403,-3.57257,0.514232,0
23.4863,-3.49289,0.515052,0
20.5759,-9.37807,0.633138,0
20.6632,-9.35838,0.6264,0
20.7499,-9.33684,0.619739,0
20.8359,-9.31349,0.613187,0
20.9213,-9.28834,0.606722,0
21.0059,-9.26143,0.600364,0
21.0898,-9.23275,0.594105,0
21.1729,-9.20235,0.587943,0
21.2552,-9.17023,0.581888,0
21.3365,-9.13643,0.57595,0
21.417,-9.10096,0.570111,0
21.4967,-9.06383,0.564398,0
21.5755,-9.02507,0.558773,0
21.6532,-8.9847,0.553265,0
21.7299,-8.94276,0.547884,0
21.8057,-8.89925,0.54262,0
21.8802,-8.85359,0.537249,0
21.9532,-8.806,0.531839,0
22.0251,-8.75691,0.526546,0
22.0959,-8.70637,0.52138,0
22.1654,-8.65436,0.516312,0
22.2337,-8.60095,0.51137,0
22.3008,-8.54615,0.506556,0
22.3666,-8.48998,0.501859,0
22.431,-8.43246,0.497279,0
22.4943,-8.37364,0.492825,0
22.5562,-8.31352,0.488489,0
22.6166,-8.25214,0.48428,0
22.6759,-8.18954,0.480218,0
22.7336,-8.12575,0.476282,0
22.79,-8.06077,0.472474,0
22.8449,-7.99463,0.468792,0
22.8984,-7.92736,0.465237,0
22.9516,-7.8599,0.462269,0
23.0089,-7.7953,0.461478,0
23.0647,-7.72919,0.460716,0
23.1191,-7.66164,0.460023,0
23.1718,-7.59267,0.459388,0
23.223,-7.5223,0.458821,0
23.2727,-7.45061,0.458333,0
23.3205,-7.37758,0.457884,0
23.3668,-7.30327,0.457513,0
23.4112,-7.22771,0.457191,0
23.4541,-7.15096,0.456946,0
23.495,-7.07304,0.456761,0
23.534,-6.99401,0.456654,0
23.5712,-6.91391,0.456605,0
23.6066,-6.83277,0.456644,0
23.6398,-6.75063,0.456732,0
23.6712,-6.66756,0.456888,0
23.7006,-6.58358,0.457112,0
23.728,-6.49877,0.457405,0
23.7532,-6.41316,0.457777,0
23.7721,-6.32604,0.456966,0
23.7888,-6.23847,0.456234,0
23.8034,-6.15043,0.45554,0
23.8155,-6.062,0.454905,0
23.8255,-5.97325,0.454329,0
23.8334,-5.88428,0.453841,0
23.8389,-5.79506,0.453392,0
23.8423,-5.70572,0.453021,0
23.8432,-5.61629,0.452708,0
23.842,-5.52683,0.452454,0
23.847,-5.43689,0.454661,0
23.8516,-5.34645,0.457493,0
23.8542,-5.25564,0.460472,0
23.8548,-5.16452,0.463607,0
23.8534,-5.07312,0.466888,0
23.8498,-4.98147,0.470316,0
23.8441,-4.88963,0.47388,0
23.8363,-4.79764,0.477591,0
23.8265,-4.70556,0.481458,0
23.8145,-4.6134,0.485462,0
23.8003,-4.52125,0.489612,0
23.784,-4.42912,0.49388,0
23.7654,-4.33712,0.498323,0
23.7447,-4.24525,0.502894,0
23.7218,-4.15359,0.50762,0
23.6966,-4.06217,0.512454,0
23.6692,-3.97105,0.517445,0
23.6291,-3.8856,0.519222,0
23.582,-3.80369,0.519495,0
23.5331,-3.72293,0.519935,0
23.4826,-3.64332,0.520521,0
23.4304,-3.56494,0.521263,0
20.3677,-9.40011,0.643587,0
20.4577,-9.39944,0.641605,0
20.5461,-9.38434,0.635452,0
20.6336,-9.36526,0.628685,0
20.7205,-9.34437,0.621995,0
20.8069,-9.32161,0.615404,0
20.8924,-9.29708,0.608909,0
20.9773,-9.27076,0.602513,0
21.0614,-9.24269,0.596214,0
21.1448,-9.21287,0.590023,0
21.2273,-9.18134,0.583939,0
21.309,-9.14812,0.577962,0
21.3898,-9.11318,0.572083,0
21.4698,-9.07664,0.566331,0
21.5488,-9.03841,0.560657,0
21.6269,-8.99859,0.55513,0
21.704,-8.95721,0.54972,0
21.7802,-8.91421,0.544398,0
21.855,-8.86939,0.539105,0
21.9284,-8.82231,0.533665,0
22.0008,-8.77374,0.528333,0
22.072,-8.7237,0.523128,0
22.1418,-8.67218,0.518011,0
22.2106,-8.61925,0.51304,0
22.278,-8.56492,0.508187,0
22.3444,-8.5092,0.503431,0
22.4093,-8.45214,0.498812,0
22.473,-8.39375,0.49431,0
22.5353,-8.33409,0.489954,0
22.5963,-8.27314,0.485716,0
22.6559,-8.21096,0.481595,0
22.7141,-8.14756,0.477611,0
22.771,-8.08297,0.473753,0
22.8264,-8.01721,0.470023,0
22.8804,-7.95034,0.466439,0
22.9329,-7.88235,0.462982,0
22.9896,-7.81741,0.461732,0
23.0459,-7.75183,0.46097,0
23.1007,-7.68473,0.460238,0
23.1541,-7.61625,0.459593,0
23.2059,-7.54637,0.459017,0
23.2559,-7.47511,0.458489,0
23.3045,-7.40253,0.45803,0
23.3512,-7.32863,0.457611,0
23.3963,-7.25351,0.457288,0
23.4397,-7.17717,0.457034,0
23.4812,-7.09964,0.45682,0
23.521,-7.02098,0.456683,0
23.5588,-6.94125,0.456634,0
23.5947,-6.86043,0.456614,0
23.6288,-6.77862,0.456683,0
23.6609,-6.69587,0.45682,0
23.6909,-6.6122,0.457025,0
23.7189,-6.52766,0.457288,0
23.7448,-6.44231,0.45764,0
23.766,-6.35571,0.457249,0
23.7834,-6.26827,0.456478,0
23.7987,-6.18036,0.455755,0
23.8116,-6.09207,0.455111,0
23.8224,-6.00344,0.454525,0
23.831,-5.91451,0.453997,0
23.8373,-5.82538,0.453538,0
23.8413,-5.73608,0.453148,0
23.8431,-5.64666,0.452806,0
23.8427,-5.55723,0.452542,0
23.8448,-5.4675,0.453724,0
23.8502,-5.37721,0.456507,0
23.8535,-5.28651,0.459437,0
23.8548,-5.19551,0.462523,0
23.8541,-5.10418,0.465755,0
23.8512,-5.01262,0.469124,0
23.8463,-4.92084,0.47265,0
23.8392,-4.8289,0.476321,0
23.8301,-4.73686,0.48014,0
23.8188,-4.64469,0.484075,0
23.8054,-4.55255,0.488187,0
23.7898,-4.46042,0.492425,0
23.772,-4.36835,0.4968,0
23.752,-4.27645,0.501331,0
23.7298,-4.1847,0.505999,0
23.7054,-4.09318,0.510794,0
23.6787,-4.00196,0.515736,0
23.6447,-3.91365,0.519163,0
23.5982,-3.83138,0.519378,0
23.5499,-3.75022,0.519769,0
23.4999,-3.67024,0.520306,0
23.4483,-3.59142,0.52098,0
23.395,-3.51382,0.521829,0
20.3373,-9.39987,0.644261,0
20.4271,-9.39989,0.642278,0
20.5162,-9.39038,0.637777,0
20.604,-9.37193,0.63096,0
20.6911,-9.35166,0.624251,0
20.7776,-9.32954,0.61763,0
20.8634,-9.30562,0.611107,0
20.9485,-9.27991,0.604681,0
21.0329,-9.25242,0.598353,0
21.1165,-9.22319,0.592112,0
21.1994,-9.19224,0.585989,0
21.2813,-9.15958,0.579974,0
21.3624,-9.12524,0.574075,0
21.4427,-9.08922,0.568265,0
21.5221,-9.05157,0.562571,0
21.6005,-9.0123,0.557005,0
21.6779,-8.97143,0.551536,0
21.7544,-8.92898,0.546194,0
21.8298,-8.88497,0.54096,0
21.9037,-8.83848,0.535501,0
21.9763,-8.79041,0.53013,0
22.0479,-8.74087,0.524886,0
22.1182,-8.68983,0.519739,0
22.1873,-8.63738,0.51471,0
22.2553,-8.58352,0.509808,0
22.322,-8.52827,0.505032,0
22.3874,-8.47166,0.500355,0
22.4515,-8.41373,0.495833,0
22.5143,-8.35449,0.491419,0
22.5757,-8.29396,0.487132,0
22.6359,-8.23222,0.482982,0
22.6945,-8.16923,0.478948,0
22.7519,-8.10503,0.475042,0
22.8078,-8.03966,0.471263,0
22.8623,-7.97317,0.46764,0
22.9152,-7.90556,0.464134,0
22.9702,-7.83936,0.462015,0
23.027,-7.77427,0.461234,0
23.0823,-7.70769,0.460491,0
23.1362,-7.63968,0.459818,0
23.1884,-7.57024,0.459202,0
23.2391,-7.49946,0.458655,0
23.2881,-7.42732,0.458177,0
23.3355,-7.35388,0.457757,0
23.3813,-7.27917,0.457405,0
23.4252,-7.20324,0.457112,0
23.4673,-7.12611,0.456888,0
23.5077,-7.04782,0.456722,0
23.5462,-6.96845,0.456644,0
23.5827,-6.888,0.456614,0
23.6174,-6.80652,0.456654,0
23.6502,-6.72409,0.456771,0
23.6809,-6.64071,0.456946,0
23.7096,-6.55646,0.457191,0
23.7363,-6.47138,0.457503,0
23.7595,-6.38529,0.457523,0
23.7778,-6.29802,0.456732,0
23.7937,-6.21026,0.455989,0
23.8075,-6.1221,0.455325,0
23.819,-6.03357,0.45472,0
23.8284,-5.94476,0.454173,0
23.8354,-5.85567,0.453685,0
23.8402,-5.76642,0.453265,0
23.8427,-5.67704,0.452913,0
23.843,-5.5876,0.45263,0
23.8427,-5.49808,0.452825,0
23.8487,-5.40792,0.45555,0
23.8527,-5.31736,0.458431,0
23.8546,-5.22645,0.461458,0
23.8545,-5.13523,0.464652,0
23.8524,-5.04373,0.467962,0
23.8482,-4.95203,0.471448,0
23.8419,-4.86014,0.475052,0
23.8334,-4.76812,0.478821,0
23.8229,-4.67601,0.482737,0
23.8102,-4.58384,0.486771,0
23.7952,-4.49169,0.49096,0
23.7782,-4.39961,0.495286,0
23.759,-4.30764,0.499769,0
23.7376,-4.21584,0.504398,0
23.7139,-4.12423,0.509144,0
23.688,-4.03291,0.514036,0
23.6599,-3.94191,0.519075,0
23.6141,-3.8592,0.51929,0
23.5665,-3.77767,0.519622,0
23.5171,-3.69727,0.520101,0
23.466,-3.61806,0.520736,0
23.4133,-3.54003,0.521517,0
20.5662,-9.29937,0.635677,0
20.6517,-9.28026,0.629075,0
20.7366,-9.25934,0.622552,0
20.8209,-9.23664,0.616136,0
20.9045,-9.21216,0.609798,0
20.9873,-9.18595,0.603568,0
21.0695,-9.158,0.597425,0
21.1508,-9.12837,0.591409,0
21.2314,-9.09703,0.585462,0
21.3111,-9.06405,0.579642,0
21.3901,-9.02941,0.573919,0
21.468,-8.99316,0.568314,0
21.5452,-8.95531,0.562806,0
21.6214,-8.91587,0.557415,0
21.6965,-8.8747,0.552064,0
21.7702,-8.83122,0.546556,0
21.8429,-8.78625,0.541165,0
21.9145,-8.73977,0.535872,0
21.9848,-8.6918,0.530677,0
22.0541,-8.64238,0.525609,0
22.1223,-8.59157,0.520657,0
22.1891,-8.53934,0.515804,0
22.2549,-8.48575,0.511077,0
22.3194,-8.43082,0.506487,0
22.3827,-8.37457,0.501995,0
22.4445,-8.31703,0.49763,0
22.5052,-8.25823,0.493402,0
22.5645,-8.19818,0.48928,0
22.6225,-8.13691,0.485286,0
22.6791,-8.07447,0.481419,0
22.7343,-8.01087,0.477679,0
22.788,-7.94613,0.474075,0
22.8405,-7.88029,0.470599,0
22.8914,-7.8134,0.467259,0
22.9409,-7.74543,0.464046,0
22.9952,-7.68077,0.463314,0
23.0482,-7.61472,0.46264,0
23.0996,-7.54728,0.462025,0
23.1495,-7.47849,0.461468,0
23.1977,-7.40841,0.460989,0
23.2444,-7.33704,0.46057,0
23.2894,-7.26442,0.460208,0
23.3327,-7.19059,0.459896,0
23.3742,-7.1156,0.459661,0
23.414,-7.03948,0.459495,0
23.452,-6.96229,0.459388,0
23.4882,-6.88402,0.459339,0
23.5225,-6.80478,0.459378,0
23.5549,-6.72459,0.459476,0
23.5854,-6.64347,0.459642,0
23.6139,-6.56148,0.459857,0
23.6404,-6.47868,0.46015,0
23.6641,-6.39496,0.460277,0
23.6824,-6.30997,0.459476,0
23.6987,-6.22451,0.458743,0
23.7127,-6.13863,0.458079,0
23.7246,-6.05238,0.457464,0
23.7345,-5.96581,0.456917,0
23.742,-5.87898,0.456419,0
23.7473,-5.79198,0.455999,0
23.7505,-5.70482,0.455628,0
23.7515,-5.61761,0.455335,0
23.758,-5.53002,0.457327,0
23.7642,-5.44202,0.459974,0
23.7685,-5.3536,0.462757,0
23.7709,-5.26485,0.465696,0
23.7712,-5.17579,0.468763,0
23.7695,-5.08645,0.471976,0
23.7658,-4.99693,0.475355,0
23.76,-4.90721,0.478861,0
23.7521,-4.81736,0.482513,0
23.7423,-4.72742,0.486292,0
23.7302,-4.63743,0.490218,0
23.7161,-4.54748,0.49429,0
23.6998,-4.45755,0.498489,0
23.6814,-4.36774,0.502835,0
23.6609,-4.27809,0.507308,0
23.6382,-4.18866,0.511937,0
23.6134,-4.09948,0.516683,0
23.5864,-4.01062,0.521566,0
23.554,-3.92372,0.525521,0
23.508,-3.84356,0.525804,0
23.4602,-3.76449,0.526224,0
23.4109,-3.68654,0.52678,0
23.3598,-3.60978,0.527493,0
20.3624,-9.31971,0.645482,0
20.4503,-9.31894,0.643558,0
20.537,-9.30548,0.637952,0
20.6227,-9.28696,0.631312,0
20.7079,-9.26665,0.624759,0
20.7923,-9.24455,0.618304,0
20.8762,-9.22067,0.611946,0
20.9592,-9.19504,0.605667,0
21.0416,-9.16769,0.599505,0
21.1233,-9.13862,0.593431,0
21.2041,-9.10787,0.587474,0
21.2841,-9.07543,0.581605,0
21.3634,-9.04137,0.575853,0
21.4416,-9.00566,0.570208,0
21.5191,-8.96834,0.564661,0
21.5955,-8.92944,0.559241,0
21.6711,-8.88897,0.553929,0
21.7453,-8.84617,0.548421,0
21.8183,-8.8017,0.542982,0
21.8902,-8.75571,0.53765,0
21.9611,-8.70825,0.532435,0
22.0308,-8.65933,0.527318,0
22.0993,-8.60899,0.522327,0
22.1666,-8.55722,0.517425,0
22.2327,-8.5041,0.512669,0
22.2977,-8.44963,0.50803,0
22.3613,-8.39382,0.503509,0
22.4237,-8.33671,0.499095,0
22.4848,-8.27832,0.494808,0
22.5445,-8.2187,0.490657,0
22.603,-8.15787,0.486634,0
22.6599,-8.09581,0.482708,0
22.7157,-8.0326,0.478929,0
22.7699,-7.96826,0.475286,0
22.8228,-7.90279,0.471771,0
22.8743,-7.83624,0.468372,0
22.9243,-7.76861,0.465111,0
22.977,-7.70289,0.463548,0
23.0304,-7.63729,0.462855,0
23.0823,-7.57034,0.46223,0
23.1327,-7.502,0.461654,0
23.1815,-7.43233,0.461136,0
23.2287,-7.36142,0.460706,0
23.2743,-7.28921,0.460316,0
23.3181,-7.21581,0.460003,0
23.3603,-7.14119,0.459739,0
23.4007,-7.06547,0.459554,0
23.4393,-6.98861,0.459407,0
23.4761,-6.91074,0.459368,0
23.511,-6.83182,0.459359,0
23.5441,-6.75193,0.459437,0
23.5752,-6.67111,0.459564,0
23.6044,-6.58942,0.459779,0
23.6316,-6.50688,0.460042,0
23.6568,-6.42357,0.460374,0
23.6765,-6.33889,0.45973,0
23.6934,-6.25358,0.458988,0
23.7082,-6.16784,0.458294,0
23.7209,-6.0817,0.457659,0
23.7313,-5.99524,0.457093,0
23.7396,-5.90853,0.456595,0
23.7457,-5.82155,0.456136,0
23.7497,-5.73442,0.455736,0
23.7514,-5.64724,0.455423,0
23.7554,-5.55982,0.456458,0
23.7623,-5.47195,0.459056,0
23.7673,-5.38368,0.4618,0
23.7703,-5.29503,0.464681,0
23.7713,-5.20606,0.467698,0
23.7703,-5.11685,0.470882,0
23.7672,-5.02735,0.474193,0
23.7622,-4.93769,0.47765,0
23.755,-4.84787,0.481243,0
23.7458,-4.75797,0.484984,0
23.7345,-4.66798,0.488851,0
23.7212,-4.57802,0.492894,0
23.7056,-4.48809,0.497044,0
23.6879,-4.39823,0.501341,0
23.6681,-4.30854,0.505784,0
23.6462,-4.21901,0.510355,0
23.6221,-4.12975,0.515062,0
23.5959,-4.04075,0.519896,0
23.5673,-3.95213,0.524866,0
23.5238,-3.87067,0.525696,0
23.4766,-3.7912,0.526048,0
23.4278,-3.71288,0.526575,0
23.3773,-3.63571,0.52723,0
23.3252,-3.55976,0.528069,0
20.3326,-9.31953,0.646146,0
20.4205,-9.3194,0.644202,0
20.5077,-9.31134,0.640218,0
20.5937,-9.29345,0.633548,0
20.679,-9.27375,0.626976,0
20.7637,-9.25225,0.620482,0
20.8477,-9.22896,0.614085,0
20.9311,-9.20394,0.607786,0
21.0138,-9.17717,0.601585,0
21.0956,-9.14869,0.595491,0
21.1767,-9.1185,0.589486,0
21.257,-9.08664,0.583587,0
21.3365,-9.05312,0.577806,0
21.4152,-9.01797,0.572113,0
21.4929,-8.9812,0.566536,0
21.5697,-8.94283,0.561058,0
21.6455,-8.90291,0.555716,0
21.7202,-8.86094,0.550296,0
21.7937,-8.81697,0.544818,0
21.8659,-8.77151,0.539456,0
21.9371,-8.72454,0.534193,0
22.0073,-8.6761,0.529036,0
22.0762,-8.62625,0.524017,0
22.1438,-8.57496,0.519085,0
22.2105,-8.52229,0.51428,0
22.2757,-8.46826,0.509583,0
22.3398,-8.41292,0.505023,0
22.4027,-8.35624,0.50057,0
22.4641,-8.29828,0.496243,0
22.5244,-8.23908,0.492044,0
22.5832,-8.17866,0.487982,0
22.6407,-8.117,0.484017,0
22.6969,-8.0542,0.480198,0
22.7517,-7.99023,0.476517,0
22.805,-7.92515,0.472952,0
22.857,-7.85897,0.469515,0
22.9075,-7.79171,0.466214,0
22.9584,-7.72484,0.463802,0
23.0123,-7.65973,0.463079,0
23.0648,-7.59322,0.462425,0
23.1157,-7.52536,0.461839,0
23.1651,-7.45614,0.461302,0
23.2128,-7.38565,0.460843,0
23.259,-7.31388,0.460433,0
23.3034,-7.24086,0.460091,0
23.3462,-7.16666,0.459818,0
23.3872,-7.09132,0.459612,0
23.4264,-7.01484,0.459456,0
23.4638,-6.9373,0.459378,0
23.4995,-6.85873,0.459359,0
23.533,-6.77917,0.459407,0
23.5648,-6.69866,0.459515,0
23.5947,-6.61727,0.459691,0
23.6225,-6.535,0.459935,0
23.6484,-6.45195,0.460257,0
23.6702,-6.36776,0.460013,0
23.6878,-6.28261,0.459232,0
23.7034,-6.19702,0.458529,0
23.7168,-6.111,0.457864,0
23.728,-6.02463,0.457279,0
23.737,-5.938,0.456761,0
23.7439,-5.85109,0.456273,0
23.7486,-5.76404,0.455872,0
23.751,-5.67686,0.45553,0
23.7526,-5.58956,0.455599,0
23.7602,-5.50185,0.458167,0
23.7658,-5.4137,0.460853,0
23.7695,-5.32518,0.463685,0
23.7712,-5.23632,0.466663,0
23.7709,-5.14717,0.469788,0
23.7685,-5.05775,0.47304,0
23.7641,-4.96817,0.476468,0
23.7577,-4.87841,0.480013,0
23.7492,-4.78851,0.483695,0
23.7386,-4.69856,0.487542,0
23.7259,-4.60857,0.491517,0
23.7111,-4.51861,0.495609,0
23.6941,-4.42874,0.499866,0
23.6751,-4.33897,0.504251,0
23.6539,-4.24937,0.508773,0
23.6305,-4.16003,0.51345,0
23.605,-4.07095,0.518236,0
23.5773,-3.9822,0.523167,0
23.5395,-3.8979,0.525599,0
23.4929,-3.81808,0.525911,0
23.4446,-3.73936,0.52638,0
23.3946,-3.6618,0.526995,0
23.3431,-3.58542,0.527767,0
20.5569,-9.22362,0.638128,0
20.6406,-9.20505,0.631653,0
20.7237,-9.1847,0.625267,0
20.8062,-9.1626,0.618968,0
20.8881,-9.13877,0.612757,0
20.9694,-9.11321,0.606654,0
21.0498,-9.08599,0.600648,0
21.1295,-9.05706,0.59472,0
21.2085,-9.02649,0.588909,0
21.2866,-8.9943,0.583206,0
21.364,-8.96047,0.577601,0
21.4404,-8.92506,0.572093,0
21.5159,-8.88806,0.566693,0
21.5903,-8.84877,0.561126,0
21.6636,-8.80783,0.555628,0
21.7358,-8.76535,0.550228,0
21.807,-8.7214,0.544935,0
21.8771,-8.67595,0.53973,0
21.9461,-8.62908,0.534661,0
22.0141,-8.58077,0.529691,0
22.0808,-8.53104,0.524818,0
22.1463,-8.47998,0.520081,0
22.2108,-8.42756,0.515443,0
22.274,-8.37382,0.510931,0
22.3359,-8.31877,0.506536,0
22.3966,-8.26247,0.502259,0
22.4561,-8.2049,0.498099,0
22.5142,-8.14616,0.494075,0
22.571,-8.08616,0.49014,0
22.6265,-8.02506,0.48637,0
22.6805,-7.9628,0.482708,0
22.7333,-7.89942,0.479173,0
22.7847,-7.83495,0.475765,0
22.8346,-7.76941,0.472484,0
22.883,-7.70287,0.469339,0
22.9301,-7.63531,0.466331,0
22.9802,-7.56972,0.46513,0
23.0303,-7.50377,0.464544,0
23.0789,-7.4365,0.464007,0
23.1259,-7.36796,0.463538,0
23.1713,-7.29818,0.463128,0
23.2152,-7.2272,0.462786,0
23.2573,-7.15503,0.462503,0
23.2978,-7.08174,0.462279,0
23.3365,-7.00735,0.462112,0
23.3735,-6.9319,0.462015,0
23.4087,-6.85544,0.461986,0
23.442,-6.77801,0.462015,0
23.4735,-6.69965,0.462103,0
23.5031,-6.6204,0.462259,0
23.5308,-6.54032,0.462484,0
23.5566,-6.45944,0.462767,0
23.5787,-6.37753,0.46264,0
23.5966,-6.29458,0.461878,0
23.6123,-6.21116,0.461155,0
23.6261,-6.12733,0.460501,0
23.6377,-6.04316,0.459915,0
23.6471,-5.95868,0.459378,0
23.6545,-5.87394,0.45889,0
23.6597,-5.78903,0.45848,0
23.6627,-5.70397,0.458118,0
23.671,-5.61872,0.460013,0
23.6787,-5.53304,0.462484,0
23.6848,-5.44694,0.465081,0
23.6887,-5.3605,0.467825,0
23.6908,-5.27368,0.470696,0
23.6909,-5.18663,0.473734,0
23.689,-5.09931,0.476898,0
23.6851,-5.01177,0.480189,0
23.6791,-4.92409,0.483646,0
23.6712,-4.83629,0.48722,0
23.6613,-4.74842,0.490941,0
23.6493,-4.66052,0.494788,0
23.6353,-4.57264,0.498782,0
23.6191,-4.48483,0.502904,0
23.6009,-4.39714,0.507161,0
23.5806,-4.3096,0.511546,0
23.5581,-4.22231,0.516087,0
23.5337,-4.13526,0.520736,0
23.507,-4.04856,0.52553,0
23.4782,-3.9622,0.530423,0
23.4367,-3.88194,0.531868,0
23.3901,-3.80449,0.532269,0
23.3418,-3.72815,0.532816,0
23.2919,-3.65297,0.533519,0
20.3572,-9.24233,0.647308,0
20.4433,-9.24144,0.645423,0
20.5283,-9.22951,0.640345,0
20.6122,-9.21155,0.633841,0
20.6955,-9.19181,0.627425,0
20.7784,-9.1703,0.621097,0
20.8605,-9.14705,0.614857,0
20.9419,-9.12209,0.608724,0
21.0226,-9.09541,0.602669,0
21.1026,-9.06707,0.596722,0
21.1818,-9.03707,0.590882,0
21.2602,-9.00541,0.58512,0
21.3378,-8.97215,0.579495,0
21.4145,-8.93726,0.573948,0
21.4904,-8.90081,0.568519,0
21.5652,-8.86234,0.56303,0
21.6388,-8.82191,0.557484,0
21.7114,-8.77996,0.552054,0
21.783,-8.73648,0.546712,0
21.8534,-8.69156,0.541497,0
21.9228,-8.64516,0.53637,0
21.9911,-8.59733,0.53137,0
22.0582,-8.54811,0.526468,0
22.1243,-8.49748,0.521673,0
22.1891,-8.44552,0.517005,0
22.2527,-8.39221,0.512454,0
22.315,-8.33763,0.508021,0
22.3762,-8.28173,0.503695,0
22.436,-8.2246,0.499495,0
22.4946,-8.16625,0.495423,0
22.5518,-8.10668,0.491468,0
22.6078,-8.04595,0.48763,0
22.6623,-7.98406,0.483929,0
22.7155,-7.92105,0.480355,0
22.7674,-7.85696,0.476898,0
22.8177,-7.79179,0.473587,0
22.8668,-7.72559,0.470394,0
22.9143,-7.65837,0.467337,0
22.9629,-7.59184,0.465355,0
23.0135,-7.52632,0.464739,0
23.0626,-7.45949,0.464183,0
23.1102,-7.39138,0.463695,0
23.1562,-7.32201,0.463265,0
23.2005,-7.25144,0.462894,0
23.2432,-7.17969,0.462601,0
23.2842,-7.10676,0.462347,0
23.3236,-7.03272,0.462161,0
23.3612,-6.95765,0.462044,0
23.3969,-6.88152,0.461986,0
23.4309,-6.80441,0.461986,0
23.463,-6.72637,0.462064,0
23.4932,-6.64741,0.4622,0
23.5216,-6.56761,0.462396,0
23.548,-6.48702,0.462679,0
23.5722,-6.4056,0.462923,0
23.5907,-6.3228,0.462122,0
23.6073,-6.23954,0.46139,0
23.6216,-6.15585,0.460716,0
23.634,-6.07179,0.460101,0
23.6441,-5.98738,0.459544,0
23.6523,-5.90273,0.459036,0
23.6581,-5.81789,0.458616,0
23.662,-5.73286,0.458226,0
23.6679,-5.64771,0.459202,0
23.6764,-5.56219,0.461634,0
23.683,-5.47623,0.464173,0
23.6875,-5.3899,0.466878,0
23.6902,-5.3032,0.46971,0
23.691,-5.21623,0.472689,0
23.6898,-5.12898,0.475794,0
23.6866,-5.04151,0.479046,0
23.6814,-4.95389,0.482454,0
23.6742,-4.86611,0.48598,0
23.6649,-4.77825,0.489642,0
23.6536,-4.69035,0.49345,0
23.6402,-4.60248,0.497415,0
23.6248,-4.51463,0.501478,0
23.6073,-4.42688,0.505687,0
23.5877,-4.33932,0.510042,0
23.566,-4.25194,0.514534,0
23.5423,-4.1648,0.519144,0
23.5163,-4.07798,0.52389,0
23.4883,-3.99148,0.528753,0
23.4522,-3.90849,0.531761,0
23.4061,-3.83067,0.532122,0
23.3584,-3.75395,0.532611,0
23.309,-3.67838,0.533265,0
23.256,-3.60521,0.533363,0
20.328,-9.24221,0.647962,0
20.4141,-9.24195,0.646058,0
20.4996,-9.23521,0.642581,0
20.5837,-9.21786,0.636048,0
20.6673,-9.19872,0.629593,0
20.7503,-9.1778,0.623236,0
20.8327,-9.15515,0.616976,0
20.9143,-9.13076,0.610794,0
20.9953,-9.10467,0.60471,0
21.0755,-9.0769,0.598743,0
21.155,-9.04745,0.592855,0
21.2337,-9.01635,0.587073,0
21.3116,-8.98361,0.58139,0
21.3885,-8.94928,0.575814,0
21.4648,-8.91336,0.570345,0
21.5399,-8.87573,0.564935,0
21.6139,-8.83582,0.559368,0
21.6868,-8.79437,0.55388,0
21.7587,-8.75142,0.548519,0
21.8296,-8.70699,0.543265,0
21.8994,-8.66107,0.538099,0
21.968,-8.61374,0.53306,0
22.0356,-8.56497,0.528109,0
22.102,-8.51482,0.523284,0
22.1672,-8.46331,0.518577,0
22.2312,-8.41046,0.513978,0
22.294,-8.35631,0.509515,0
22.3555,-8.30085,0.50515,0
22.4158,-8.24414,0.500911,0
22.4748,-8.18619,0.49679,0
22.5325,-8.12705,0.492806,0
22.5889,-8.06672,0.488929,0
22.644,-8.00521,0.485179,0
22.6977,-7.94258,0.481556,0
22.7499,-7.87886,0.47807,0
22.8008,-7.81405,0.4747,0
22.8502,-7.74819,0.471458,0
22.8983,-7.68131,0.468362,0
22.9454,-7.61376,0.46557,0
22.9965,-7.54871,0.464935,0
23.0461,-7.48234,0.464378,0
23.0941,-7.41466,0.463851,0
23.1407,-7.34572,0.463402,0
23.1856,-7.27555,0.463011,0
23.2289,-7.20417,0.462689,0
23.2705,-7.13164,0.462415,0
23.3104,-7.058,0.46222,0
23.3485,-6.98324,0.462064,0
23.385,-6.90748,0.461995,0
23.4196,-6.83071,0.461986,0
23.4523,-6.75297,0.462025,0
23.4832,-6.67436,0.462161,0
23.5122,-6.59482,0.462337,0
23.5392,-6.51447,0.462571,0
23.5644,-6.43336,0.462884,0
23.5847,-6.35098,0.462386,0
23.6019,-6.26787,0.461634,0
23.617,-6.18432,0.460931,0
23.63,-6.10036,0.460296,0
23.6409,-6.01608,0.45973,0
23.6498,-5.93151,0.459212,0
23.6564,-5.84672,0.458753,0
23.6609,-5.76176,0.458353,0
23.6646,-5.67667,0.458421,0
23.6737,-5.59128,0.460784,0
23.6809,-5.50545,0.463294,0
23.6862,-5.41927,0.46596,0
23.6895,-5.33271,0.468743,0
23.691,-5.24582,0.471673,0
23.6905,-5.15864,0.47473,0
23.6879,-5.07124,0.477933,0
23.6834,-4.98366,0.481282,0
23.6768,-4.89595,0.484778,0
23.6683,-4.80811,0.488392,0
23.6577,-4.7202,0.492142,0
23.645,-4.63231,0.496048,0
23.6303,-4.54446,0.500081,0
23.6135,-4.4567,0.504261,0
23.5946,-4.36904,0.508558,0
23.5736,-4.28158,0.512991,0
23.5505,-4.19435,0.517562,0
23.5254,-4.1074,0.522249,0
23.498,-4.02083,0.527093,0
23.4674,-3.93516,0.531663,0
23.4219,-3.85698,0.531986,0
23.3747,-3.77989,0.532435,0
23.3259,-3.70391,0.533021,0
23.2755,-3.62911,0.533773,0
20.5479,-9.15058,0.640472,0
20.6299,-9.13253,0.634134,0
20.7114,-9.11274,0.627884,0
20.7923,-9.09124,0.621712,0
20.8724,-9.06799,0.615609,0
20.9521,-9.0431,0.609622,0
21.0309,-9.01653,0.603734,0
21.1091,-8.98831,0.597943,0
21.1864,-8.95847,0.59223,0
21.263,-8.927,0.586624,0
21.3387,-8.89397,0.581136,0
21.4136,-8.85883,0.57553,0
21.4873,-8.82188,0.569945,0
21.56,-8.78339,0.564446,0
21.6319,-8.74338,0.559066,0
21.7027,-8.70187,0.553753,0
21.7724,-8.65888,0.548568,0
21.8412,-8.61446,0.54348,0
21.9087,-8.5686,0.538489,0
21.9754,-8.52136,0.533626,0
22.0408,-8.47273,0.528861,0
22.1051,-8.42275,0.524202,0
22.1682,-8.37144,0.519652,0
22.2302,-8.31885,0.515228,0
22.2909,-8.26499,0.510921,0
22.3505,-8.20985,0.506722,0
22.4087,-8.15353,0.50265,0
22.4656,-8.09598,0.498695,0
22.5214,-8.03727,0.494857,0
22.5757,-7.97739,0.491136,0
22.6287,-7.91643,0.487552,0
22.6805,-7.85435,0.484085,0
22.7309,-7.79119,0.480736,0
22.7798,-7.72701,0.477532,0
22.8273,-7.66182,0.474446,0
22.8734,-7.59563,0.471497,0
22.918,-7.5285,0.468675,0
22.9639,-7.46205,0.466976,0
23.0112,-7.39622,0.466448,0
23.057,-7.32918,0.465989,0
23.1013,-7.26093,0.465599,0
23.144,-7.19148,0.465257,0
23.1851,-7.12092,0.464984,0
23.2245,-7.04925,0.464769,0
23.2622,-6.97651,0.464612,0
23.2982,-6.90275,0.464525,0
23.3324,-6.82802,0.464505,0
23.3648,-6.75233,0.464525,0
23.3955,-6.67574,0.464622,0
23.4242,-6.59831,0.464788,0
23.4512,-6.52006,0.465013,0
23.4762,-6.44104,0.465306,0
23.497,-6.36082,0.464905,0
23.5144,-6.27984,0.464173,0
23.5297,-6.19838,0.46348,0
23.543,-6.11653,0.462835,0
23.5544,-6.03432,0.462249,0
23.5636,-5.95184,0.461722,0
23.5707,-5.8691,0.461263,0
23.5758,-5.78619,0.460853,0
23.5859,-5.70321,0.462728,0
23.5952,-5.61978,0.465003,0
23.6027,-5.53592,0.467425,0
23.6082,-5.4517,0.470003,0
23.6119,-5.36711,0.472698,0
23.6137,-5.2822,0.475521,0
23.6136,-5.19704,0.478499,0
23.6116,-5.11164,0.481614,0
23.6074,-5.02606,0.484866,0
23.6015,-4.94031,0.488226,0
23.5935,-4.85448,0.491741,0
23.5836,-4.76857,0.495384,0
23.5716,-4.6827,0.499183,0
23.5577,-4.59682,0.503089,0
23.5416,-4.51103,0.507142,0
23.5235,-4.42536,0.511312,0
23.5034,-4.33986,0.515618,0
23.4812,-4.25461,0.520062,0
23.457,-4.16963,0.524622,0
23.4307,-4.08497,0.52932,0
23.4023,-4.00069,0.534134,0
23.368,-3.91891,0.537708,0
23.3224,-3.84304,0.538099,0
23.2752,-3.76824,0.538636,0
23.2263,-3.69458,0.53932,0
20.3522,-9.16782,0.649075,0
20.4365,-9.16683,0.64723,0
20.5198,-9.15632,0.64265,0
20.6021,-9.13886,0.636273,0
20.6838,-9.11967,0.629993,0
20.7648,-9.09873,0.623792,0
20.8453,-9.07607,0.617669,0
20.9251,-9.05175,0.611654,0
21.0041,-9.02576,0.605736,0
21.0826,-8.99807,0.599876,0
21.1602,-8.96878,0.594154,0
21.2371,-8.93787,0.588519,0
21.3131,-8.90537,0.582982,0
21.3883,-8.87105,0.577464,0
21.4623,-8.83462,0.571839,0
21.5354,-8.79664,0.566312,0
21.6076,-8.75714,0.560882,0
21.6787,-8.71614,0.55556,0
21.7487,-8.67363,0.550316,0
21.8179,-8.62971,0.545198,0
21.8859,-8.58435,0.540189,0
21.9529,-8.53756,0.535267,0
22.0187,-8.48938,0.530452,0
22.0834,-8.43987,0.525765,0
22.1469,-8.38902,0.521185,0
22.2092,-8.33685,0.516722,0
22.2705,-8.28343,0.512376,0
22.3303,-8.22872,0.508138,0
22.3891,-8.17278,0.504017,0
22.4464,-8.11564,0.500013,0
22.5026,-8.05733,0.496146,0
22.5574,-7.99784,0.492376,0
22.6109,-7.93725,0.488753,0
22.663,-7.87554,0.485247,0
22.7138,-7.81277,0.481868,0
22.7633,-7.74893,0.478607,0
22.8112,-7.68406,0.475472,0
22.8579,-7.61821,0.472474,0
22.903,-7.55142,0.469632,0
22.9474,-7.48409,0.467152,0
22.9953,-7.41871,0.466614,0
23.0417,-7.35209,0.466146,0
23.0865,-7.28425,0.465736,0
23.1298,-7.2152,0.465364,0
23.1713,-7.145,0.465062,0
23.2113,-7.07371,0.464827,0
23.2495,-7.00133,0.464661,0
23.2861,-6.92793,0.464554,0
23.3209,-6.85352,0.464505,0
23.3541,-6.77813,0.464505,0
23.3852,-6.70186,0.464583,0
23.4147,-6.62471,0.46472,0
23.4423,-6.54672,0.464925,0
23.4679,-6.46796,0.465198,0
23.4906,-6.38823,0.465179,0
23.5087,-6.3074,0.464417,0
23.5248,-6.22609,0.463695,0
23.5387,-6.14437,0.46304,0
23.5508,-6.06228,0.462435,0
23.5607,-5.97987,0.461898,0
23.5685,-5.89724,0.461419,0
23.5743,-5.81437,0.460989,0
23.5823,-5.73145,0.461986,0
23.5923,-5.64817,0.464222,0
23.6004,-5.56445,0.466595,0
23.6066,-5.48033,0.469105,0
23.6109,-5.39588,0.471771,0
23.6134,-5.31107,0.474554,0
23.6139,-5.22598,0.477464,0
23.6124,-5.14065,0.48053,0
23.6091,-5.05513,0.483734,0
23.6038,-4.96944,0.487064,0
23.5965,-4.88365,0.49054,0
23.5872,-4.79776,0.494134,0
23.5759,-4.71186,0.497884,0
23.5626,-4.62599,0.501751,0
23.5472,-4.54016,0.505755,0
23.5298,-4.45442,0.509886,0
23.5105,-4.36889,0.514153,0
23.489,-4.28355,0.518538,0
23.4655,-4.19847,0.52307,0
23.4399,-4.11368,0.527708,0
23.4123,-4.02927,0.532484,0
23.3826,-3.94527,0.537386,0
23.3381,-3.86868,0.537952,0
23.2914,-3.79353,0.53845,0
23.2431,-3.71949,0.539075,0
23.1893,-3.64912,0.538392,0
20.3237,-9.16772,0.6497,0
20.4079,-9.16736,0.647845,0
20.4918,-9.16186,0.644847,0
20.5743,-9.14499,0.638431,0
20.6561,-9.12638,0.632113,0
20.7374,-9.10604,0.625892,0
20.8181,-9.08396,0.619749,0
20.8981,-9.06019,0.613675,0
20.9774,-9.03477,0.607737,0
21.056,-9.00766,0.601859,0
21.1339,-8.97892,0.596087,0
21.2111,-8.94856,0.590433,0
21.2874,-8.9166,0.584866,0
21.363,-8.88303,0.579388,0
21.4373,-8.84716,0.573743,0
21.5107,-8.80971,0.568177,0
21.5831,-8.77072,0.562708,0
21.6546,-8.73022,0.557347,0
21.7251,-8.68823,0.552083,0
21.7945,-8.64478,0.546917,0
21.863,-8.59989,0.541859,0
21.9302,-8.55359,0.536917,0
21.9965,-8.5059,0.532073,0
22.0616,-8.45684,0.527347,0
22.1255,-8.40644,0.522728,0
22.1882,-8.35471,0.518216,0
22.2498,-8.30172,0.513831,0
22.3101,-8.24744,0.509564,0
22.3692,-8.19194,0.505413,0
22.4271,-8.13518,0.501351,0
22.4837,-8.07728,0.497454,0
22.5389,-8.01818,0.493655,0
22.5928,-7.95797,0.489984,0
22.6455,-7.89662,0.486419,0
22.6967,-7.83422,0.483011,0
22.7466,-7.77072,0.4797,0
22.7952,-7.70622,0.476527,0
22.8422,-7.6407,0.473489,0
22.8879,-7.57421,0.470579,0
22.932,-7.50677,0.467796,0
22.9792,-7.44105,0.46679,0
