55.103,-49.9825,-0.757385,0
55.0994,-49.9072,-0.758141,0
55.0941,-49.8321,-0.758693,0
50.4413,-53.1744,-0.189826,0
50.5101,-53.2111,-0.194338,0
50.5798,-53.2463,-0.198957,0
50.6505,-53.28,-0.203698,0
50.722,-53.312,-0.208542,0
50.7944,-53.3425,-0.213488,0
50.8677,-53.3706,-0.218859,0
50.9419,-53.3967,-0.22447,0
51.0166,-53.4212,-0.230153,0
51.0922,-53.444,-0.2359,0
51.1682,-53.4652,-0.241711,0
51.2448,-53.4847,-0.24758,0
51.322,-53.5025,-0.253513,0
51.3996,-53.5186,-0.259499,0
51.4777,-53.533,-0.265534,0
51.5562,-53.5456,-0.271628,0
51.6352,-53.5565,-0.277761,0
51.7144,-53.5656,-0.283937,0
51.7939,-53.5729,-0.290153,0
51.8737,-53.5784,-0.296413,0
51.9538,-53.5821,-0.302702,0
52.034,-53.584,-0.309035,0
52.1144,-53.5841,-0.315383,0
52.1948,-53.5823,-0.32176,0
52.2754,-53.5788,-0.328156,0
52.3559,-53.5733,-0.334582,0
52.4359,-53.5636,-0.341921,0
52.5157,-53.5516,-0.349411,0
52.5952,-53.5376,-0.356994,0
52.6734,-53.5185,-0.365778,0
52.7512,-53.4976,-0.374509,0
52.8285,-53.4751,-0.383166,0
52.9054,-53.4509,-0.39175,0
52.9816,-53.425,-0.400261,0
53.0572,-53.3975,-0.408703,0
53.1322,-53.3684,-0.417057,0
53.2057,-53.3357,-0.426042,0
53.2774,-53.2994,-0.435695,0
53.3481,-53.2614,-0.445309,0
53.4178,-53.2217,-0.45487,0
53.4864,-53.1804,-0.464382,0
53.554,-53.1375,-0.473835,0
53.6203,-53.093,-0.48322,0
53.6855,-53.047,-0.492521,0
53.7495,-52.9995,-0.501764,0
53.8123,-52.9506,-0.51091,0
53.8737,-52.9002,-0.519992,0
53.9338,-52.8484,-0.528957,0
53.9927,-52.7952,-0.537844,0
54.0501,-52.7408,-0.546613,0
54.1061,-52.6851,-0.55529,0
54.1608,-52.6281,-0.563849,0
54.2139,-52.5699,-0.572292,0
54.2655,-52.5106,-0.580617,0
54.3158,-52.4501,-0.58881,0
54.3645,-52.3886,-0.596887,0
54.4117,-52.3261,-0.604826,0
54.4573,-52.2625,-0.612629,0
54.5012,-52.198,-0.620295,0
54.5437,-52.1326,-0.627814,0
54.5846,-52.0663,-0.635187,0
54.6238,-51.9992,-0.642414,0
54.6613,-51.9313,-0.649479,0
54.6973,-51.8626,-0.656393,0
54.7316,-51.7933,-0.663146,0
54.7641,-51.7233,-0.669738,0
54.7951,-51.6526,-0.676159,0
54.8244,-51.5814,-0.682424,0
54.852,-51.5097,-0.688508,0
54.8778,-51.4375,-0.694426,0
54.902,-51.3648,-0.700168,0
54.9245,-51.2917,-0.705729,0
54.9452,-51.2182,-0.711105,0
54.9643,-51.1444,-0.71632,0
54.9816,-51.0703,-0.72134,0
54.9973,-50.996,-0.726169,0
55.0116,-50.9215,-0.730724,0
55.0272,-50.8476,-0.734294,0
55.042,-50.7735,-0.737389,0
55.0554,-50.6992,-0.7403,0
55.0673,-50.6247,-0.742936,0
55.0777,-50.55,-0.745368,0
55.0864,-50.4751,-0.747604,0
55.0935,-50.4,-0.74964,0
55.0989,-50.3248,-0.751486,0
55.1028,-50.2495,-0.753137,0
55.105,-50.1742,-0.754587,0
55.1054,-50.0989,-0.755842,0
55.1044,-50.0235,-0.756901,0
55.1016,-49.9483,-0.757756,0
55.0972,-49.8731,-0.75842,0
50.4041,-53.1538,-0.187414,0
50.4725,-53.1913,-0.191857,0
50.5417,-53.2273,-0.196428,0
50.6119,-53.2618,-0.2011,0
50.6829,-53.2948,-0.205881,0
50.7548,-53.3261,-0.210773,0
50.8276,-53.3557,-0.215827,0
50.9013,-53.3827,-0.221393,0
54.0604,-52.622,-0.552682,0
54.1138,-52.5663,-0.561047,0
54.1658,-52.5094,-0.569294,0
54.2162,-52.4514,-0.577424,0
54.2653,-52.3923,-0.585446,0
54.3129,-52.3321,-0.593327,0
54.3589,-52.2709,-0.601091,0
54.4035,-52.2088,-0.608718,0
54.4466,-52.1457,-0.616208,0
54.488,-52.0817,-0.623561,0
54.5279,-52.0169,-0.630763,0
54.5662,-51.9512,-0.637829,0
54.6029,-51.8848,-0.644738,0
54.638,-51.8177,-0.651491,0
54.6715,-51.7498,-0.658093,0
54.7034,-51.6813,-0.664538,0
54.7337,-51.6122,-0.670822,0
54.7622,-51.5426,-0.67694,0
54.7891,-51.4724,-0.682892,0
54.8145,-51.4017,-0.688669,0
54.838,-51.3306,-0.694289,0
54.86,-51.2591,-0.699728,0
54.8803,-51.1872,-0.704992,0
54.8989,-51.115,-0.710085,0
54.9159,-51.0425,-0.714992,0
54.9327,-50.9702,-0.719269,0
54.9487,-50.8978,-0.723171,0
54.9644,-50.8255,-0.726496,0
54.9788,-50.7529,-0.729523,0
54.9918,-50.6801,-0.73235,0
55.0031,-50.607,-0.734977,0
55.0129,-50.5338,-0.737409,0
55.0212,-50.4603,-0.73964,0
55.0278,-50.3868,-0.741667,0
55.033,-50.3131,-0.743493,0
55.0364,-50.2393,-0.745109,0
55.0384,-50.1655,-0.746535,0
55.0387,-50.0917,-0.747746,0
55.0376,-50.018,-0.748752,0
55.0348,-49.9442,-0.749562,0
55.0305,-49.8706,-0.750163,0
50.4409,-53.0913,-0.191896,0
50.5078,-53.1278,-0.196262,0
50.5757,-53.1628,-0.200749,0
50.6445,-53.1963,-0.205329,0
50.7141,-53.2282,-0.210036,0
50.7846,-53.2586,-0.214831,0
50.8559,-53.2875,-0.219738,0
50.9279,-53.3147,-0.224743,0
51.0006,-53.3402,-0.22985,0
51.0741,-53.3637,-0.235236,0
51.1484,-53.3851,-0.240905,0
51.2232,-53.4049,-0.246628,0
51.2985,-53.4229,-0.252409,0
51.3743,-53.4394,-0.258254,0
51.4505,-53.4541,-0.264137,0
51.5273,-53.4671,-0.270075,0
51.6043,-53.4784,-0.276066,0
51.6817,-53.488,-0.282092,0
51.7595,-53.4958,-0.288166,0
51.8375,-53.5019,-0.294274,0
51.9157,-53.5063,-0.300412,0
51.9942,-53.5088,-0.306589,0
52.0727,-53.5096,-0.3128,0
52.1515,-53.5086,-0.31903,0
52.2302,-53.5058,-0.325285,0
52.3091,-53.5012,-0.331564,0
52.3879,-53.4947,-0.337853,0
52.4666,-53.486,-0.344328,0
52.5446,-53.4733,-0.351652,0
52.6219,-53.4573,-0.359533,0
52.6983,-53.4377,-0.368107,0
52.7743,-53.4164,-0.376618,0
52.8498,-53.3935,-0.38507,0
52.9248,-53.3689,-0.393444,0
52.9985,-53.3414,-0.402228,0
53.0709,-53.3102,-0.41174,0
53.1423,-53.2773,-0.421227,0
53.2129,-53.2426,-0.430685,0
53.2825,-53.2063,-0.440099,0
53.3511,-53.1684,-0.44946,0
53.4187,-53.1288,-0.458786,0
53.4852,-53.0877,-0.468053,0
53.5507,-53.045,-0.477258,0
53.615,-53.0008,-0.486393,0
53.6782,-52.9552,-0.495461,0
53.7401,-52.908,-0.50445,0
53.8009,-52.8595,-0.513361,0
53.8602,-52.8096,-0.522179,0
53.9184,-52.7583,-0.530905,0
53.9752,-52.7057,-0.539538,0
54.0307,-52.6519,-0.548068,0
54.0848,-52.5968,-0.556496,0
54.1376,-52.5406,-0.564802,0
54.1889,-52.4832,-0.57301,0
54.2388,-52.4247,-0.581086,0
54.2871,-52.3651,-0.589045,0
54.334,-52.3044,-0.596877,0
54.3794,-52.2428,-0.604577,0
54.4232,-52.1802,-0.61214,0
54.4655,-52.1167,-0.619567,0
54.5063,-52.0523,-0.626857,0
54.5455,-51.9871,-0.633996,0
54.583,-51.9211,-0.640983,0
54.6191,-51.8544,-0.647829,0
54.6534,-51.7869,-0.654518,0
54.6862,-51.7188,-0.661047,0
54.7173,-51.65,-0.667424,0
54.7469,-51.5807,-0.67363,0
54.7747,-51.5107,-0.67967,0
54.8009,-51.4403,-0.685544,0
54.8254,-51.3695,-0.691247,0
54.8483,-51.2982,-0.696779,0
54.8695,-51.2265,-0.702136,0
54.889,-51.1545,-0.707326,0
54.9068,-51.0821,-0.712331,0
54.9234,-51.0096,-0.717067,0
54.9402,-50.9374,-0.721066,0
54.9558,-50.865,-0.724758,0
54.9712,-50.7925,-0.727897,0
54.9849,-50.7199,-0.730832,0
54.9972,-50.6469,-0.733571,0
55.0078,-50.5738,-0.73611,0
55.0169,-50.5004,-0.738449,0
55.0244,-50.4269,-0.740588,0
55.0303,-50.3533,-0.742521,0
55.0347,-50.2796,-0.744255,0
55.0375,-50.2058,-0.745788,0
55.0387,-50.132,-0.747116,0
55.0384,-50.0582,-0.748229,0
55.0365,-49.9844,-0.749152,0
55.033,-49.9107,-0.749865,0
55.0279,-49.8371,-0.750373,0
50.4712,-53.1081,-0.193864,0
50.5386,-53.1439,-0.198293,0
50.6069,-53.1782,-0.202824,0
50.676,-53.211,-0.207463,0
50.7461,-53.2422,-0.212204,0
50.8169,-53.2719,-0.217053,0
50.8885,-53.3,-0.222004,0
50.9609,-53.3265,-0.227053,0
51.0339,-53.3513,-0.232199,0
51.1078,-53.3737,-0.2378,0
51.1823,-53.3943,-0.243498,0
51.2573,-53.4133,-0.249245,0
51.3329,-53.4306,-0.25506,0
51.4089,-53.4463,-0.260915,0
51.4853,-53.4602,-0.266833,0
51.5623,-53.4725,-0.27279,0
51.6395,-53.483,-0.278801,0
51.717,-53.4918,-0.28485,0
51.7949,-53.4988,-0.290934,0
51.873,-53.5041,-0.297057,0
51.9513,-53.5077,-0.303215,0
52.0298,-53.5094,-0.309411,0
52.1085,-53.5094,-0.315627,0
52.1873,-53.5075,-0.321867,0
52.2661,-53.5039,-0.328137,0
52.3449,-53.4985,-0.334416,0
52.4237,-53.4912,-0.34071,0
52.502,-53.4805,-0.347668,0
52.5799,-53.467,-0.354972,0
52.6567,-53.4486,-0.363429,0
52.7329,-53.4282,-0.371984,0
52.8086,-53.4062,-0.380466,0
52.8839,-53.3825,-0.388879,0
52.9586,-53.3572,-0.397219,0
53.0316,-53.3274,-0.40655,0
53.1035,-53.2954,-0.416061,0
53.1745,-53.2617,-0.425519,0
53.2446,-53.2263,-0.434968,0
53.3137,-53.1893,-0.444357,0
53.382,-53.1506,-0.453708,0
53.4491,-53.1103,-0.46301,0
53.5152,-53.0685,-0.472243,0
53.5801,-53.0251,-0.481428,0
53.6438,-52.9803,-0.490524,0
53.7064,-52.9339,-0.499553,0
53.7678,-52.8861,-0.508517,0
53.828,-52.837,-0.517385,0
53.8869,-52.7864,-0.526154,0
53.9444,-52.7346,-0.534841,0
54.0006,-52.6814,-0.543425,0
54.0555,-52.627,-0.551916,0
54.109,-52.5714,-0.560285,0
54.1611,-52.5146,-0.568552,0
54.2116,-52.4567,-0.576696,0
54.2609,-52.3977,-0.584719,0
54.3087,-52.3376,-0.592614,0
54.3548,-52.2765,-0.600387,0
54.3995,-52.2145,-0.608034,0
54.4427,-52.1515,-0.615529,0
54.4842,-52.0876,-0.622892,0
54.5244,-52.0228,-0.630114,0
54.5628,-51.9572,-0.637194,0
54.5997,-51.8909,-0.644113,0
54.6348,-51.8238,-0.650886,0
54.6686,-51.756,-0.657507,0
54.7005,-51.6876,-0.663957,0
54.7309,-51.6186,-0.670256,0
54.7597,-51.549,-0.676388,0
54.7868,-51.4788,-0.682355,0
54.8122,-51.4082,-0.688156,0
54.8359,-51.3371,-0.693781,0
54.858,-51.2656,-0.69924,0
54.8786,-51.1938,-0.704518,0
54.8973,-51.1216,-0.709626,0
54.9144,-51.0492,-0.714548,0
54.9312,-50.9768,-0.718908,0
54.9473,-50.9044,-0.722824,0
54.9629,-50.8321,-0.726208,0
54.9776,-50.7595,-0.72926,0
54.9907,-50.6867,-0.732096,0
55.0021,-50.6137,-0.734753,0
55.0121,-50.5405,-0.737194,0
55.0205,-50.467,-0.739445,0
55.0273,-50.3935,-0.741491,0
55.0325,-50.3198,-0.743337,0
55.0362,-50.2461,-0.744972,0
55.0383,-50.1723,-0.746408,0
55.0387,-50.0985,-0.747648,0
55.0377,-50.0247,-0.748669,0
55.0351,-49.9509,-0.749504,0
55.0309,-49.8773,-0.750114,0
50.4348,-53.0879,-0.191506,0
50.5017,-53.1245,-0.195861,0
50.5695,-53.1597,-0.200334,0
50.6382,-53.1933,-0.204909,0
50.7078,-53.2254,-0.209601,0
50.7781,-53.2559,-0.214396,0
50.8494,-53.2849,-0.219284,0
50.9213,-53.3123,-0.224284,0
54.0116,-52.5664,-0.549416,0
54.0639,-52.512,-0.557604,0
54.1148,-52.4564,-0.565676,0
54.1643,-52.3997,-0.573639,0
54.2123,-52.342,-0.581491,0
54.259,-52.2832,-0.589211,0
54.3042,-52.2234,-0.596808,0
54.3478,-52.1627,-0.604274,0
54.3901,-52.101,-0.611618,0
54.4307,-52.0385,-0.618815,0
54.4698,-51.9751,-0.625871,0
54.5074,-51.911,-0.632785,0
54.5434,-51.8461,-0.639562,0
54.578,-51.7804,-0.646183,0
54.6109,-51.7141,-0.652653,0
54.6421,-51.6471,-0.658967,0
54.6718,-51.5796,-0.665129,0
54.6998,-51.5115,-0.67113,0
54.7263,-51.4428,-0.67696,0
54.7512,-51.3737,-0.682634,0
54.7745,-51.3042,-0.688137,0
54.7961,-51.2342,-0.693473,0
54.816,-51.1639,-0.698635,0
54.8349,-51.0934,-0.703473,0
54.8536,-51.0231,-0.707687,0
54.8709,-50.9524,-0.711701,0
54.8866,-50.8815,-0.715529,0
54.9023,-50.8107,-0.718688,0
54.9166,-50.7395,-0.721662,0
54.9293,-50.6682,-0.724435,0
54.9405,-50.5966,-0.727018,0
54.95,-50.5248,-0.729396,0
54.9582,-50.4528,-0.731589,0
54.9648,-50.3807,-0.733576,0
54.9697,-50.3084,-0.735368,0
54.9732,-50.2361,-0.736965,0
54.9752,-50.1638,-0.738356,0
54.9755,-50.0915,-0.739548,0
54.9743,-50.0191,-0.740539,0
54.9716,-49.9469,-0.741335,0
54.9673,-49.8747,-0.741921,0
50.4703,-53.0278,-0.195827,0
50.5359,-53.0634,-0.200114,0
50.6023,-53.0975,-0.204509,0
50.6697,-53.1302,-0.209001,0
50.738,-53.1614,-0.213605,0
50.807,-53.191,-0.218307,0
50.8767,-53.2191,-0.223112,0
50.9473,-53.2456,-0.228019,0
51.0185,-53.2705,-0.233024,0
51.0903,-53.2938,-0.238117,0
51.1629,-53.3155,-0.243303,0
51.236,-53.3355,-0.248571,0
51.3097,-53.3538,-0.253942,0
51.3839,-53.3698,-0.259675,0
51.4587,-53.3841,-0.265436,0
51.5337,-53.3968,-0.271257,0
51.6092,-53.4077,-0.277126,0
51.6851,-53.417,-0.283029,0
51.7612,-53.4246,-0.288967,0
51.8375,-53.4305,-0.294948,0
51.9141,-53.4346,-0.300973,0
51.9909,-53.437,-0.307023,0
52.0679,-53.4377,-0.313097,0
52.1449,-53.4366,-0.319191,0
52.222,-53.4337,-0.325324,0
52.2991,-53.4291,-0.331467,0
52.3763,-53.4227,-0.337619,0
52.4534,-53.4145,-0.343796,0
52.5304,-53.4045,-0.349972,0
52.6064,-53.3898,-0.357341,0
52.6813,-53.3705,-0.365749,0
52.7556,-53.3493,-0.374245,0
52.8287,-53.324,-0.383591,0
52.9009,-53.2971,-0.392927,0
52.9724,-53.2683,-0.402253,0
53.0432,-53.2379,-0.411554,0
53.113,-53.2058,-0.420832,0
53.182,-53.172,-0.430075,0
53.2502,-53.1366,-0.439279,0
53.3173,-53.0996,-0.448444,0
53.3834,-53.0611,-0.457555,0
53.4486,-53.0209,-0.466623,0
53.5126,-52.9793,-0.475627,0
53.5755,-52.9362,-0.484562,0
53.6373,-52.8916,-0.493429,0
53.698,-52.8456,-0.502223,0
53.7574,-52.7982,-0.510934,0
53.8156,-52.7495,-0.519567,0
53.8726,-52.6994,-0.528107,0
53.9283,-52.6481,-0.536559,0
53.9826,-52.5956,-0.544904,0
54.0356,-52.5418,-0.553146,0
54.0872,-52.4869,-0.561281,0
54.1375,-52.4308,-0.569304,0
54.1863,-52.3736,-0.577219,0
54.2337,-52.3154,-0.585011,0
54.2797,-52.2561,-0.592682,0
54.3241,-52.1959,-0.600226,0
54.3672,-52.1348,-0.607629,0
54.4087,-52.0727,-0.614904,0
54.4487,-52.0098,-0.622038,0
54.4871,-51.9461,-0.62904,0
54.524,-51.8816,-0.635886,0
54.5593,-51.8163,-0.642595,0
54.593,-51.7504,-0.649142,0
54.6252,-51.6837,-0.655544,0
54.6558,-51.6165,-0.661794,0
54.6848,-51.5487,-0.667878,0
54.7121,-51.4803,-0.673796,0
54.7379,-51.4115,-0.679557,0
54.762,-51.3421,-0.685153,0
54.7845,-51.2724,-0.690578,0
54.8053,-51.2023,-0.695842,0
54.8246,-51.1318,-0.700925,0
54.8436,-51.0615,-0.705412,0
54.8616,-50.991,-0.709533,0
54.8782,-50.9202,-0.713469,0
54.8939,-50.8493,-0.716984,0
54.909,-50.7784,-0.720065,0
54.9225,-50.7071,-0.722946,0
54.9345,-50.6356,-0.725641,0
54.945,-50.5639,-0.728127,0
54.954,-50.4921,-0.730422,0
54.9613,-50.42,-0.732512,0
54.9671,-50.3479,-0.734411,0
54.9715,-50.2756,-0.73612,0
54.9742,-50.2033,-0.737614,0
54.9755,-50.1309,-0.738923,0
54.9752,-50.0586,-0.740016,0
54.9733,-49.9863,-0.740925,0
54.9698,-49.914,-0.741628,0
54.9649,-49.8419,-0.742121,0
50.5,-53.0441,-0.197756,0
50.5659,-53.0791,-0.202096,0
50.6328,-53.1126,-0.206535,0
50.7006,-53.1446,-0.211076,0
50.7691,-53.175,-0.215729,0
50.8385,-53.204,-0.220485,0
50.9087,-53.2314,-0.225334,0
50.9795,-53.2572,-0.23028,0
51.0511,-53.2813,-0.235324,0
51.1232,-53.3039,-0.240461,0
51.196,-53.3248,-0.245685,0
51.2694,-53.3441,-0.250998,0
51.3434,-53.3613,-0.25654,0
51.4178,-53.3765,-0.262282,0
51.4927,-53.3901,-0.268073,0
51.568,-53.402,-0.273918,0
51.6437,-53.4122,-0.279797,0
51.7196,-53.4207,-0.285724,0
51.7959,-53.4275,-0.291686,0
51.8723,-53.4326,-0.297687,0
51.9491,-53.4359,-0.303713,0
52.0259,-53.4375,-0.309777,0
52.1029,-53.4374,-0.315866,0
52.18,-53.4355,-0.321979,0
52.2571,-53.4318,-0.328112,0
52.3342,-53.4264,-0.334264,0
52.4113,-53.4192,-0.340422,0
52.4884,-53.4102,-0.346598,0
52.5651,-53.3985,-0.353127,0
52.6405,-53.3812,-0.361164,0
52.7152,-53.3613,-0.369538,0
52.7889,-53.338,-0.378493,0
52.8616,-53.312,-0.387839,0
52.9336,-53.2842,-0.397175,0
53.0048,-53.2547,-0.406481,0
53.0751,-53.2235,-0.415778,0
53.1445,-53.1907,-0.425031,0
53.2131,-53.1562,-0.434264,0
53.2809,-53.12,-0.443454,0
53.3475,-53.0823,-0.45259,0
53.4131,-53.043,-0.461686,0
53.4777,-53.0022,-0.47072,0
53.5413,-52.9599,-0.479694,0
53.6037,-52.9161,-0.488605,0
53.6651,-52.8709,-0.497433,0
53.7252,-52.8242,-0.506188,0
53.7841,-52.7762,-0.514875,0
53.8416,-52.7269,-0.523464,0
53.898,-52.6763,-0.53196,0
53.953,-52.6244,-0.540358,0
54.0068,-52.5713,-0.548659,0
54.0592,-52.517,-0.556857,0
54.1102,-52.4615,-0.564948,0
54.1598,-52.4049,-0.572917,0
54.208,-52.3473,-0.580778,0
54.2548,-52.2886,-0.588508,0
54.3001,-52.2289,-0.59612,0
54.3439,-52.1683,-0.603605,0
54.3862,-52.1067,-0.610954,0
54.4271,-52.0442,-0.618161,0
54.4663,-51.9809,-0.625236,0
54.5041,-51.9168,-0.63217,0
54.5402,-51.852,-0.638957,0
54.5748,-51.7864,-0.645583,0
54.6079,-51.7202,-0.652072,0
54.6393,-51.6533,-0.6584,0
54.6691,-51.5858,-0.664572,0
54.6973,-51.5177,-0.670588,0
54.724,-51.4491,-0.676442,0
54.7491,-51.38,-0.682121,0
54.7724,-51.3105,-0.687634,0
54.7942,-51.2406,-0.692985,0
54.8142,-51.1703,-0.698176,0
54.8331,-51.0998,-0.703083,0
54.852,-51.0295,-0.707311,0
54.8694,-50.9589,-0.711354,0
54.8852,-50.888,-0.715192,0
54.9009,-50.8171,-0.718405,0
54.9153,-50.746,-0.721398,0
54.9282,-50.6747,-0.724196,0
54.9395,-50.6031,-0.726794,0
54.9493,-50.5313,-0.729191,0
54.9575,-50.4593,-0.731398,0
54.9642,-50.3872,-0.733405,0
54.9693,-50.315,-0.735212,0
54.973,-50.2427,-0.736823,0
54.975,-50.1704,-0.738234,0
54.9755,-50.0981,-0.73945,0
54.9745,-50.0257,-0.740456,0
54.9719,-49.9535,-0.741261,0
54.9678,-49.8812,-0.741877,0
50.4643,-53.0244,-0.195436,0
50.5298,-53.0602,-0.199714,0
50.5962,-53.0945,-0.204098,0
50.6635,-53.1273,-0.208586,0
50.7316,-53.1586,-0.213176,0
50.8006,-53.1884,-0.217883,0
50.8703,-53.2166,-0.222678,0
50.9408,-53.2433,-0.22757,0
53.9648,-52.5128,-0.546271,0
54.0159,-52.4596,-0.554289,0
54.0658,-52.4053,-0.562199,0
54.1144,-52.35,-0.569992,0
54.1615,-52.2935,-0.577678,0
54.2072,-52.2361,-0.585246,0
54.2514,-52.1777,-0.592678,0
54.2942,-52.1183,-0.600002,0
54.3356,-52.058,-0.607189,0
54.3755,-51.9969,-0.614235,0
54.4139,-51.935,-0.621159,0
54.4509,-51.8722,-0.627941,0
54.4862,-51.8087,-0.634577,0
54.5201,-51.7445,-0.641066,0
54.5523,-51.6797,-0.647404,0
54.583,-51.6142,-0.653605,0
54.6123,-51.5481,-0.659636,0
54.6398,-51.4815,-0.665514,0
54.6659,-51.4143,-0.671242,0
54.6903,-51.3467,-0.676803,0
54.7131,-51.2786,-0.682204,0
54.7344,-51.2102,-0.687438,0
54.7557,-51.1419,-0.691989,0
54.7757,-51.0734,-0.69631,0
54.7942,-51.0044,-0.700446,0
54.8111,-50.9352,-0.704396,0
54.8269,-50.8658,-0.708044,0
54.8423,-50.7963,-0.711149,0
54.8564,-50.7266,-0.714064,0
54.8688,-50.6566,-0.716789,0
54.8798,-50.5864,-0.719318,0
54.8894,-50.516,-0.721657,0
54.8973,-50.4455,-0.723805,0
54.9037,-50.3748,-0.725763,0
54.9087,-50.304,-0.727521,0
54.912,-50.2331,-0.729079,0
54.9139,-50.1622,-0.730451,0
54.9143,-50.0912,-0.731623,0
54.9131,-50.0203,-0.732594,0
54.9105,-49.9494,-0.733371,0
54.9064,-49.8786,-0.733952,0
50.4985,-52.9668,-0.199465,0
50.5629,-53.0013,-0.203815,0
50.628,-53.0346,-0.208122,0
50.6941,-53.0665,-0.212536,0
50.7609,-53.0969,-0.217043,0
50.8285,-53.1259,-0.221662,0
50.8968,-53.1533,-0.226369,0
50.9659,-53.1791,-0.231179,0
51.0356,-53.2034,-0.236071,0
51.106,-53.2261,-0.241066,0
51.177,-53.2472,-0.246154,0
51.2487,-53.2667,-0.251315,0
51.3208,-53.2845,-0.256569,0
51.3934,-53.3007,-0.261901,0
51.4665,-53.3152,-0.267316,0
51.5401,-53.328,-0.272809,0
51.614,-53.339,-0.278361,0
51.6882,-53.3484,-0.283996,0
51.7628,-53.3559,-0.289753,0
51.8376,-53.3615,-0.295617,0
51.9126,-53.3655,-0.301506,0
51.9879,-53.3678,-0.307429,0
52.0632,-53.3683,-0.313381,0
52.1387,-53.3671,-0.319357,0
52.2141,-53.3642,-0.325358,0
52.2897,-53.3596,-0.331374,0
52.3652,-53.3532,-0.337394,0
52.4406,-53.3448,-0.343571,0
52.5159,-53.3345,-0.349782,0
52.5909,-53.3221,-0.356154,0
52.6632,-53.2999,-0.365749,0
52.7352,-53.277,-0.374894,0
52.8066,-53.2524,-0.38403,0
52.8774,-53.2261,-0.393166,0
52.9473,-53.1981,-0.402277,0
53.0166,-53.1684,-0.411374,0
53.0849,-53.1371,-0.420446,0
53.1524,-53.1042,-0.429499,0
53.2191,-53.0696,-0.438503,0
53.2848,-53.0335,-0.447458,0
53.3495,-52.9959,-0.456379,0
53.4133,-52.9567,-0.465241,0
53.4759,-52.916,-0.474054,0
53.5376,-52.874,-0.482795,0
53.5981,-52.8304,-0.491476,0
53.6574,-52.7855,-0.500085,0
53.7156,-52.7393,-0.50861,0
53.7727,-52.6917,-0.517053,0
53.8284,-52.6428,-0.525417,0
53.883,-52.5927,-0.533683,0
53.9362,-52.5413,-0.541852,0
53.9882,-52.4888,-0.549924,0
54.0388,-52.4351,-0.557892,0
54.088,-52.3803,-0.565749,0
54.1359,-52.3245,-0.573498,0
54.1823,-52.2676,-0.58113,0
54.2274,-52.2097,-0.588639,0
54.2711,-52.1508,-0.596027,0
54.3132,-52.091,-0.603283,0
54.354,-52.0304,-0.610417,0
54.3931,-51.9689,-0.617404,0
54.4309,-51.9065,-0.624264,0
54.467,-51.8435,-0.630969,0
54.5017,-51.7796,-0.637546,0
54.5349,-51.7151,-0.643967,0
54.5665,-51.65,-0.650241,0
54.5965,-51.5842,-0.656359,0
54.6249,-51.5179,-0.662331,0
54.6519,-51.451,-0.668141,0
54.6772,-51.3836,-0.673791,0
54.7009,-51.3158,-0.679284,0
54.723,-51.2476,-0.684606,0
54.7442,-51.1792,-0.689548,0
54.765,-51.1108,-0.693976,0
54.7843,-51.0421,-0.69821,0
54.802,-50.973,-0.702267,0
54.8183,-50.9036,-0.70612,0
54.8341,-50.8342,-0.709474,0
54.8489,-50.7647,-0.712502,0
54.8623,-50.6948,-0.715329,0
54.8741,-50.6248,-0.717961,0
54.8844,-50.5545,-0.720412,0
54.8931,-50.484,-0.722663,0
54.9003,-50.4133,-0.724719,0
54.9062,-50.3426,-0.726584,0
54.9104,-50.2718,-0.728254,0
54.9131,-50.2008,-0.729728,0
54.9143,-50.1299,-0.731012,0
54.914,-50.059,-0.732087,0
54.9122,-49.9881,-0.73297,0
54.9088,-49.9172,-0.733664,0
54.904,-49.8465,-0.734152,0
50.5277,-52.9825,-0.201511,0
50.5923,-53.0166,-0.205759,0
50.658,-53.0493,-0.210119,0
50.7243,-53.0805,-0.214572,0
50.7915,-53.1103,-0.219133,0
50.8594,-53.1385,-0.223791,0
50.9281,-53.1652,-0.228542,0
50.9975,-53.1903,-0.23339,0
51.0676,-53.2139,-0.238337,0
51.1382,-53.2359,-0.243366,0
51.2095,-53.2563,-0.248483,0
51.2814,-53.275,-0.253688,0
51.3537,-53.2921,-0.258976,0
51.4266,-53.3075,-0.264357,0
51.4999,-53.3212,-0.269802,0
51.5736,-53.3332,-0.275319,0
51.6477,-53.3435,-0.280915,0
51.7221,-53.3521,-0.286584,0
51.7967,-53.3587,-0.292414,0
51.8716,-53.3636,-0.298288,0
51.9468,-53.3667,-0.304201,0
52.0221,-53.3682,-0.310129,0
52.0975,-53.368,-0.316096,0
52.173,-53.366,-0.322082,0
52.2485,-53.3623,-0.328088,0
52.324,-53.3569,-0.334113,0
52.3995,-53.3496,-0.340197,0
52.4748,-53.3404,-0.346384,0
52.55,-53.3293,-0.352609,0
52.6237,-53.3119,-0.360671,0
52.696,-53.2897,-0.369904,0
52.7677,-53.2661,-0.379045,0
52.8388,-53.2407,-0.38818,0
52.9093,-53.2136,-0.397306,0
52.9789,-53.1848,-0.406423,0
53.0477,-53.1544,-0.415505,0
53.1157,-53.1223,-0.424567,0
53.1829,-53.0887,-0.433591,0
53.2491,-53.0534,-0.442585,0
53.3143,-53.0166,-0.45152,0
53.3786,-52.9782,-0.460417,0
53.4419,-52.9384,-0.469255,0
53.5041,-52.8971,-0.478029,0
53.5652,-52.8544,-0.486745,0
53.6252,-52.8102,-0.495387,0
53.6841,-52.7647,-0.503967,0
53.7417,-52.7178,-0.512458,0
53.7982,-52.6696,-0.520866,0
53.8534,-52.6202,-0.529181,0
53.9073,-52.5695,-0.537404,0
53.96,-52.5176,-0.545534,0
54.0113,-52.4645,-0.553561,0
54.0613,-52.4104,-0.561476,0
54.11,-52.3551,-0.569289,0
54.1572,-52.2987,-0.576979,0
54.203,-52.2414,-0.584562,0
54.2475,-52.183,-0.592013,0
54.2904,-52.1238,-0.599338,0
54.332,-52.0636,-0.606545,0
54.372,-52.0025,-0.6136,0
54.4105,-51.9406,-0.620539,0
54.4475,-51.878,-0.627331,0
54.483,-51.8146,-0.633971,0
54.517,-51.7504,-0.640485,0
54.5495,-51.6856,-0.646843,0
54.5803,-51.6202,-0.653044,0
54.6096,-51.5541,-0.659098,0
54.6373,-51.4876,-0.664992,0
54.6635,-51.4205,-0.670729,0
54.6881,-51.3529,-0.67631,0
54.7111,-51.2848,-0.68172,0
54.7325,-51.2164,-0.68697,0
54.7538,-51.1482,-0.691579,0
54.774,-51.0796,-0.695925,0
54.7925,-51.0107,-0.70007,0
54.8096,-50.9415,-0.704045,0
54.8254,-50.8721,-0.707751,0
54.841,-50.8027,-0.710871,0
54.8552,-50.733,-0.71381,0
54.8678,-50.663,-0.716554,0
54.8789,-50.5928,-0.719098,0
54.8885,-50.5224,-0.721457,0
54.8966,-50.4519,-0.72362,0
54.9032,-50.3812,-0.725588,0
54.9083,-50.3104,-0.72737,0
54.9118,-50.2395,-0.728952,0
54.9138,-50.1686,-0.730334,0
54.9144,-50.0977,-0.73152,0
54.9133,-50.0268,-0.732516,0
54.9109,-49.9559,-0.733307,0
54.9068,-49.8851,-0.733913,0
50.4924,-52.9641,-0.198835,0
50.557,-52.9982,-0.203425,0
50.622,-53.0316,-0.207731,0
50.688,-53.0637,-0.212126,0
50.7548,-53.0942,-0.216628,0
50.8223,-53.1233,-0.221232,0
50.8905,-53.1508,-0.225939,0
50.9595,-53.1768,-0.230739,0
53.9195,-52.4612,-0.543244,0
53.9698,-52.4093,-0.551095,0
54.0186,-52.3562,-0.55884,0
54.0662,-52.302,-0.566486,0
54.1123,-52.2469,-0.574011,0
54.1572,-52.1907,-0.581423,0
54.2006,-52.1336,-0.588708,0
54.2426,-52.0756,-0.595876,0
54.2832,-52.0166,-0.602922,0
54.3223,-51.9568,-0.609846,0
54.3601,-51.8962,-0.616623,0
54.3962,-51.8349,-0.623268,0
54.431,-51.7728,-0.629772,0
54.4641,-51.71,-0.636135,0
54.4959,-51.6465,-0.642355,0
54.5261,-51.5824,-0.648425,0
54.5548,-51.5177,-0.654347,0
54.5819,-51.4525,-0.660109,0
54.6075,-51.3868,-0.665724,0
54.6316,-51.3206,-0.671188,0
54.6552,-51.2545,-0.676095,0
54.6778,-51.188,-0.68071,0
54.6989,-51.1212,-0.685138,0
54.7185,-51.054,-0.689386,0
54.7366,-50.9864,-0.693439,0
54.7534,-50.9185,-0.697326,0
54.7692,-50.8506,-0.700807,0
54.7845,-50.7825,-0.703849,0
54.7982,-50.7141,-0.706716,0
54.8105,-50.6455,-0.709391,0
54.8212,-50.5766,-0.711872,0
54.8305,-50.5076,-0.714172,0
54.8384,-50.4384,-0.716286,0
54.8447,-50.3691,-0.7182,0
54.8495,-50.2996,-0.719929,0
54.8529,-50.2301,-0.721467,0
54.8548,-50.1605,-0.722809,0
54.8552,-50.091,-0.723957,0
54.8541,-50.0214,-0.724909,0
54.8515,-49.9519,-0.725671,0
54.8474,-49.8825,-0.726247,0
50.5251,-52.9095,-0.202238,0
50.589,-52.9414,-0.207394,0
50.6528,-52.974,-0.211618,0
50.7175,-53.0051,-0.215939,0
50.783,-53.0348,-0.220363,0
50.8492,-53.063,-0.224885,0
50.9162,-53.0898,-0.229509,0
50.9839,-53.115,-0.234216,0
51.0522,-53.1387,-0.239025,0
51.1212,-53.1608,-0.243913,0
51.1907,-53.1814,-0.248893,0
51.2609,-53.2003,-0.253962,0
51.3316,-53.2177,-0.259108,0
51.4027,-53.2334,-0.264338,0
51.4743,-53.2475,-0.269636,0
51.5462,-53.2599,-0.275016,0
51.6186,-53.2707,-0.280461,0
51.6913,-53.2797,-0.285983,0
51.7643,-53.2871,-0.291564,0
51.8375,-53.2927,-0.297219,0
51.911,-53.2967,-0.302922,0
51.9846,-53.2989,-0.308688,0
52.0584,-53.2993,-0.314509,0
52.1323,-53.298,-0.320378,0
52.2061,-53.2949,-0.326296,0
52.2801,-53.2901,-0.332262,0
52.3539,-53.2836,-0.338268,0
52.4277,-53.2752,-0.344308,0
52.5013,-53.2651,-0.350387,0
52.5748,-53.2532,-0.356496,0
52.6459,-53.2323,-0.365563,0
52.7158,-53.2082,-0.375241,0
52.7855,-53.1835,-0.384455,0
52.8547,-53.1579,-0.39339,0
52.9231,-53.1305,-0.402311,0
52.9909,-53.1016,-0.411208,0
53.0578,-53.071,-0.420085,0
53.1239,-53.0388,-0.428937,0
53.1891,-53.0051,-0.437746,0
53.2535,-52.9699,-0.446515,0
53.3169,-52.9331,-0.455246,0
53.3793,-52.8949,-0.463918,0
53.4407,-52.8552,-0.472536,0
53.501,-52.8141,-0.481095,0
53.5603,-52.7716,-0.489587,0
53.6184,-52.7277,-0.498014,0
53.6755,-52.6825,-0.506364,0
53.7313,-52.636,-0.514636,0
53.786,-52.5882,-0.522824,0
53.8394,-52.5393,-0.53091,0
53.8916,-52.4891,-0.538918,0
53.9425,-52.4377,-0.546823,0
53.9921,-52.3853,-0.554626,0
54.0404,-52.3317,-0.562326,0
54.0873,-52.2771,-0.569919,0
54.1329,-52.2215,-0.577394,0
54.177,-52.1649,-0.584748,0
54.2199,-52.1073,-0.591989,0
54.2612,-52.0489,-0.599098,0
54.3012,-51.9895,-0.606081,0
54.3397,-51.9294,-0.612936,0
54.3767,-51.8684,-0.619655,0
54.4123,-51.8067,-0.626242,0
54.4462,-51.7443,-0.632682,0
54.4788,-51.6812,-0.638981,0
54.5098,-51.6174,-0.645129,0
54.5394,-51.5531,-0.651135,0
54.5673,-51.4882,-0.656984,0
54.5937,-51.4227,-0.662692,0
54.6186,-51.3568,-0.668224,0
54.6423,-51.2905,-0.673512,0
54.6656,-51.2243,-0.678219,0
54.6875,-51.1577,-0.682741,0
54.708,-51.0907,-0.687087,0
54.727,-51.0233,-0.691257,0
54.7445,-50.9556,-0.695231,0
54.7604,-50.8876,-0.699025,0
54.7763,-50.8197,-0.702219,0
54.7909,-50.7514,-0.705173,0
54.8039,-50.683,-0.707951,0
54.8155,-50.6142,-0.710544,0
54.8256,-50.5453,-0.712941,0
54.8343,-50.4762,-0.715153,0
54.8415,-50.4069,-0.717179,0
54.8471,-50.3375,-0.719011,0
54.8512,-50.268,-0.720651,0
54.854,-50.1985,-0.722092,0
54.8551,-50.1289,-0.723351,0
54.8548,-50.0594,-0.724416,0
54.853,-49.9898,-0.725285,0
54.8498,-49.9203,-0.725959,0
54.8451,-49.851,-0.726442,0
50.5545,-52.923,-0.205134,0
50.6178,-52.9564,-0.209299,0
50.682,-52.9883,-0.213576,0
50.7471,-53.0188,-0.217946,0
50.813,-53.0478,-0.222409,0
50.8795,-53.0754,-0.226979,0
50.9469,-53.1014,-0.231637,0
51.0148,-53.1259,-0.236393,0
51.0835,-53.1489,-0.241232,0
51.1527,-53.1703,-0.246174,0
51.2225,-53.1902,-0.251188,0
51.293,-53.2084,-0.256291,0
51.3638,-53.225,-0.261471,0
51.4352,-53.24,-0.266735,0
51.5069,-53.2533,-0.272072,0
51.5791,-53.265,-0.277477,0
51.6516,-53.275,-0.282961,0
51.7245,-53.2833,-0.288512,0
51.7976,-53.2899,-0.294123,0
51.8709,-53.2947,-0.299797,0
51.9445,-53.2979,-0.305539,0
52.0182,-53.2993,-0.311325,0
52.092,-53.2989,-0.317175,0
52.1659,-53.2968,-0.323063,0
52.2398,-53.293,-0.329001,0
52.3137,-53.2874,-0.334992,0
52.3874,-53.28,-0.341012,0
52.4612,-53.2708,-0.347067,0
52.5347,-53.2599,-0.353151,0
52.6074,-53.2448,-0.360256,0
52.6777,-53.2216,-0.369963,0
52.7475,-53.1968,-0.379577,0
52.817,-53.1721,-0.388517,0
52.8859,-53.1457,-0.397438,0
52.9541,-53.1176,-0.406354,0
53.0214,-53.0879,-0.415241,0
53.088,-53.0566,-0.424113,0
53.1537,-53.0237,-0.432941,0
53.2185,-52.9893,-0.441735,0
53.2824,-52.9534,-0.450485,0
53.3454,-52.9159,-0.459196,0
53.4073,-52.877,-0.467839,0
53.4683,-52.8367,-0.476432,0
53.528,-52.7949,-0.484968,0
53.5869,-52.7518,-0.493434,0
53.6445,-52.7073,-0.501823,0
53.701,-52.6615,-0.510134,0
53.7562,-52.6144,-0.518371,0
53.8104,-52.5661,-0.526506,0
53.8633,-52.5166,-0.534562,0
53.9148,-52.4659,-0.542521,0
53.9652,-52.414,-0.550388,0
54.0142,-52.3611,-0.558141,0
54.0619,-52.307,-0.565788,0
54.1082,-52.252,-0.573327,0
54.1532,-52.1959,-0.580749,0
54.1966,-52.1388,-0.588058,0
54.2389,-52.0809,-0.595241,0
54.2796,-52.022,-0.602287,0
54.3189,-51.9623,-0.609211,0
54.3566,-51.9018,-0.616008,0
54.393,-51.8405,-0.622663,0
54.4278,-51.7784,-0.629181,0
54.4613,-51.7157,-0.635553,0
54.493,-51.6523,-0.641794,0
54.5234,-51.5883,-0.647873,0
54.5523,-51.5237,-0.653815,0
54.5795,-51.4585,-0.659596,0
54.6052,-51.3928,-0.665221,0
54.6294,-51.3267,-0.6707,0
54.653,-51.2605,-0.675671,0
54.6757,-51.1941,-0.680295,0
54.697,-51.1273,-0.684743,0
54.7167,-51.0601,-0.689006,0
54.7351,-50.9926,-0.693083,0
54.7519,-50.9247,-0.696984,0
54.7678,-50.8568,-0.700514,0
54.7831,-50.7887,-0.703586,0
54.797,-50.7204,-0.706457,0
54.8095,-50.6518,-0.709152,0
54.8203,-50.5829,-0.711662,0
54.8298,-50.5139,-0.713971,0
54.8377,-50.4447,-0.7161,0
54.8441,-50.3754,-0.718034,0
54.8491,-50.3059,-0.719782,0
54.8527,-50.2364,-0.72134,0
54.8547,-50.1669,-0.722687,0
54.8552,-50.0973,-0.723864,0
54.8542,-50.0277,-0.724836,0
54.8518,-49.9582,-0.725617,0
54.8478,-49.8888,-0.726208,0
50.5192,-52.9068,-0.201623,0
50.5831,-52.9384,-0.207013,0
50.647,-52.9711,-0.211232,0
50.7116,-53.0023,-0.215544,0
50.777,-53.0321,-0.219963,0
50.8431,-53.0605,-0.224474,0
50.9101,-53.0874,-0.229084,0
50.9777,-53.1127,-0.233791,0
53.8759,-52.4115,-0.540329,0
53.9252,-52.3607,-0.548014,0
53.973,-52.3088,-0.555607,0
54.0197,-52.2558,-0.563097,0
54.065,-52.2019,-0.570466,0
54.109,-52.147,-0.577731,0
54.1516,-52.0911,-0.58488,0
54.1928,-52.0343,-0.591906,0
54.2327,-51.9766,-0.598815,0
54.2711,-51.9182,-0.605593,0
54.308,-51.8589,-0.612233,0
54.3436,-51.7988,-0.618757,0
54.3777,-51.7381,-0.625138,0
54.4103,-51.6766,-0.631374,0
54.4415,-51.6145,-0.637477,0
54.4712,-51.5518,-0.643429,0
54.4993,-51.4885,-0.649235,0
54.526,-51.4246,-0.654899,0
54.5522,-51.3607,-0.66006,0
54.5773,-51.2965,-0.664933,0
54.6009,-51.2318,-0.669636,0
54.6231,-51.1667,-0.674162,0
54.6438,-51.1011,-0.678517,0
54.6631,-51.0352,-0.682687,0
54.681,-50.969,-0.686677,0
54.6974,-50.9024,-0.69049,0
54.7134,-50.8359,-0.693801,0
54.7284,-50.7691,-0.696794,0
54.7419,-50.702,-0.699606,0
54.7539,-50.6347,-0.702233,0
54.7645,-50.5672,-0.704675,0
54.7737,-50.4994,-0.70693,0
54.7814,-50.4316,-0.709001,0
54.7877,-50.3635,-0.71089,0
54.7923,-50.2954,-0.71259,0
54.7957,-50.2272,-0.714089,0
54.7975,-50.159,-0.715412,0
54.798,-50.0907,-0.716535,0
54.7968,-50.0225,-0.717472,0
54.7944,-49.9543,-0.718229,0
54.7903,-49.8862,-0.718786,0
50.5508,-52.854,-0.204929,0
50.6141,-52.8836,-0.210842,0
50.6767,-52.9154,-0.214992,0
50.7402,-52.9458,-0.21923,0
50.8043,-52.9748,-0.223571,0
50.8692,-53.0024,-0.22801,0
50.9348,-53.0285,-0.232531,0
51.0012,-53.0531,-0.23716,0
51.0682,-53.0762,-0.241872,0
51.1357,-53.0978,-0.246662,0
51.2039,-53.1178,-0.251545,0
51.2727,-53.1363,-0.256506,0
51.3419,-53.1532,-0.261554,0
51.4116,-53.1685,-0.266672,0
51.4816,-53.1822,-0.271872,0
51.5521,-53.1943,-0.27714,0
51.6231,-53.2047,-0.282482,0
51.6943,-53.2135,-0.287892,0
51.7657,-53.2206,-0.293366,0
51.8375,-53.226,-0.298893,0
51.9095,-53.2298,-0.304489,0
51.9816,-53.2318,-0.310134,0
52.0537,-53.2322,-0.315842,0
52.1261,-53.2308,-0.321584,0
52.1984,-53.2277,-0.327385,0
52.2708,-53.2229,-0.333224,0
52.343,-53.2164,-0.339108,0
52.4153,-53.2081,-0.345021,0
52.4873,-53.1982,-0.350973,0
52.5592,-53.1864,-0.356955,0
52.6294,-53.1679,-0.365051,0
52.698,-53.1444,-0.374533,0
52.7659,-53.1193,-0.383976,0
52.833,-53.0927,-0.393361,0
52.8999,-53.0654,-0.402341,0
52.9662,-53.0372,-0.411047,0
53.0317,-53.0073,-0.419728,0
53.0965,-52.9759,-0.42839,0
53.1603,-52.943,-0.437013,0
53.2234,-52.9086,-0.445607,0
53.2855,-52.8727,-0.454147,0
53.3466,-52.8353,-0.462643,0
53.4066,-52.7965,-0.471081,0
53.4658,-52.7564,-0.47946,0
53.5238,-52.7148,-0.48778,0
53.5809,-52.6719,-0.496027,0
53.6367,-52.6278,-0.504201,0
53.6914,-52.5823,-0.512306,0
53.7451,-52.5357,-0.520324,0
53.7973,-52.4878,-0.528249,0
53.8486,-52.4387,-0.536091,0
53.8985,-52.3885,-0.543835,0
53.9471,-52.3372,-0.551476,0
53.9945,-52.2849,-0.55903,0
54.0405,-52.2314,-0.566467,0
54.0852,-52.1771,-0.573781,0
54.1285,-52.1217,-0.580998,0
54.1705,-52.0654,-0.588088,0
54.2111,-52.0082,-0.595065,0
54.2503,-51.9502,-0.601911,0
54.288,-51.8913,-0.608625,0
54.3244,-51.8317,-0.615217,0
54.3593,-51.7713,-0.621672,0
54.3927,-51.7102,-0.627985,0
54.4247,-51.6485,-0.634162,0
54.4552,-51.586,-0.640197,0
54.4841,-51.5231,-0.646091,0
54.5116,-51.4595,-0.651838,0
54.5379,-51.3956,-0.657331,0
54.5637,-51.3316,-0.662292,0
54.5882,-51.2672,-0.667092,0
54.6111,-51.2023,-0.671716,0
54.6327,-51.1369,-0.676159,0
54.6528,-51.0712,-0.680427,0
54.6714,-51.0052,-0.684518,0
54.6887,-50.9388,-0.688429,0
54.7046,-50.8721,-0.692092,0
54.7204,-50.8055,-0.695187,0
54.7347,-50.7386,-0.698093,0
54.7475,-50.6715,-0.700817,0
54.7589,-50.604,-0.703366,0
54.7688,-50.5364,-0.705724,0
54.7773,-50.4686,-0.707897,0
54.7844,-50.4007,-0.709889,0
54.79,-50.3326,-0.711686,0
54.7941,-50.2644,-0.713288,0
54.7966,-50.1962,-0.714714,0
54.7979,-50.128,-0.715944,0
54.7976,-50.0597,-0.716994,0
54.7959,-49.9915,-0.717839,0
54.7927,-49.9233,-0.718508,0
54.788,-49.8553,-0.718976,0
50.5798,-52.867,-0.207941,0
50.6425,-52.8982,-0.212717,0
50.7055,-52.9294,-0.216906,0
50.7692,-52.9592,-0.221198,0
50.8337,-52.9875,-0.225573,0
50.899,-53.0144,-0.230055,0
50.9649,-53.0398,-0.234631,0
51.0316,-53.0638,-0.239289,0
51.0987,-53.0862,-0.24404,0
51.1666,-53.1071,-0.248869,0
51.2351,-53.1264,-0.253786,0
51.304,-53.1442,-0.258796,0
51.3734,-53.1604,-0.263874,0
51.4434,-53.1749,-0.26903,0
51.5137,-53.1879,-0.27426,0
51.5844,-53.1992,-0.279562,0
51.6554,-53.2089,-0.284929,0
51.7268,-53.2169,-0.290368,0
51.7983,-53.2233,-0.295866,0
51.8702,-53.228,-0.301428,0
51.9422,-53.2309,-0.307053,0
52.0143,-53.2322,-0.312717,0
52.0866,-53.2318,-0.318444,0
52.1589,-53.2296,-0.324216,0
52.2313,-53.2258,-0.330026,0
52.3036,-53.2202,-0.33589,0
52.3759,-53.2129,-0.341789,0
52.448,-53.2038,-0.347726,0
52.52,-53.193,-0.353688,0
52.5917,-53.1801,-0.359855,0
52.6606,-53.1574,-0.369362,0
52.7289,-53.1332,-0.37883,0
52.7965,-53.1074,-0.388249,0
52.8634,-53.0802,-0.397575,0
52.9302,-53.0528,-0.406296,0
52.9962,-53.0238,-0.414997,0
53.0612,-52.9933,-0.423679,0
53.1256,-52.9612,-0.432316,0
53.1891,-52.9275,-0.440925,0
53.2516,-52.8924,-0.449494,0
53.3134,-52.8559,-0.458014,0
53.374,-52.8179,-0.466486,0
53.4337,-52.7784,-0.474899,0
53.4923,-52.7376,-0.483254,0
53.5499,-52.6955,-0.49154,0
53.6064,-52.652,-0.499753,0
53.6617,-52.6073,-0.507897,0
53.7159,-52.5613,-0.515954,0
53.769,-52.514,-0.523932,0
53.8208,-52.4656,-0.531828,0
53.8714,-52.416,-0.539621,0
53.9207,-52.3653,-0.547321,0
53.9688,-52.3136,-0.554924,0
54.0155,-52.2607,-0.562419,0
54.0609,-52.2068,-0.569806,0
54.1051,-52.152,-0.577077,0
54.1477,-52.0962,-0.584235,0
54.1891,-52.0395,-0.591276,0
54.2291,-51.982,-0.59818,0
54.2677,-51.9235,-0.604977,0
54.3048,-51.8643,-0.611633,0
54.3405,-51.8043,-0.618171,0
54.3747,-51.7436,-0.624557,0
54.4074,-51.6822,-0.630812,0
54.4387,-51.6202,-0.636921,0
54.4685,-51.5575,-0.642892,0
54.4968,-51.4942,-0.648722,0
54.5237,-51.4305,-0.654387,0
54.5498,-51.3666,-0.659606,0
54.575,-51.3024,-0.664499,0
54.5988,-51.2377,-0.669211,0
54.6212,-51.1726,-0.673761,0
54.642,-51.1071,-0.678122,0
54.6615,-51.0413,-0.682311,0
54.6795,-50.975,-0.68632,0
54.696,-50.9085,-0.690148,0
54.712,-50.8419,-0.693522,0
54.7271,-50.7752,-0.69653,0
54.7407,-50.7081,-0.699352,0
54.7529,-50.6408,-0.701999,0
54.7637,-50.5733,-0.70446,0
54.7729,-50.5056,-0.70674,0
54.7808,-50.4377,-0.70882,0
54.7871,-50.3697,-0.710724,0
54.792,-50.3016,-0.712433,0
54.7955,-50.2334,-0.713962,0
54.7974,-50.1652,-0.7153,0
54.798,-50.0969,-0.716447,0
54.797,-50.0287,-0.717399,0
54.7945,-49.9605,-0.718161,0
54.7907,-49.8924,-0.718742,0
50.5451,-52.8514,-0.204328,0
50.6084,-52.8806,-0.21047,0
50.671,-52.9126,-0.214606,0
50.7343,-52.9431,-0.21884,0
50.7984,-52.9722,-0.223171,0
50.8634,-52.9999,-0.227595,0
50.9288,-53.0262,-0.232121,0
50.9951,-53.0509,-0.23673,0
53.8338,-52.3635,-0.537516,0
53.8821,-52.3138,-0.545046,0
53.9291,-52.2631,-0.552487,0
53.9749,-52.2113,-0.559821,0
54.0194,-52.1585,-0.567053,0
54.0625,-52.1047,-0.574177,0
54.1043,-52.0501,-0.581183,0
54.1448,-51.9945,-0.588078,0
54.1838,-51.9381,-0.594845,0
54.2216,-51.8808,-0.601486,0
54.2579,-51.8228,-0.60801,0
54.2928,-51.764,-0.614396,0
54.3262,-51.7045,-0.620656,0
54.3583,-51.6444,-0.626784,0
54.3889,-51.5836,-0.632756,0
54.4181,-51.5222,-0.638595,0
54.447,-51.4608,-0.643884,0
54.4745,-51.3988,-0.649015,0
54.5005,-51.3363,-0.653971,0
54.5251,-51.2733,-0.658757,0
54.5483,-51.2099,-0.663381,0
54.5702,-51.146,-0.667829,0
54.5906,-51.0817,-0.672101,0
54.6096,-51.0171,-0.676203,0
54.6272,-50.9521,-0.680119,0
54.6433,-50.8868,-0.683869,0
54.6594,-50.8216,-0.687013,0
54.6741,-50.7561,-0.689953,0
54.6873,-50.6903,-0.692717,0
54.6992,-50.6242,-0.695304,0
54.7096,-50.558,-0.697702,0
54.7187,-50.4915,-0.699919,0
54.7262,-50.4249,-0.701955,0
54.7323,-50.3582,-0.703801,0
54.737,-50.2913,-0.705471,0
54.7403,-50.2244,-0.706955,0
54.7421,-50.1575,-0.708244,0
54.7425,-50.0905,-0.709352,0
54.7414,-50.0235,-0.71028,0
54.7389,-49.9566,-0.711008,0
54.7351,-49.8898,-0.711564,0
50.5757,-52.8004,-0.207521,0
50.6384,-52.828,-0.214054,0
50.6998,-52.8588,-0.218249,0
50.762,-52.8886,-0.222409,0
50.8249,-52.9169,-0.226667,0
50.8886,-52.9438,-0.231017,0
50.9529,-52.9693,-0.235461,0
51.018,-52.9933,-0.239992,0
51.0836,-53.0159,-0.244611,0
51.1498,-53.0369,-0.249313,0
51.2166,-53.0565,-0.254108,0
51.284,-53.0745,-0.258971,0
51.3518,-53.091,-0.263918,0
51.4202,-53.1059,-0.268937,0
51.4888,-53.1192,-0.27403,0
51.558,-53.1309,-0.279196,0
51.6274,-53.1411,-0.284435,0
51.6971,-53.1496,-0.289728,0
51.7672,-53.1564,-0.295099,0
51.8374,-53.1617,-0.300519,0
51.908,-53.1653,-0.305998,0
51.9785,-53.1672,-0.311535,0
52.0492,-53.1674,-0.317116,0
52.1201,-53.166,-0.322751,0
52.1909,-53.1629,-0.328439,0
52.2618,-53.1581,-0.334152,0
52.3326,-53.1516,-0.339914,0
52.4032,-53.1435,-0.34571,0
52.4737,-53.1336,-0.351535,0
52.5442,-53.1221,-0.357394,0
52.6135,-53.1058,-0.364557,0
52.6807,-53.0828,-0.373859,0
52.7473,-53.0583,-0.383102,0
52.8131,-53.0323,-0.392311,0
52.8784,-53.0049,-0.401452,0
52.9427,-52.9759,-0.410539,0
53.0066,-52.946,-0.419391,0
53.07,-52.9153,-0.427873,0
53.1326,-52.8831,-0.436315,0
53.1943,-52.8495,-0.444728,0
53.2552,-52.8144,-0.453093,0
53.315,-52.7779,-0.461413,0
53.3739,-52.74,-0.469679,0
53.4319,-52.7007,-0.477887,0
53.4888,-52.6601,-0.486032,0
53.5445,-52.6182,-0.494108,0
53.5994,-52.575,-0.502116,0
53.653,-52.5306,-0.510051,0
53.7055,-52.4849,-0.517912,0
53.7569,-52.4381,-0.52568,0
53.807,-52.3901,-0.533356,0
53.8559,-52.3411,-0.540944,0
53.9037,-52.2909,-0.548444,0
53.9502,-52.2396,-0.555837,0
53.9953,-52.1874,-0.563127,0
54.0391,-52.1342,-0.570304,0
54.0817,-52.08,-0.577375,0
54.1229,-52.0249,-0.584328,0
54.1627,-51.969,-0.591164,0
54.2012,-51.9122,-0.597878,0
54.2383,-51.8546,-0.60447,0
54.274,-51.7962,-0.610929,0
54.3082,-51.7371,-0.617258,0
54.341,-51.6773,-0.623464,0
54.3724,-51.6168,-0.629518,0
54.4023,-51.5557,-0.635436,0
54.4314,-51.4943,-0.641017,0
54.4596,-51.4327,-0.646242,0
54.4864,-51.3704,-0.651286,0
54.5118,-51.3077,-0.656169,0
54.5359,-51.2445,-0.660876,0
54.5584,-51.1809,-0.665427,0
54.5797,-51.1168,-0.669797,0
54.5995,-51.0524,-0.673981,0
54.6177,-50.9876,-0.678005,0
54.6347,-50.9225,-0.681843,0
54.6508,-50.8572,-0.685339,0
54.6662,-50.7919,-0.688371,0
54.6802,-50.7262,-0.691237,0
54.6929,-50.6603,-0.693913,0
54.7041,-50.5942,-0.696413,0
54.7139,-50.5278,-0.698732,0
54.7223,-50.4613,-0.700871,0
54.7291,-50.3946,-0.702814,0
54.7346,-50.3278,-0.704587,0
54.7387,-50.2609,-0.706164,0
54.7412,-50.194,-0.70756,0
54.7425,-50.127,-0.708776,0
54.7422,-50.0601,-0.709802,0
54.7405,-49.9931,-0.710636,0
54.7373,-49.9263,-0.711291,0
54.7328,-49.8595,-0.71175,0
50.6041,-52.8131,-0.210485,0
50.6662,-52.842,-0.216012,0
50.728,-52.8725,-0.220124,0
50.7905,-52.9016,-0.224333,0
50.8537,-52.9293,-0.228635,0
50.9177,-52.9556,-0.233029,0
50.9823,-52.9804,-0.237516,0
51.0477,-53.0038,-0.242087,0
51.1137,-53.0257,-0.246735,0
51.1802,-53.046,-0.251481,0
51.2472,-53.0649,-0.25631,0
51.3147,-53.0822,-0.261213,0
51.3828,-53.0979,-0.266193,0
51.4512,-53.1121,-0.271247,0
51.5202,-53.1247,-0.276374,0
51.5895,-53.1357,-0.281569,0
51.6591,-53.1451,-0.286838,0
51.729,-53.1529,-0.292165,0
51.7991,-53.159,-0.297555,0
51.8694,-53.1635,-0.303,0
51.94,-53.1664,-0.308503,0
52.0106,-53.1675,-0.314064,0
52.0814,-53.167,-0.319675,0
52.1523,-53.1648,-0.325329,0
52.2231,-53.1609,-0.331027,0
52.294,-53.1554,-0.336769,0
52.3647,-53.1481,-0.342541,0
52.4353,-53.1392,-0.348356,0
52.5059,-53.1286,-0.354201,0
52.5761,-53.1162,-0.360065,0
52.6441,-53.0955,-0.368791,0
52.7111,-53.0719,-0.378063,0
52.7773,-53.0467,-0.387297,0
52.8429,-53.02,-0.396467,0
52.9077,-52.9919,-0.405588,0
52.9718,-52.9623,-0.41465,0
53.0355,-52.9322,-0.423254,0
53.0985,-52.9008,-0.431716,0
53.1607,-52.868,-0.440143,0
53.222,-52.8337,-0.448532,0
53.2824,-52.798,-0.456882,0
53.3419,-52.7608,-0.465173,0
53.4004,-52.7223,-0.47341,0
53.4579,-52.6824,-0.481594,0
53.5143,-52.6412,-0.489709,0
53.5696,-52.5987,-0.497761,0
53.6239,-52.555,-0.505739,0
53.677,-52.51,-0.513635,0
53.729,-52.4638,-0.521457,0
53.7798,-52.4165,-0.529177,0
53.8295,-52.368,-0.536823,0
53.8778,-52.3184,-0.544362,0
53.9249,-52.2677,-0.551818,0
53.9708,-52.216,-0.559162,0
54.0153,-52.1633,-0.566398,0
54.0586,-52.1097,-0.573532,0
54.1005,-52.0551,-0.580549,0
54.1411,-51.9996,-0.587448,0
54.1804,-51.9433,-0.59423,0
54.2181,-51.8861,-0.600895,0
54.2547,-51.8281,-0.607414,0
54.2897,-51.7694,-0.613825,0
54.3233,-51.71,-0.620099,0
54.3555,-51.6499,-0.626227,0
54.3862,-51.5891,-0.632223,0
54.4155,-51.5278,-0.638083,0
54.4445,-51.4664,-0.64341,0
54.472,-51.4044,-0.648556,0
54.4981,-51.342,-0.653522,0
54.5229,-51.2791,-0.658332,0
54.5462,-51.2157,-0.662966,0
54.5682,-51.1518,-0.667433,0
54.5888,-51.0876,-0.671721,0
54.608,-51.023,-0.675842,0
54.6257,-50.9581,-0.679772,0
54.642,-50.8928,-0.683537,0
54.658,-50.8276,-0.686735,0
54.6728,-50.7621,-0.689704,0
54.6862,-50.6963,-0.692477,0
54.6982,-50.6303,-0.69507,0
54.7087,-50.564,-0.697492,0
54.7179,-50.4976,-0.699723,0
54.7255,-50.431,-0.701774,0
54.7318,-50.3643,-0.703644,0
54.7366,-50.2974,-0.705329,0
54.7401,-50.2305,-0.706823,0
54.742,-50.1636,-0.708132,0
54.7426,-50.0966,-0.709264,0
54.7416,-50.0296,-0.710207,0
54.7392,-49.9627,-0.710954,0
54.7355,-49.8959,-0.71152,0
50.57,-52.7978,-0.20693,0
50.6326,-52.8255,-0.213459,0
50.6942,-52.8561,-0.217863,0
50.7562,-52.8859,-0.222023,0
50.8191,-52.9144,-0.226276,0
50.8828,-52.9414,-0.230617,0
50.947,-52.967,-0.235051,0
51.012,-52.9912,-0.239582,0
53.7933,-52.3172,-0.534792,0
53.8406,-52.2686,-0.542179,0
53.8868,-52.2189,-0.549474,0
53.9316,-52.1682,-0.556667,0
53.9752,-52.1166,-0.563757,0
54.0176,-52.064,-0.570744,0
54.0586,-52.0105,-0.577614,0
54.0984,-51.9561,-0.584367,0
54.1367,-51.9008,-0.591008,0
54.1737,-51.8448,-0.597526,0
54.2094,-51.788,-0.603927,0
54.2437,-51.7304,-0.610192,0
54.2766,-51.6722,-0.61633,0
54.3087,-51.6136,-0.622101,0
54.3398,-51.5546,-0.627619,0
54.3694,-51.4949,-0.632975,0
54.3977,-51.4347,-0.638166,0
54.4248,-51.3739,-0.6432,0
54.4504,-51.3126,-0.648078,0
54.4746,-51.2509,-0.652775,0
54.4975,-51.1886,-0.657326,0
54.519,-51.126,-0.661696,0
54.5391,-51.0629,-0.66589,0
54.5577,-50.9995,-0.669919,0
54.5751,-50.9358,-0.673776,0
54.5912,-50.8718,-0.67738,0
54.607,-50.8078,-0.680451,0
54.6215,-50.7435,-0.683337,0
54.6345,-50.6789,-0.686052,0
54.6462,-50.6141,-0.688591,0
54.6564,-50.5491,-0.690944,0
54.6652,-50.4839,-0.693122,0
54.6727,-50.4185,-0.695124,0
54.6787,-50.353,-0.696935,0
54.6834,-50.2874,-0.698571,0
54.6866,-50.2217,-0.700036,0
54.6884,-50.156,-0.701301,0
54.6887,-50.0903,-0.702394,0
54.6877,-50.0246,-0.703298,0
54.6853,-49.9589,-0.704025,0
54.6815,-49.8933,-0.704562,0
50.5998,-52.7485,-0.210041,0
50.6612,-52.7756,-0.216442,0
50.7221,-52.8042,-0.221393,0
50.7831,-52.8332,-0.225475,0
50.8448,-52.8609,-0.22966,0
50.9073,-52.8872,-0.233928,0
50.9704,-52.9121,-0.238288,0
51.0341,-52.9356,-0.242731,0
51.0985,-52.9576,-0.247262,0
51.1634,-52.9782,-0.251882,0
51.2289,-52.9972,-0.256579,0
51.295,-53.0148,-0.261349,0
51.3615,-53.0309,-0.266198,0
51.4284,-53.0454,-0.27113,0
51.4958,-53.0583,-0.27612,0
51.5634,-53.0698,-0.281188,0
51.6316,-53.0796,-0.28632,0
51.6999,-53.0878,-0.291511,0
51.7685,-53.0945,-0.296769,0
51.8373,-53.0995,-0.302087,0
51.9064,-53.103,-0.307458,0
51.9756,-53.1048,-0.312883,0
52.0449,-53.1049,-0.318361,0
52.1143,-53.1035,-0.323879,0
52.1837,-53.1003,-0.329445,0
52.2531,-53.0956,-0.335055,0
52.3224,-53.0891,-0.34069,0
52.3917,-53.0811,-0.346374,0
52.4608,-53.0713,-0.352082,0
52.5298,-53.0599,-0.357829,0
52.5981,-53.0457,-0.364089,0
52.664,-53.0233,-0.373195,0
52.7293,-52.9994,-0.382272,0
52.7939,-52.974,-0.391286,0
52.8579,-52.9471,-0.400251,0
52.921,-52.9189,-0.409162,0
52.9834,-52.8892,-0.418014,0
53.0452,-52.8581,-0.426789,0
53.106,-52.8257,-0.435495,0
53.1662,-52.7924,-0.443884,0
53.2259,-52.7581,-0.452077,0
53.2845,-52.7225,-0.460221,0
53.3423,-52.6854,-0.468317,0
53.3991,-52.647,-0.476359,0
53.4548,-52.6073,-0.484347,0
53.5096,-52.5663,-0.492253,0
53.5633,-52.5241,-0.500109,0
53.6159,-52.4806,-0.507883,0
53.6674,-52.436,-0.515583,0
53.7177,-52.3902,-0.523195,0
53.7669,-52.3432,-0.530729,0
53.8149,-52.2952,-0.538166,0
53.8618,-52.2461,-0.54551,0
53.9073,-52.196,-0.552756,0
53.9516,-52.1449,-0.559899,0
53.9947,-52.0928,-0.566945,0
54.0364,-52.0398,-0.573884,0
54.0769,-51.9858,-0.58069,0
54.1159,-51.9311,-0.587399,0
54.1537,-51.8755,-0.593986,0
54.1901,-51.8191,-0.600446,0
54.2252,-51.7619,-0.606789,0
54.2589,-51.704,-0.613,0
54.2912,-51.6456,-0.619025,0
54.323,-51.5869,-0.624626,0
54.3534,-51.5275,-0.63007,0
54.3824,-51.4676,-0.635348,0
54.4102,-51.4071,-0.640471,0
54.4366,-51.3461,-0.645436,0
54.4616,-51.2846,-0.650236,0
54.4852,-51.2226,-0.65486,0
54.5073,-51.1602,-0.659328,0
54.5283,-51.0974,-0.66362,0
54.5477,-51.0342,-0.667741,0
54.5658,-50.9706,-0.671696,0
54.5825,-50.9067,-0.675475,0
54.5985,-50.8428,-0.678796,0
54.6138,-50.7786,-0.681779,0
54.6276,-50.7142,-0.684596,0
54.64,-50.6495,-0.687223,0
54.651,-50.5846,-0.689684,0
54.6605,-50.5195,-0.69196,0
