8.47079,1.22569,0.0770441,0
8.39494,1.33834,0.0658918,0
8.35152,1.46027,0.0605402,0
8.30579,1.58128,0.0553938,0
8.25778,1.70132,0.0504621,0
8.20749,1.82038,0.0457258,0
8.15495,1.93839,0.0412141,0
8.10172,2.05611,0.0371613,0
8.04972,2.17456,0.0339094,0
7.99558,2.29225,0.0308918,0
7.93932,2.40912,0.0281086,0
7.88094,2.52519,0.0255695,0
7.82044,2.64041,0.0232746,0
7.75781,2.75477,0.0212336,0
7.69307,2.86826,0.0194172,0
7.62592,2.98062,0.0178254,0
7.52718,3.06954,0.0111652,0
7.42744,3.15624,0.00480782,0
7.32674,3.2407,-0.00125664,0
7.2251,3.32295,-0.00703789,0
7.12257,3.40298,-0.0124969,0
7.01839,3.48006,-0.0178289,0
6.90856,3.55005,-0.0238445,0
6.7984,3.61784,-0.0295281,0
6.68791,3.68342,-0.0348602,0
6.57711,3.74689,-0.0398992,0
6.46601,3.80824,-0.0446062,0
6.35464,3.86748,-0.048991,0
6.24298,3.92467,-0.0530926,0
5.5154,-5.94062,0.600706,0
5.65354,-5.90119,0.599095,0
5.78858,-5.85325,0.596009,0
5.9229,-5.80229,0.592864,0
6.05646,-5.74829,0.589652,0
6.18916,-5.69125,0.586351,0
6.32095,-5.63115,0.582962,0
6.45176,-5.56803,0.579515,0
6.58302,-5.50401,0.576566,0
6.71547,-5.43992,0.574359,0
6.84673,-5.37237,0.571995,0
6.97667,-5.30128,0.569447,0
7.10521,-5.22671,0.566732,0
7.23222,-5.14865,0.563831,0
7.3576,-5.06715,0.560745,0
7.48124,-4.98221,0.557493,0
7.60302,-4.89389,0.554075,0
7.72283,-4.80219,0.550482,0
7.84057,-4.70718,0.546722,0
7.95613,-4.60886,0.542796,0
8.06939,-4.50729,0.538685,0
8.19103,-4.41096,0.53722,0
8.31877,-4.31706,0.537611,0
8.44432,-4.21901,0.537728,0
8.56749,-4.11686,0.537542,0
8.6881,-4.01065,0.537083,0
8.80516,-3.89993,0.536146,0
8.91779,-3.78444,0.534573,0
9.02714,-3.66513,0.532698,0
9.13301,-3.54203,0.530482,0
9.23522,-3.41527,0.527943,0
9.3336,-3.28497,0.525091,0
9.42797,-3.15119,0.521888,0
9.51816,-3.01413,0.518382,0
9.604,-2.87387,0.514554,0
9.68534,-2.73055,0.510384,0
9.76201,-2.58435,0.505892,0
9.83388,-2.43541,0.501087,0
9.90079,-2.2839,0.49596,0
9.96263,-2.12999,0.490511,0
9.99079,-1.96743,0.479544,0
9.99572,-1.80058,0.46515,0
9.99219,-1.63355,0.450101,0
9.9774,-1.46633,0.433909,0
9.83246,-1.28373,0.395765,0
9.68575,-1.10873,0.358626,0
9.53778,-0.94123,0.322493,0
9.38904,-0.781152,0.287425,0
9.23996,-0.628369,0.253402,0
9.09741,-0.482832,0.221527,0
9.07606,-0.343281,0.210872,0
9.05106,-0.204805,0.200277,0
9.02248,-0.0675,0.189779,0
8.99038,0.0685352,0.179349,0
8.95483,0.203213,0.169017,0
8.91591,0.336426,0.158782,0
8.87369,0.468115,0.148646,0
8.82823,0.598174,0.138626,0
8.77963,0.726504,0.128753,0
8.72795,0.853066,0.118978,0
8.67329,0.977764,0.109339,0
8.58601,1.09271,0.0950617,0
8.49103,1.20279,0.0801398,0
8.40384,1.31237,0.0670539,0
8.36091,1.43451,0.0616633,0
8.31567,1.55571,0.0564777,0
8.26814,1.67598,0.0514875,0
8.21834,1.79522,0.0467219,0
8.16628,1.9135,0.0421418,0
8.11247,2.03091,0.0379035,0
8.06091,2.14953,0.0345832,0
8.00723,2.26737,0.031507,0
7.95142,2.38442,0.028675,0
7.89348,2.50066,0.0260969,0
7.83343,2.61607,0.0237434,0
7.77126,2.73062,0.0216535,0
7.70696,2.84429,0.0197883,0
7.64055,2.95704,0.0181867,0
7.54818,3.0509,0.012552,0
7.44865,3.13809,0.00611641,0
7.34815,3.223,3.12805e-06,0
7.24671,3.30569,-0.00581718,0
7.14437,3.3862,-0.0113641,0
7.04114,3.46451,-0.016618,0
6.93186,3.5354,-0.0225945,0
6.82176,3.60365,-0.0283465,0
6.71134,3.66973,-0.0337664,0
6.6006,3.73364,-0.0388641,0
6.48957,3.79542,-0.0436297,0
6.37826,3.85511,-0.0480926,0
6.26666,3.91273,-0.052243,0
5.62441,-5.91002,0.599495,0
5.76003,-5.86367,0.596673,0
5.89451,-5.81335,0.593548,0
6.02822,-5.76,0.590345,0
6.16111,-5.7036,0.587064,0
6.2931,-5.64413,0.583685,0
6.42413,-5.58167,0.580267,0
6.55481,-5.51715,0.577025,0
6.6875,-5.45381,0.574847,0
6.81903,-5.38697,0.572513,0
6.94926,-5.31662,0.570003,0
7.07811,-5.24278,0.567308,0
7.20545,-5.16546,0.564446,0
7.33118,-5.08469,0.5614,0
7.4552,-5.0005,0.558206,0
7.57738,-4.91289,0.554827,0
7.69762,-4.82191,0.551273,0
7.81581,-4.72759,0.547542,0
7.93184,-4.62996,0.543646,0
8.0456,-4.52909,0.539583,0
8.16372,-4.43031,0.537103,0
8.29189,-4.33729,0.537542,0
8.41792,-4.24012,0.537718,0
8.54161,-4.13884,0.537611,0
8.66278,-4.03348,0.53721,0
8.7809,-3.92389,0.536429,0
8.89419,-3.80925,0.534935,0
9.00424,-3.69074,0.533128,0
9.11087,-3.56843,0.53097,0
9.21388,-3.44244,0.528509,0
9.31309,-3.31288,0.525726,0
9.40832,-3.17982,0.522601,0
9.49941,-3.04344,0.519163,0
9.58619,-2.90384,0.515384,0
9.66849,-2.76115,0.511292,0
9.74617,-2.61555,0.506868,0
9.81906,-2.46718,0.502132,0
9.88704,-2.31619,0.497073,0
9.94996,-2.1628,0.491693,0
9.98865,-2.00271,0.482503,0
9.99539,-1.83595,0.468255,0
9.99363,-1.66892,0.453333,0
9.98351,-1.50205,0.437786,0
9.86332,-1.32176,0.403753,0
9.71696,-1.14518,0.366419,0
9.56921,-0.976084,0.330062,0
9.42058,-0.814453,0.294769,0
9.27155,-0.660127,0.260511,0
9.12248,-0.512998,0.227337,0
9.08088,-0.372773,0.213128,0
9.05665,-0.234062,0.202523,0
9.02883,-0.0964941,0.191995,0
8.99747,0.039834,0.181536,0
8.96265,0.174795,0.171204,0
8.92444,0.30834,0.160941,0
8.88291,0.440352,0.150784,0
8.83813,0.570752,0.140745,0
8.79019,0.699473,0.130833,0
8.73915,0.826396,0.121038,0
8.68511,0.951514,0.11137,0
8.606,1.06896,0.0982844,0
8.51123,1.17975,0.0832648,0
8.41551,1.28729,0.0686848,0
8.37019,1.40871,0.0627863,0
8.32544,1.53013,0.057552,0
8.2784,1.65058,0.0525324,0
8.22907,1.77006,0.0477082,0
8.17749,1.88853,0.0431086,0
8.12366,2.00593,0.0387141,0
8.07201,2.12447,0.0352668,0
8.01877,2.24248,0.0321418,0
7.96341,2.35972,0.0292512,0
7.90593,2.47611,0.0266242,0
7.84634,2.59169,0.0242219,0
7.78461,2.7064,0.0220832,0
7.72076,2.82028,0.0201496,0
7.6548,2.93324,0.0184992,0
7.56915,3.03214,0.0139484,0
7.46983,3.11979,0.0074543,0
7.36952,3.2052,0.00127266,0
7.26828,3.28837,-0.00460625,0
7.16612,3.36935,-0.0102215,0
7.06308,3.44811,-0.0155242,0
6.95514,3.52067,-0.0213348,0
6.84511,3.58938,-0.0271551,0
6.73475,3.6559,-0.0326434,0
6.62409,3.72028,-0.0378094,0
6.51311,3.78253,-0.0426629,0
6.40186,3.84264,-0.0471746,0
6.29032,3.90068,-0.0513836,0
5.85005,-5.60046,0.58804,0
5.97852,-5.54727,0.584925,0
6.10613,-5.49111,0.581693,0
6.23282,-5.43201,0.578402,0
6.35853,-5.37003,0.575071,0
6.48317,-5.30512,0.571644,0
6.6067,-5.23729,0.568148,0
6.72904,-5.16655,0.564593,0
6.85011,-5.09294,0.56095,0
6.96986,-5.01646,0.557259,0
7.08822,-4.9371,0.553509,0
7.20519,-4.85501,0.54973,0
7.32277,-4.77225,0.546527,0
7.43853,-4.68629,0.543196,0
7.55235,-4.59714,0.539681,0
7.66415,-4.50483,0.536009,0
7.77381,-4.40942,0.532191,0
7.88123,-4.31094,0.528196,0
7.98632,-4.20944,0.524046,0
8.08896,-4.10497,0.51973,0
8.2014,-4.00623,0.518411,0
8.31573,-3.90682,0.517923,0
8.42627,-3.80286,0.516849,0
8.53399,-3.69522,0.515501,0
8.63871,-3.58397,0.513851,0
8.74027,-3.46917,0.511898,0
8.8385,-3.3509,0.509632,0
8.93324,-3.22929,0.507083,0
9.02432,-3.10438,0.504212,0
9.11159,-2.97633,0.501038,0
9.18773,-2.84239,0.496077,0
9.2456,-2.70064,0.487904,0
9.29614,-2.55619,0.478968,0
9.33922,-2.40932,0.469222,0
9.37475,-2.26047,0.458743,0
9.40271,-2.10997,0.447542,0
9.42306,-1.95821,0.435648,0
9.43582,-1.80558,0.423089,0
9.44106,-1.65246,0.409935,0
9.43884,-1.49924,0.396204,0
9.34246,-1.33314,0.365921,0
9.22293,-1.1697,0.332562,0
9.10114,-1.01247,0.299945,0
8.97755,-0.861445,0.268118,0
8.86071,-0.717061,0.238558,0
8.8476,-0.58207,0.228275,0
8.83091,-0.447871,0.21804,0
8.8107,-0.314561,0.207855,0
8.78703,-0.182266,0.197738,0
8.75994,-0.0510645,0.187689,0
8.72951,0.0789551,0.177728,0
8.6958,0.207695,0.167855,0
8.65886,0.335078,0.15806,0
8.61878,0.460996,0.148382,0
8.57561,0.5854,0.138812,0
8.52944,0.708184,0.129339,0
8.48033,0.829307,0.119993,0
8.42836,0.948662,0.110784,0
8.35485,1.06119,0.098509,0
8.27055,1.16852,0.0850324,0
8.23083,1.28761,0.0796418,0
8.18884,1.40584,0.0744465,0
8.1446,1.52318,0.0694367,0
8.09986,1.64023,0.0649641,0
8.05544,1.75753,0.0610969,0
8.00893,1.8741,0.0574641,0
7.96034,1.98992,0.0540852,0
7.90966,2.105,0.0509406,0
7.8569,2.21933,0.0480012,0
7.80207,2.33284,0.0453254,0
7.74516,2.44556,0.0428742,0
7.68617,2.55741,0.040677,0
7.62511,2.66844,0.0387043,0
7.56198,2.77856,0.0369953,0
7.49056,2.88327,0.0343488,0
7.39533,2.97003,0.0278059,0
7.29909,3.05462,0.0215656,0
7.20187,3.13704,0.0156086,0
7.1037,3.2173,0.0099543,0
7.00463,3.29544,0.00456367,0
6.90466,3.37145,-0.000533981,0
6.80384,3.44535,-0.0053582,0
6.69894,3.51369,-0.0106023,0
6.59184,3.57806,-0.0158953,0
6.4844,3.64033,-0.0208758,0
6.37663,3.70055,-0.0255437,0
6.26854,3.75872,-0.029909,0
6.16014,3.81485,-0.0339617,0
5.42846,-5.74281,0.595355,0
5.56156,-5.70437,0.593851,0
5.69331,-5.66105,0.591771,0
5.82273,-5.61139,0.588714,0
5.95138,-5.55878,0.585579,0
6.07917,-5.50325,0.582386,0
6.20607,-5.44479,0.579114,0
6.33198,-5.3834,0.575765,0
6.45686,-5.31911,0.572376,0
6.58063,-5.25188,0.56889,0
6.70322,-5.18178,0.565345,0
6.82457,-5.10876,0.561722,0
6.94461,-5.0329,0.55805,0
7.06326,-4.95414,0.55431,0
7.18047,-4.87257,0.550511,0
7.29801,-4.79006,0.54723,0
7.41416,-4.70476,0.5439,0
7.5284,-4.61628,0.540443,0
7.64064,-4.52465,0.53681,0
7.75076,-4.42988,0.533001,0
7.85867,-4.33205,0.529046,0
7.96426,-4.2312,0.524935,0
8.06742,-4.12734,0.520648,0
8.17674,-4.02673,0.51845,0
8.29196,-3.92837,0.518118,0
8.40308,-3.8252,0.517103,0
8.51141,-3.71834,0.515823,0
8.61679,-3.60783,0.514222,0
8.71903,-3.49377,0.512327,0
8.81798,-3.37624,0.51014,0
8.91347,-3.25532,0.50765,0
9.00534,-3.13109,0.504837,0
9.09343,-3.00373,0.501751,0
9.17453,-2.87205,0.497698,0
9.23395,-2.73093,0.4897,0
9.28605,-2.58699,0.480911,0
9.33071,-2.44062,0.471351,0
9.36786,-2.29215,0.461019,0
9.39742,-2.14196,0.449974,0
9.41938,-1.99044,0.438216,0
9.43375,-1.83796,0.425794,0
9.44057,-1.68493,0.412777,0
9.43993,-1.53169,0.399154,0
9.36744,-1.36857,0.373089,0
9.24846,-1.20381,0.339564,0
9.12711,-1.04525,0.30679,0
9.00386,-0.89293,0.274798,0
8.87914,-0.746777,0.243616,0
8.85068,-0.610605,0.230452,0
8.83474,-0.476221,0.220198,0
8.81528,-0.342734,0.210013,0
8.79233,-0.210195,0.199866,0
8.76596,-0.07875,0.189818,0
8.73623,0.0515234,0.179827,0
8.70321,0.180527,0.169945,0
8.66695,0.308193,0.16014,0
8.62753,0.434434,0.150433,0
8.58501,0.55916,0.140833,0
8.53947,0.682305,0.131341,0
8.49098,0.803799,0.121956,0
8.43961,0.923535,0.112718,0
8.37365,1.03838,0.101605,0
8.2845,1.14484,0.0871906,0
8.23943,1.26244,0.0807746,0
8.19792,1.38088,0.0755207,0
8.15416,1.49839,0.0704914,0
8.109,1.61532,0.0657941,0
8.06502,1.73273,0.0619074,0
8.01896,1.84945,0.0582258,0
7.97081,1.96544,0.0547883,0
7.92057,2.08067,0.0515949,0
7.86825,2.19516,0.0486164,0
7.81386,2.30886,0.045882,0
7.75739,2.42175,0.0433723,0
7.69884,2.5338,0.0411164,0
7.63822,2.645,0.0390949,0
7.57553,2.7553,0.0373371,0
7.5106,2.86462,0.0357648,0
7.41559,2.95184,0.0291633,0
7.31956,3.03689,0.0228547,0
7.22255,3.11975,0.0168586,0
7.12458,3.20048,0.0111262,0
7.02569,3.27908,0.00567696,0
6.92591,3.35554,0.000510941,0
6.82527,3.42986,-0.00435234,0
6.72157,3.49977,-0.00943047,0
6.61456,3.56461,-0.0148113,0
6.50719,3.62731,-0.0198504,0
6.39949,3.68798,-0.0245867,0
6.29147,3.74657,-0.0290203,0
6.18313,3.80312,-0.0331219,0
5.53339,-5.71276,0.594173,0
5.6658,-5.67119,0.592405,0
5.79538,-5.62214,0.589359,0
5.92418,-5.57019,0.586253,0
6.05216,-5.51524,0.58306,0
6.17925,-5.45742,0.579818,0
6.30539,-5.39666,0.576487,0
6.43049,-5.33297,0.573089,0
6.5545,-5.26638,0.569642,0
6.67735,-5.19687,0.566097,0
6.79897,-5.12446,0.562493,0
6.91929,-5.04922,0.558841,0
7.03825,-4.97107,0.555111,0
7.15576,-4.89009,0.551321,0
7.27317,-4.8077,0.547903,0
7.38971,-4.7231,0.544632,0
7.50437,-4.63528,0.541185,0
7.61704,-4.54431,0.537581,0
7.72762,-4.4502,0.533821,0
7.83601,-4.35303,0.529905,0
7.94209,-4.25281,0.525823,0
8.04578,-4.1496,0.521575,0
8.15199,-4.04703,0.51847,0
8.26794,-3.94964,0.518255,0
8.37977,-3.84737,0.517357,0
8.4887,-3.74127,0.516107,0
8.59471,-3.63156,0.514593,0
8.69763,-3.51824,0.512757,0
8.79729,-3.40143,0.510618,0
8.89353,-3.28121,0.508196,0
8.98618,-3.1577,0.505462,0
9.07509,-3.03096,0.502415,0
9.16009,-2.90116,0.499085,0
9.22197,-2.76106,0.491468,0
9.27563,-2.6177,0.482845,0
9.32188,-2.4718,0.473431,0
9.36062,-2.32375,0.463275,0
9.39179,-2.17391,0.452376,0
9.41536,-2.02263,0.440755,0
9.43134,-1.87034,0.428499,0
9.43975,-1.71737,0.415579,0
9.44068,-1.56415,0.402093,0
9.39229,-1.40426,0.380277,0
9.27387,-1.23817,0.346605,0
9.15299,-1.07832,0.313665,0
9.03011,-0.924678,0.281507,0
8.90566,-0.777227,0.250159,0
8.85359,-0.63918,0.23263,0
8.83842,-0.504619,0.222366,0
8.81969,-0.370918,0.212161,0
8.79748,-0.238193,0.202015,0
8.77183,-0.106514,0.191937,0
8.74281,0.0240039,0.181946,0
8.71048,0.153311,0.172025,0
8.6749,0.28127,0.16221,0
8.63615,0.407812,0.152484,0
8.59428,0.532861,0.142864,0
8.54937,0.656367,0.133343,0
8.50149,0.778203,0.123939,0
8.45073,0.89832,0.114661,0
8.3924,1.01542,0.10472,0
8.30347,1.12255,0.090218,0
8.24793,1.23727,0.0818977,0
8.2069,1.35585,0.076634,0
8.16361,1.47358,0.0715363,0
8.11809,1.59036,0.066673,0
8.07451,1.70792,0.0627082,0
8.02889,1.82479,0.0589875,0
7.98118,1.94094,0.0554914,0
7.93139,2.05635,0.0522297,0
7.87951,2.17097,0.0492316,0
7.82555,2.28484,0.0464387,0
7.76952,2.3979,0.0438898,0
7.71142,2.51011,0.0415852,0
7.65124,2.62148,0.0395246,0
7.58899,2.732,0.0376887,0
7.52466,2.84162,0.0361066,0
7.43581,2.93354,0.0305402,0
7.33999,3.01904,0.024173,0
7.24318,3.10239,0.0180891,0
7.14541,3.18356,0.0123078,0
7.04671,3.2626,0.00680977,0
6.94712,3.3395,0.00159492,0
6.84666,3.4143,-0.00335625,0
6.7442,3.48577,-0.00825859,0
6.63726,3.55104,-0.013698,0
6.52996,3.61421,-0.0188152,0
6.42233,3.6753,-0.0236102,0
6.31437,3.73433,-0.0281023,0
6.2061,3.79133,-0.032282,0
5.75538,-5.42217,0.584173,0
5.87928,-5.37033,0.581136,0
6.00232,-5.31566,0.57803,0
6.12445,-5.25813,0.574827,0
6.24561,-5.19783,0.571595,0
6.36571,-5.1347,0.568275,0
6.48471,-5.06876,0.564886,0
6.60254,-5.00004,0.561448,0
6.71913,-4.92853,0.557933,0
6.8344,-4.85425,0.554359,0
6.94831,-4.77722,0.550726,0
7.06077,-4.69746,0.547034,0
7.17172,-4.61498,0.543284,0
7.28109,-4.5298,0.539476,0
7.38882,-4.44197,0.535618,0
7.49483,-4.35147,0.531702,0
7.59906,-4.25834,0.527737,0
7.70143,-4.16262,0.523714,0
7.80188,-4.06432,0.519642,0
7.90034,-3.9635,0.51553,0
7.974,-3.84428,0.505374,0
8.0379,-3.71907,0.493489,0
8.0982,-3.59253,0.481536,0
8.18281,-3.48146,0.47639,0
8.2769,-3.37505,0.474114,0
8.36587,-3.26437,0.471058,0
8.44945,-3.14967,0.467239,0
8.5274,-3.03113,0.462659,0
8.59952,-2.90907,0.457337,0
8.66558,-2.78368,0.451243,0
8.72541,-2.65528,0.444417,0
8.77885,-2.52415,0.436859,0
8.82578,-2.39057,0.428587,0
8.86611,-2.25489,0.419642,0
8.89974,-2.11743,0.410032,0
8.92664,-1.97847,0.399759,0
8.94679,-1.83839,0.38889,0
8.96021,-1.69749,0.377435,0
8.96692,-1.5561,0.365423,0
8.93043,-1.40822,0.345814,0
8.83375,-1.25414,0.31557,0
8.73406,-1.1052,0.285863,0
8.63178,-0.961465,0.256751,0
8.62493,-0.830781,0.246439,0
8.61664,-0.700859,0.236556,0
8.60489,-0.571562,0.226712,0
8.58974,-0.442969,0.216898,0
8.57121,-0.315234,0.207152,0
8.54938,-0.188398,0.197454,0
8.52429,-0.0625781,0.187835,0
8.49599,0.0621582,0.178275,0
8.46454,0.185703,0.168802,0
8.43001,0.307988,0.159398,0
8.39246,0.428896,0.150111,0
8.35194,0.548408,0.140911,0
8.30854,0.666416,0.13181,0
8.26231,0.782852,0.122835,0
8.21332,0.897656,0.113968,0
8.15872,1.00997,0.10471,0
8.11476,1.12429,0.0978938,0
8.07972,1.24095,0.0932551,0
8.04262,1.35699,0.088841,0
8.00345,1.47239,0.084632,0
7.96223,1.58713,0.080677,0
7.91896,1.70117,0.0769367,0
7.87363,1.81455,0.0734016,0
7.82627,1.92719,0.0701106,0
7.77686,2.03904,0.0670734,0
7.72542,2.15018,0.0642512,0
7.67194,2.26052,0.0616535,0
7.61643,2.37005,0.0592902,0
7.5589,2.47876,0.0571613,0
7.49933,2.58658,0.0552863,0
7.43774,2.69357,0.0536262,0
7.36261,2.79126,0.0499641,0
7.27067,2.87592,0.0435578,0
7.17771,2.9585,0.0374152,0
7.08375,3.03897,0.0315656,0
6.98884,3.11737,0.0259895,0
6.893,3.19368,0.0207063,0
6.79626,3.26795,0.0156867,0
6.69866,3.34014,0.0109504,0
6.60023,3.4103,0.00645821,0
6.50046,3.47782,0.0021418,0
6.3962,3.53895,-0.00278984,0
6.29157,3.59807,-0.00741875,0
6.18658,3.65517,-0.0117352,0
6.08127,3.71031,-0.0157684,0
5.34721,-5.55794,0.590355,0
5.47549,-5.52021,0.58888,0
5.60335,-5.47953,0.587308,0
5.72903,-5.43278,0.584798,0
5.8531,-5.38153,0.581771,0
5.97633,-5.32745,0.578675,0
6.09867,-5.27058,0.575521,0
6.22003,-5.21084,0.572278,0
6.34036,-5.1483,0.568978,0
6.4596,-5.08296,0.565609,0
6.57768,-5.01483,0.562181,0
6.69453,-4.9439,0.558685,0
6.81009,-4.87021,0.55512,0
6.92429,-4.79378,0.551507,0
7.03707,-4.71457,0.547816,0
7.14834,-4.63269,0.544085,0
7.25806,-4.54809,0.540296,0
7.36614,-4.46079,0.536439,0
7.47251,-4.37084,0.532523,0
7.57713,-4.27829,0.528587,0
7.6799,-4.1831,0.524554,0
7.78076,-4.08537,0.520521,0
7.87965,-3.98506,0.5164,0
7.96,-3.87062,0.507884,0
8.02467,-3.74572,0.496019,0
8.08573,-3.61943,0.484066,0
8.16225,-3.50346,0.47678,0
8.25739,-3.39794,0.474652,0
8.34746,-3.28815,0.471761,0
8.43221,-3.17427,0.468109,0
8.51137,-3.05657,0.463704,0
8.58474,-2.93522,0.458538,0
8.65209,-2.81052,0.452591,0
8.71325,-2.68272,0.445921,0
8.76806,-2.55215,0.438529,0
8.81639,-2.41906,0.430404,0
8.85812,-2.28381,0.421595,0
8.89317,-2.14668,0.412113,0
8.92151,-2.00801,0.401986,0
8.94309,-1.86814,0.391243,0
8.95793,-1.72738,0.379905,0
8.96605,-1.58606,0.368001,0
8.95048,-1.44151,0.352288,0
8.85449,-1.28635,0.321927,0
8.7554,-1.13633,0.292112,0
8.65365,-0.991465,0.262855,0
8.62624,-0.858379,0.248538,0
8.61868,-0.72834,0.238655,0
8.60767,-0.598896,0.228792,0
8.59323,-0.470146,0.218968,0
8.57541,-0.342207,0.209202,0
8.55428,-0.215176,0.199495,0
8.52987,-0.0891211,0.189857,0
8.50224,0.0358398,0.180286,0
8.47146,0.159648,0.170784,0
8.43758,0.282197,0.16137,0
8.40066,0.403398,0.152073,0
8.36077,0.523213,0.142855,0
8.31797,0.641553,0.133724,0
8.27234,0.75832,0.12473,0
8.22393,0.873486,0.115833,0
8.17282,0.986943,0.107064,0
8.12234,1.09961,0.0989875,0
8.08732,1.21629,0.0942121,0
8.05065,1.33247,0.0897492,0
8.01192,1.44801,0.0855012,0
7.97114,1.56289,0.0814875,0
7.9283,1.67708,0.0777082,0
7.88341,1.79058,0.0741438,0
7.83647,1.90338,0.0707941,0
7.7875,2.01542,0.0676984,0
7.73649,2.12669,0.0648371,0
7.68344,2.23721,0.0621809,0
7.62836,2.34691,0.0597688,0
7.57125,2.45579,0.0576008,0
7.51212,2.56383,0.0556574,0
7.45096,2.67099,0.0539582,0
7.38195,2.77306,0.0513605,0
7.29023,2.85816,0.0448859,0
7.19748,2.94118,0.0386945,0
7.10374,3.0221,0.0327766,0
7.00903,3.10094,0.0271516,0
6.91338,3.17771,0.0217902,0
6.81683,3.25238,0.0167316,0
6.71941,3.32501,0.011927,0
6.62115,3.3956,0.00739571,0
6.52207,3.46413,0.00313789,0
6.41831,3.52616,-0.00176445,0
6.31376,3.58572,-0.00646172,0
6.20885,3.64325,-0.0108562,0
6.1036,3.69881,-0.014948,0
5.44834,-5.52845,0.589202,0
5.5763,-5.48841,0.587659,0
5.70265,-5.44328,0.585443,0
5.82688,-5.39265,0.582435,0
5.95029,-5.33918,0.579359,0
6.07282,-5.28285,0.576195,0
6.1944,-5.22373,0.572972,0
6.31495,-5.16179,0.569681,0
6.43443,-5.09704,0.566331,0
6.55276,-5.02949,0.562913,0
6.66988,-4.95917,0.559437,0
6.78572,-4.88605,0.555882,0
6.90022,-4.8102,0.552279,0
7.0133,-4.73158,0.548607,0
7.1249,-4.65026,0.544876,0
7.23495,-4.56622,0.541097,0
7.34338,-4.4795,0.537259,0
7.45013,-4.39014,0.533372,0
7.55512,-4.29811,0.529417,0
7.65829,-4.20348,0.525413,0
7.75957,-4.10627,0.521361,0
7.85887,-4.00652,0.517288,0
7.94585,-3.89691,0.510404,0
8.01127,-3.77229,0.498538,0
8.0731,-3.64628,0.486595,0
8.14148,-3.52523,0.477132,0
8.23764,-3.42065,0.475159,0
8.32881,-3.31177,0.472445,0
8.41471,-3.19876,0.468968,0
8.49508,-3.08182,0.46471,0
8.56969,-2.96123,0.4597,0
8.63834,-2.83721,0.453919,0
8.70082,-2.71005,0.447405,0
8.75699,-2.58002,0.44015,0
8.8067,-2.44744,0.432171,0
8.84983,-2.31263,0.423519,0
8.88631,-2.17587,0.414173,0
8.91607,-2.03749,0.404183,0
8.93908,-1.89785,0.393568,0
8.95535,-1.75727,0.382357,0
8.96489,-1.61604,0.37057,0
8.96776,-1.47452,0.358255,0
8.87509,-1.3188,0.328333,0
8.77663,-1.16768,0.298382,0
8.67541,-1.02173,0.269017,0
8.62739,-0.886016,0.250648,0
8.62057,-0.75583,0.240736,0
8.61029,-0.62625,0.230872,0
8.59657,-0.497344,0.221038,0
8.57947,-0.369238,0.211273,0
8.55903,-0.242031,0.201566,0
8.53531,-0.115752,0.191888,0
8.50837,0.00945312,0.182308,0
8.47825,0.133506,0.172796,0
8.44502,0.256328,0.163372,0
8.40874,0.377842,0.154027,0
8.36947,0.497949,0.144798,0
8.32728,0.616611,0.135657,0
8.28224,0.733721,0.126624,0
8.23441,0.849229,0.117708,0
8.18387,0.963057,0.108909,0
8.13009,1.07499,0.10013,0
8.09482,1.1916,0.0951887,0
8.05859,1.30793,0.0906672,0
8.0203,1.42358,0.0863898,0
7.97994,1.53862,0.0823078,0
7.93754,1.65296,0.0784797,0
7.89308,1.7666,0.0748762,0
7.84659,1.87954,0.0714875,0
7.79804,1.99175,0.0683332,0
7.74746,2.10319,0.0654133,0
7.69485,2.21387,0.062718,0
7.6402,2.32375,0.060257,0
7.58353,2.43278,0.0580402,0
7.52482,2.541,0.0560481,0
7.46409,2.64833,0.0543098,0
7.40124,2.75474,0.0527766,0
7.30975,2.84032,0.0462238,0
7.21722,2.92377,0.0399738,0
7.12368,3.00513,0.034007,0
7.02917,3.08441,0.0283137,0
6.93372,3.16159,0.022923,0
6.83736,3.23674,0.0177766,0
6.74012,3.30979,0.012923,0
6.64203,3.38083,0.00832344,0
6.54313,3.44978,0.00402657,0
6.44042,3.51329,-0.000729294,0
6.33594,3.57328,-0.00550468,0
6.2311,3.63122,-0.00993828,0
6.12592,3.6872,-0.0140984,0
5.66664,-5.255,0.58053,0
5.78627,-5.2045,0.577601,0
5.90504,-5.15122,0.574564,0
6.02292,-5.09524,0.571497,0
6.13982,-5.03652,0.568343,0
6.25569,-4.97508,0.56512,0
6.37048,-4.91097,0.561859,0
6.4841,-4.84413,0.558509,0
6.5965,-4.77462,0.555111,0
6.70761,-4.70242,0.551634,0
6.81738,-4.62761,0.548128,0
6.92572,-4.55017,0.544564,0
7.03259,-4.47008,0.540931,0
7.1379,-4.38742,0.537249,0
7.24161,-4.30216,0.533489,0
7.34363,-4.21438,0.52971,0
7.44392,-4.12407,0.525872,0
7.54239,-4.03126,0.521986,0
7.63763,-3.93496,0.517669,0
7.70631,-3.81827,0.506468,0
7.77162,-3.70006,0.495169,0
7.83353,-3.5804,0.483792,0
7.89201,-3.45943,0.472347,0
7.94706,-3.33726,0.460833,0
7.99865,-3.21398,0.449261,0
8.04679,-3.08974,0.43765,0
8.09146,-2.96461,0.425999,0
8.14385,-2.84412,0.416995,0
8.21022,-2.73022,0.411946,0
8.27116,-2.61338,0.406234,0
8.32651,-2.49386,0.399857,0
8.37614,-2.37187,0.392825,0
8.41994,-2.2477,0.38515,0
8.45782,-2.12163,0.376859,0
8.48972,-1.99396,0.367982,0
8.51558,-1.86493,0.358509,0
8.53539,-1.73487,0.348499,0
8.54916,-1.60407,0.337972,0
8.5569,-1.47277,0.326927,0
8.48069,-1.32779,0.29973,0
8.40037,-1.18685,0.272757,0
8.40324,-1.0611,0.263216,0
8.40271,-0.935625,0.253685,0
8.3988,-0.810518,0.244183,0
8.39155,-0.685908,0.23471,0
8.381,-0.561855,0.225257,0
8.36719,-0.438457,0.215853,0
8.35016,-0.31584,0.206497,0
8.32996,-0.194053,0.1972,0
8.30664,-0.0731836,0.187943,0
8.28024,0.0466504,0.178763,0
8.25083,0.165391,0.169652,0
8.21845,0.28293,0.160638,0
8.18317,0.399229,0.151702,0
8.14504,0.514209,0.142845,0
8.10756,0.628447,0.13473,0
8.0749,0.743047,0.128099,0
8.04009,0.856777,0.121673,0
8.01061,0.971592,0.11682,0
7.98008,1.08619,0.112347,0
7.94598,1.19975,0.107835,0
7.90985,1.31271,0.103529,0
7.87169,1.42502,0.0994563,0
7.83152,1.5367,0.0955891,0
7.78934,1.64769,0.0919563,0
7.74515,1.758,0.0885383,0
7.69895,1.86759,0.0853547,0
7.65076,1.97642,0.0823957,0
7.60057,2.08452,0.0796613,0
7.54839,2.19186,0.0771418,0
7.49422,2.29837,0.0748664,0
7.43807,2.40406,0.0728254,0
7.37993,2.5089,0.0710187,0
7.31981,2.61288,0.0694367,0
7.24146,2.70414,0.0647688,0
7.15261,2.78681,0.0584504,0
7.06273,2.86746,0.052425,0
6.97184,2.94606,0.0466828,0
6.87998,3.02265,0.0412141,0
6.78719,3.09723,0.036009,0
6.6935,3.1698,0.0310676,0
6.59893,3.24038,0.0263898,0
6.50351,3.30896,0.0219855,0
6.40728,3.37553,0.0178645,0
6.31025,3.44015,0.0139777,0
6.21051,3.50042,0.00985664,0
6.10847,3.55649,0.0055793,0
6.00607,3.61064,0.00158516,0
5.27109,-5.38475,0.585677,0
5.39487,-5.34771,0.584222,0
5.51822,-5.30786,0.582708,0
5.64108,-5.26516,0.581087,0
5.76099,-5.21541,0.578216,0
5.87996,-5.16273,0.575218,0
5.99803,-5.10731,0.572142,0
6.11514,-5.04918,0.569007,0
6.23124,-4.98833,0.565814,0
6.34626,-4.92475,0.562532,0
6.46013,-4.8585,0.559202,0
6.57279,-4.78956,0.555833,0
6.68418,-4.71796,0.552386,0
6.79424,-4.64367,0.54887,0
6.90289,-4.56678,0.545316,0
7.01007,-4.48727,0.541702,0
7.11573,-4.40513,0.538021,0
7.21978,-4.32044,0.53429,0
7.32216,-4.23318,0.530511,0
7.42282,-4.14342,0.526693,0
7.52168,-4.05113,0.522816,0
7.61868,-3.95637,0.51888,0
7.69204,-3.84312,0.508841,0
7.75807,-3.72522,0.497571,0
7.8207,-3.60587,0.486214,0
7.87991,-3.48515,0.474769,0
7.93569,-3.36322,0.463265,0
7.98801,-3.24021,0.451732,0
8.03688,-3.11614,0.44012,0
8.08229,-2.99118,0.42847,0
8.12911,-2.86786,0.417991,0
8.19661,-2.75461,0.413079,0
8.25871,-2.63839,0.407503,0
8.31525,-2.51937,0.401253,0
8.36611,-2.3979,0.394359,0
8.41115,-2.27418,0.386829,0
8.45029,-2.14849,0.378665,0
8.48346,-2.02111,0.369905,0
8.5106,-1.89235,0.36056,0
8.5317,-1.76249,0.350667,0
8.54674,-1.63182,0.340237,0
8.55576,-1.50061,0.3293,0
8.49743,-1.35822,0.305521,0
8.41709,-1.21626,0.278323,0
8.40292,-1.08771,0.265238,0
8.4031,-0.962168,0.255706,0
8.39991,-0.837002,0.246204,0
8.39336,-0.712275,0.236722,0
8.38351,-0.588086,0.227259,0
8.37039,-0.464531,0.217835,0
8.35404,-0.341748,0.20848,0
8.33451,-0.219766,0.199154,0
8.31184,-0.0986914,0.189886,0
8.28609,0.0213574,0.180706,0
8.25731,0.140332,0.171575,0
8.22556,0.258145,0.162532,0
8.19088,0.374707,0.153577,0
8.15336,0.489961,0.14471,0
8.1142,0.604053,0.136165,0
8.082,0.718838,0.129495,0
8.04765,0.832764,0.123011,0
8.01579,0.946992,0.117601,0
7.98705,1.06205,0.113333,0
7.95337,1.17574,0.108773,0
7.91767,1.28883,0.104427,0
7.87994,1.40129,0.100296,0
7.8402,1.51312,0.0963801,0
7.79844,1.62423,0.0927082,0
7.75468,1.73467,0.0892512,0
7.70891,1.84442,0.086009,0
7.66114,1.95344,0.0830012,0
7.61137,2.06169,0.080218,0
7.55961,2.16917,0.0776594,0
7.50587,2.27587,0.0753352,0
7.45013,2.38173,0.0732355,0
7.39241,2.48677,0.0713801,0
7.33271,2.59093,0.0697492,0
7.26015,2.68637,0.0661262,0
7.17152,2.76947,0.0597688,0
7.08185,2.85054,0.0536848,0
6.99118,2.92957,0.047884,0
6.89952,3.0066,0.0423469,0
6.80693,3.0816,0.0370832,0
6.71342,3.1546,0.032093,0
6.61903,3.2256,0.0273664,0
6.52379,3.2946,0.0228938,0
6.42773,3.3616,0.0187141,0
6.33087,3.42662,0.0147785,0
6.23207,3.48827,0.0108137,0
6.13012,3.54476,0.00646797,0
6.02779,3.59933,0.00240547,0
5.36868,-5.3558,0.584544,0
5.49213,-5.31653,0.583021,0
5.6151,-5.27446,0.581458,0
5.73567,-5.22625,0.578861,0
5.85482,-5.17412,0.575853,0
5.97309,-5.1193,0.572806,0
6.09041,-5.06174,0.569681,0
6.20673,-5.00145,0.566497,0
6.32198,-4.93848,0.563255,0
6.4361,-4.87275,0.559925,0
6.54903,-4.80439,0.556556,0
6.66069,-4.73334,0.553118,0
6.77104,-4.65965,0.549632,0
6.87999,-4.5833,0.546077,0
6.98749,-4.50432,0.542464,0
7.09348,-4.42274,0.538802,0
7.19787,-4.33859,0.535091,0
7.30062,-4.25188,0.531331,0
7.40165,-4.16264,0.527503,0
7.5009,-4.07088,0.523636,0
7.59829,-3.97665,0.51972,0
7.67762,-3.8679,0.511224,0
7.74437,-3.75032,0.499964,0
7.80772,-3.63127,0.488626,0
7.86766,-3.51084,0.4772,0
7.92416,-3.38915,0.465706,0
7.97721,-3.26635,0.454173,0
8.02682,-3.14249,0.442571,0
8.07295,-3.01774,0.43095,0
8.11563,-2.89217,0.41929,0
8.18275,-2.77886,0.414173,0
8.24601,-2.66323,0.408734,0
8.30374,-2.5448,0.40263,0
8.35582,-2.42383,0.395872,0
8.4021,-2.30054,0.38846,0
8.4425,-2.17526,0.380443,0
8.47694,-2.04824,0.37182,0
8.50536,-1.91974,0.362591,0
8.52774,-1.79009,0.352816,0
8.54406,-1.65956,0.342493,0
8.55435,-1.52844,0.331663,0
8.514,-1.38881,0.311321,0
8.43438,-1.24598,0.284056,0
8.40244,-1.11434,0.267259,0
8.40335,-0.98876,0.257737,0
8.40086,-0.863496,0.248226,0
8.39503,-0.738652,0.238724,0
8.38587,-0.614336,0.229261,0
8.37344,-0.490654,0.219827,0
8.35777,-0.367676,0.210452,0
8.33891,-0.245557,0.201136,0
8.3169,-0.124277,0.191849,0
8.2918,-0.00398437,0.18263,0
8.26366,0.115205,0.173509,0
8.23253,0.233271,0.164456,0
8.19847,0.350117,0.155472,0
8.16154,0.465664,0.146585,0
8.1218,0.579834,0.137786,0
8.089,0.69459,0.130892,0
8.0551,0.808701,0.124368,0
8.02088,0.922393,0.118392,0
7.99392,1.0379,0.114329,0
7.96068,1.15172,0.10972,0
7.9254,1.26493,0.105325,0
7.8881,1.37751,0.101155,0
7.84879,1.48945,0.0972102,0
7.80745,1.60077,0.0934504,0
7.76411,1.71135,0.0899641,0
7.71877,1.82124,0.0866731,0
7.67142,1.93039,0.0836262,0
7.62208,2.03881,0.0807941,0
7.57075,2.14647,0.0781867,0
7.51742,2.25334,0.0758039,0
7.46211,2.35936,0.073675,0
7.40481,2.46459,0.0717414,0
7.34553,2.56894,0.0700715,0
7.27879,2.66851,0.0675031,0
7.19039,2.75202,0.0610969,0
7.10094,2.83353,0.0549543,0
7.01047,2.913,0.0490949,0
6.91902,2.99045,0.0434895,0
6.82662,3.06588,0.038177,0
6.7333,3.13932,0.0331184,0
6.6391,3.2107,0.0283527,0
6.54404,3.28014,0.0238313,0
6.44815,3.34757,0.0195734,0
6.35145,3.41302,0.0155891,0
6.25362,3.47605,0.0117707,0
6.15174,3.53296,0.00736641,0
6.04949,3.58794,0.00324532,0
5.58203,-5.09571,0.576458,0
5.6989,-5.04872,0.574261,0
5.81368,-4.9968,0.571331,0
5.92758,-4.94227,0.568343,0
6.04051,-4.88506,0.565277,0
6.15243,-4.82526,0.562171,0
6.26326,-4.76283,0.558987,0
6.37295,-4.6978,0.555745,0
6.48144,-4.6302,0.552445,0
6.58867,-4.56003,0.549105,0
6.69457,-4.48729,0.545687,0
6.79908,-4.41202,0.54223,0
6.90213,-4.33421,0.538704,0
7.00368,-4.25392,0.53514,0
7.10363,-4.17113,0.531517,0
7.20195,-4.08592,0.527845,0
7.29856,-3.99827,0.524134,0
7.38525,-3.90166,0.517913,0
7.4549,-3.7916,0.507279,0
7.52137,-3.67995,0.496556,0
7.58463,-3.56679,0.485736,0
7.64464,-3.45225,0.474847,0
7.7014,-3.33642,0.463861,0
7.75489,-3.21941,0.452835,0
7.80509,-3.10133,0.441732,0
7.85198,-2.98229,0.430609,0
7.89558,-2.86237,0.419437,0
7.93587,-2.74173,0.408255,0
7.97285,-2.62039,0.397025,0
8.00655,-2.49855,0.385823,0
8.03695,-2.37623,0.374603,0
8.06407,-2.25357,0.363402,0
8.08794,-2.13066,0.35222,0
8.10857,-2.00759,0.341058,0
8.13216,-1.8863,0.331312,0
8.15701,-1.7659,0.322532,0
8.1764,-1.64455,0.313255,0
8.19031,-1.5225,0.303509,0
8.17281,-1.39487,0.287816,0
8.18273,-1.27399,0.278675,0
8.18935,-1.15315,0.269534,0
8.19268,-1.03243,0.260374,0
8.19277,-0.911943,0.251234,0
8.18963,-0.791807,0.242103,0
8.1833,-0.67207,0.233001,0
8.1738,-0.552881,0.223929,0
8.16118,-0.434287,0.214886,0
8.14548,-0.316396,0.205892,0
8.12674,-0.199277,0.196946,0
8.10821,-0.0828418,0.188675,0
8.08974,0.0330273,0.181048,0
8.06906,0.148262,0.173607,0
8.04617,0.262754,0.16637,0
8.0211,0.376543,0.15932,0
7.99387,0.48957,0.152454,0
7.9645,0.601787,0.145814,0
7.93302,0.713223,0.139339,0
7.90307,0.824697,0.133763,0
7.87991,0.937861,0.130081,0
7.85199,1.04996,0.126087,0
7.81878,1.16057,0.121693,0
7.78357,1.27059,0.117493,0
7.74638,1.37996,0.113548,0
7.70721,1.48873,0.109779,0
7.66607,1.5968,0.106253,0
7.62296,1.70421,0.102933,0
7.57788,1.81091,0.0998469,0
7.53085,1.91688,0.096966,0
7.48186,2.0221,0.0943098,0
7.43092,2.12655,0.0918879,0
7.37803,2.23021,0.0896906,0
7.3232,2.33305,0.087718,0
7.26643,2.43506,0.0859602,0
7.20772,2.53618,0.0844563,0
7.12659,2.62153,0.0787824,0
7.04064,2.70228,0.0726008,0
6.95364,2.78106,0.0666828,0
6.86564,2.85789,0.0610383,0
6.77666,2.93275,0.0556477,0
6.68675,3.00566,0.0505305,0
6.59592,3.07661,0.045677,0
6.50421,3.14563,0.0410773,0
6.41164,3.2127,0.0367414,0
6.31825,3.27783,0.0326691,0
6.22407,3.34104,0.028841,0
6.12911,3.4023,0.0252766,0
6.03341,3.46166,0.021966,0
5.9343,3.51552,0.0181477,0
5.19962,-5.22214,0.581273,0
5.3192,-5.18581,0.579857,0
5.43834,-5.14675,0.578372,0
5.55697,-5.10493,0.57681,0
5.67447,-5.05938,0.574876,0
5.78944,-5.00802,0.571956,0
5.90353,-4.95402,0.568978,0
6.01667,-4.8974,0.565941,0
6.1288,-4.83813,0.562825,0
6.23987,-4.77628,0.559671,0
6.34981,-4.7118,0.556429,0
6.45856,-4.64474,0.553148,0
6.56606,-4.57509,0.549798,0
6.67225,-4.5029,0.546409,0
6.77706,-4.42815,0.542952,0
6.88043,-4.3509,0.539456,0
6.98229,-4.27114,0.535902,0
7.08259,-4.18887,0.532278,0
7.18126,-4.10418,0.528636,0
7.27824,-4.01703,0.524915,0
7.37009,-3.92475,0.52014,0
7.44041,-3.81507,0.509554,0
7.50755,-3.70372,0.498841,0
7.57149,-3.59089,0.48804,0
7.6322,-3.47661,0.477142,0
7.68965,-3.36105,0.466195,0
7.74383,-3.2443,0.455179,0
7.79473,-3.12643,0.444085,0
7.84233,-3.00757,0.432962,0
7.88662,-2.88785,0.42181,0
7.92761,-2.76735,0.410618,0
7.9653,-2.64615,0.399407,0
7.99968,-2.52439,0.388187,0
8.03078,-2.40218,0.376976,0
8.0586,-2.27958,0.365775,0
8.08316,-2.1567,0.354573,0
8.10447,-2.03366,0.343421,0
8.12619,-1.91165,0.333099,0
8.1522,-1.79148,0.324427,0
8.17275,-1.67032,0.315257,0
8.18782,-1.5484,0.305609,0
8.17205,-1.42085,0.29014,0
8.1809,-1.2996,0.280618,0
8.18822,-1.17873,0.271468,0
8.19225,-1.05799,0.262327,0
8.19302,-0.937451,0.253167,0
8.19056,-0.817236,0.244046,0
8.1849,-0.697393,0.234915,0
8.17608,-0.578096,0.225853,0
8.16412,-0.459375,0.21681,0
8.14906,-0.341289,0.207786,0
8.13096,-0.224014,0.198841,0
8.11183,-0.107471,0.190316,0
8.09384,0.00853516,0.182659,0
8.07362,0.123916,0.175159,0
8.0512,0.238564,0.167884,0
8.02659,0.3525,0.160804,0
7.99982,0.465684,0.1539,0
7.9709,0.578096,0.147191,0
7.93986,0.689687,0.140687,0
7.9077,0.800674,0.134573,0
7.88499,0.913916,0.130843,0
7.85877,1.02645,0.127054,0
7.82598,1.13718,0.12262,0
7.79119,1.24732,0.118372,0
7.75442,1.35687,0.114349,0
7.71567,1.46574,0.11056,0
7.67495,1.57397,0.106976,0
7.63225,1.68152,0.103607,0
7.58759,1.78836,0.100472,0
7.54098,1.89448,0.0975617,0
7.4924,1.99987,0.0948566,0
7.44187,2.1045,0.0923762,0
7.3894,2.20831,0.0901398,0
7.33498,2.31132,0.0881184,0
7.27861,2.41352,0.0863215,0
7.22031,2.51484,0.0847492,0
7.14466,2.60417,0.0801301,0
7.05893,2.68535,0.0738703,0
6.97215,2.76455,0.0679035,0
6.88437,2.84178,0.0622102,0
6.79559,2.91706,0.0567707,0
6.70587,2.99038,0.0515852,0
6.61523,3.06174,0.0466828,0
6.5237,3.13116,0.0420344,0
6.43132,3.19865,0.0376398,0
6.3381,3.2642,0.0334992,0
6.24408,3.3278,0.029632,0
6.14929,3.38948,0.0260188,0
6.05375,3.44924,0.0226594,0
5.95544,3.50439,0.018968,0
5.2939,-5.19373,0.580159,0
5.41314,-5.15523,0.578685,0
5.53188,-5.114,0.577132,0
5.65,-5.06991,0.575482,0
5.76515,-5.01913,0.572581,0
5.87943,-4.96568,0.569613,0
5.99278,-4.90962,0.566585,0
6.10513,-4.85091,0.563489,0
6.21643,-4.78959,0.560335,0
6.32662,-4.72567,0.557122,0
6.43563,-4.65916,0.553851,0
6.5434,-4.59007,0.550521,0
6.64987,-4.51842,0.547142,0
6.75497,-4.4442,0.543694,0
6.85865,-4.36748,0.540208,0
6.96084,-4.28823,0.536654,0
7.06148,-4.2065,0.53305,0
7.1605,-4.1223,0.529398,0
7.25785,-4.03569,0.525706,0
7.35345,-3.94665,0.521966,0
7.42578,-3.83842,0.5118,0
7.49359,-3.72744,0.501116,0
7.55822,-3.61492,0.490345,0
7.61961,-3.50094,0.479466,0
7.67775,-3.38563,0.468519,0
7.73263,-3.26912,0.457513,0
7.78421,-3.15149,0.446448,0
7.83251,-3.03284,0.435325,0
7.87751,-2.91328,0.424173,0
7.9192,-2.79294,0.412991,0
7.95759,-2.67188,0.40178,0
7.99267,-2.55023,0.39057,0
8.02447,-2.42812,0.379359,0
8.05298,-2.30558,0.368148,0
8.07822,-2.18277,0.356956,0
8.10022,-2.05976,0.345784,0
8.11998,-1.93694,0.334876,0
8.14715,-1.81702,0.326302,0
8.16885,-1.69607,0.317249,0
8.18508,-1.57428,0.307689,0
8.18522,-1.44974,0.295423,0
8.17893,-1.32521,0.282552,0
8.18694,-1.20435,0.273421,0
8.19167,-1.08355,0.264261,0
8.19313,-0.962969,0.25512,0
8.19135,-0.842656,0.24597,0
8.18637,-0.722734,0.236849,0
8.17821,-0.603311,0.227767,0
8.16691,-0.484453,0.218704,0
8.15251,-0.36625,0.2097,0
8.13505,-0.248799,0.200726,0
8.11535,-0.132129,0.191956,0
8.09784,-0.0159766,0.184251,0
8.07809,0.0995117,0.176741,0
8.05614,0.214326,0.169417,0
8.03199,0.328428,0.162279,0
8.00567,0.441777,0.155345,0
7.97721,0.554355,0.148597,0
7.94662,0.666123,0.142044,0
7.91391,0.777031,0.135716,0
7.88998,0.889941,0.131624,0
7.86546,1.00291,0.12803,0
7.83309,1.11377,0.123529,0
7.79873,1.22404,0.119261,0
7.76238,1.3337,0.115198,0
7.72404,1.44272,0.111351,0
7.68374,1.55112,0.107708,0
7.64146,1.65881,0.10431,0
7.59722,1.76578,0.101126,0
7.55102,1.87207,0.0981574,0
7.50285,1.97762,0.0954035,0
7.45274,2.08238,0.0928937,0
7.40067,2.18639,0.0905891,0
7.34667,2.28956,0.0885285,0
7.29072,2.39192,0.0866828,0
7.23283,2.49344,0.0850617,0
7.16269,2.58672,0.0814875,0
7.07718,2.6683,0.0751789,0
6.99063,2.74793,0.0691535,0
6.90305,2.82558,0.0634016,0
6.81448,2.90128,0.0578938,0
6.72496,2.97501,0.0526594,0
6.63451,3.04681,0.0476887,0
6.54317,3.11662,0.0430012,0
6.45096,3.18451,0.038548,0
6.35792,3.25046,0.0343684,0
6.26406,3.3145,0.030423,0
6.16943,3.37659,0.0267609,0
6.07405,3.43675,0.023343,0
5.97655,3.4932,0.0197883,0
5.50211,-4.94526,0.572435,0
5.61607,-4.90107,0.570814,0
5.72772,-4.8515,0.568294,0
5.83787,-4.79831,0.565374,0
5.94708,-4.74259,0.562405,0
6.05528,-4.68432,0.559378,0
6.16242,-4.62354,0.556302,0
6.26844,-4.56023,0.553157,0
6.37327,-4.49442,0.549954,0
6.47686,-4.42614,0.546702,0
6.57915,-4.35538,0.543392,0
6.68007,-4.28219,0.540032,0
6.77956,-4.20653,0.536614,0
6.87758,-4.12851,0.533167,0
6.97404,-4.04807,0.529652,0
7.06889,-3.96526,0.526087,0
7.1478,-3.8681,0.517943,0
7.21821,-3.76429,0.507864,0
7.28562,-3.6588,0.497669,0
7.34999,-3.55177,0.487376,0
7.41131,-3.44328,0.476995,0
7.46953,-3.33345,0.466536,0
7.52465,-3.22234,0.456009,0
7.57665,-3.11009,0.445394,0
7.6255,-2.9968,0.434749,0
7.67121,-2.88257,0.424066,0
7.71376,-2.76746,0.413323,0
7.75314,-2.65162,0.402571,0
7.78938,-2.53513,0.3918,0
7.82245,-2.41808,0.381019,0
7.85238,-2.30058,0.370247,0
7.87917,-2.1827,0.359466,0
7.90284,-2.06455,0.348714,0
7.9234,-1.94622,0.337972,0
7.94086,-1.82779,0.327259,0
7.95527,-1.70937,0.316585,0
7.9722,-1.59241,0.30722,0
8.00073,-1.47854,0.301087,0
8.01185,-1.36114,0.29178,0
8.01942,-1.24371,0.282396,0
8.02461,-1.1265,0.273167,0
8.02743,-1.00962,0.264114,0
8.0279,-0.893057,0.255247,0
8.02603,-0.776836,0.246536,0
8.02185,-0.661035,0.238011,0
8.01538,-0.545674,0.229671,0
8.00663,-0.430801,0.221507,0
7.99564,-0.316396,0.213509,0
7.9824,-0.202559,0.205716,0
7.96696,-0.0892871,0.198089,0
7.94932,0.0233691,0.190657,0
7.9295,0.1354,0.183411,0
7.90753,0.246758,0.176351,0
7.88343,0.357432,0.169476,0
7.85721,0.467363,0.162796,0
7.82889,0.576533,0.156302,0
7.79885,0.685019,0.150052,0
7.77822,0.795518,0.146292,0
7.75554,0.905752,0.142718,0
7.73001,1.01545,0.139183,0
7.69764,1.12322,0.134915,0
7.66331,1.23046,0.130823,0
7.62704,1.33706,0.126956,0
7.58883,1.44304,0.123294,0
7.54868,1.54836,0.119857,0
7.5066,1.653,0.116634,0
7.46259,1.75695,0.113626,0
7.41667,1.86018,0.110833,0
7.36883,1.96265,0.108275,0
7.31907,2.06438,0.105921,0
7.26741,2.16532,0.103792,0
7.21385,2.26544,0.101888,0
7.15838,2.36476,0.100198,0
7.09965,2.46225,0.0984406,0
7.0175,2.54308,0.0921125,0
6.93427,2.62199,0.0860285,0
6.85,2.699,0.080218,0
6.76472,2.77411,0.0746613,0
6.67846,2.84731,0.0693684,0
6.59126,2.91861,0.0643391,0
6.50313,2.98803,0.0595441,0
6.41412,3.05552,0.0550422,0
6.32426,3.12115,0.0507648,0
6.23356,3.18486,0.0467609,0
6.14206,3.24672,0.0430012,0
6.04979,3.30671,0.039466,0
5.95677,3.36479,0.0362141,0
5.86303,3.42103,0.0331867,0
5.13238,-5.06916,0.577122,0
5.24803,-5.03351,0.575736,0
5.36322,-4.99522,0.57429,0
5.47789,-4.95427,0.572757,0
5.59198,-4.91065,0.571155,0
5.70427,-4.86242,0.56889,0
5.81461,-4.80979,0.565999,0
5.92403,-4.7546,0.56304,0
6.03245,-4.69688,0.560023,0
6.13982,-4.63662,0.556956,0
6.24608,-4.57386,0.553831,0
6.35117,-4.50857,0.550628,0
6.45502,-4.44082,0.547396,0
6.55759,-4.3706,0.544105,0
6.6588,-4.2979,0.540755,0
6.75861,-4.22277,0.537347,0
6.85694,-4.14523,0.5339,0
6.95374,-4.0653,0.530394,0
7.04893,-3.98302,0.526859,0
7.13251,-3.88988,0.520062,0
7.20354,-3.78642,0.510003,0
7.27159,-3.68128,0.499837,0
7.33661,-3.57456,0.489564,0
7.39857,-3.46639,0.479212,0
7.45746,-3.35681,0.468753,0
7.51324,-3.24599,0.458245,0
7.56589,-3.13396,0.44765,0
7.61542,-3.02088,0.437015,0
7.66179,-2.90683,0.426321,0
7.705,-2.79191,0.415609,0
7.74506,-2.67623,0.404866,0
7.78196,-2.55985,0.394085,0
7.81571,-2.44292,0.383304,0
7.8463,-2.3255,0.372523,0
7.87375,-2.2077,0.361741,0
7.89808,-2.08958,0.35097,0
7.9193,-1.9713,0.340237,0
7.93742,-1.85288,0.329525,0
7.95247,-1.73446,0.318851,0
7.96587,-1.61644,0.308529,0
7.99488,-1.5027,0.302366,0
8.00993,-1.38604,0.293792,0
8.01802,-1.26855,0.284359,0
8.02371,-1.15133,0.27512,0
8.02703,-1.03436,0.266019,0
8.02799,-0.917725,0.257113,0
8.02662,-0.801436,0.248372,0
8.02293,-0.685557,0.239818,0
8.01694,-0.570088,0.231429,0
8.00868,-0.455088,0.223216,0
7.99815,-0.340596,0.215189,0
7.98539,-0.226641,0.207357,0
7.97041,-0.113232,0.199691,0
7.95323,-0.000429687,0.19222,0
7.93388,0.111729,0.184925,0
7.91236,0.223232,0.177825,0
7.88871,0.334043,0.170911,0
7.86294,0.44415,0.164183,0
7.83507,0.553486,0.15765,0
7.80511,0.662041,0.151312,0
7.78276,0.772129,0.147073,0
7.76051,0.882412,0.14347,0
7.73622,0.992402,0.140062,0
7.70466,1.10046,0.135784,0
7.67074,1.2078,0.131663,0
7.63488,1.31452,0.127757,0
7.59708,1.42065,0.124046,0
7.55734,1.5261,0.12057,0
7.51567,1.63089,0.117298,0
7.47208,1.73498,0.114241,0
7.42656,1.83836,0.111419,0
7.37912,1.94103,0.108782,0
7.32977,2.0429,0.1064,0
7.27851,2.144,0.104222,0
7.22535,2.24432,0.102269,0
7.17029,2.34378,0.10055,0
7.11333,2.4424,0.0990461,0
7.03499,2.52611,0.0934211,0
6.95199,2.60544,0.0872883,0
6.86794,2.68286,0.0814191,0
6.78287,2.75837,0.0758039,0
6.69682,2.83197,0.0704621,0
6.60981,2.90367,0.0653742,0
6.52188,2.97349,0.0605402,0
6.43305,3.04137,0.0559797,0
6.34336,3.10738,0.0516633,0
6.25284,3.17154,0.0475715,0
6.16151,3.23378,0.0437629,0
6.0694,3.29414,0.0402082,0
5.97654,3.35264,0.0368781,0
5.88294,3.40926,0.0338117,0
5.22357,-5.04131,0.576048,0
5.33886,-5.00356,0.574612,0
5.45365,-4.96317,0.573089,0
5.56785,-4.92012,0.571497,0
5.68077,-4.87325,0.569495,0
5.7913,-4.82115,0.566614,0
5.90093,-4.7665,0.563675,0
6.00956,-4.70933,0.560677,0
6.11716,-4.64959,0.557611,0
6.22366,-4.58735,0.554486,0
6.329,-4.52261,0.551302,0
6.43313,-4.45538,0.548079,0
6.53597,-4.38567,0.544808,0
6.63748,-4.31351,0.541458,0
6.73759,-4.23889,0.53807,0
6.83624,-4.16186,0.534622,0
6.93337,-4.08244,0.531146,0
7.02891,-4.00063,0.527611,0
7.11708,-3.91156,0.522181,0
7.18875,-3.80847,0.512142,0
7.25743,-3.70368,0.501995,0
7.32309,-3.5973,0.491751,0
7.3857,-3.48942,0.481409,0
7.44524,-3.38014,0.47097,0
7.50168,-3.26955,0.460472,0
7.555,-3.15779,0.449905,0
7.60518,-3.04494,0.43928,0
7.65223,-2.93109,0.428607,0
7.69611,-2.81633,0.417884,0
7.73684,-2.7008,0.407142,0
7.77441,-2.58456,0.39637,0
7.80882,-2.46774,0.385599,0
7.84008,-2.35042,0.374818,0
7.8682,-2.23268,0.364027,0
7.89319,-2.11462,0.353255,0
7.91506,-1.99636,0.342503,0
7.93384,-1.87796,0.33178,0
7.94954,-1.75953,0.321107,0
7.96218,-1.64115,0.310462,0
7.98892,-1.52687,0.303675,0
8.00791,-1.41097,0.295814,0
8.01651,-1.29343,0.286341,0
8.02271,-1.17611,0.277054,0
8.02653,-1.05909,0.267923,0
8.02798,-0.942402,0.258987,0
8.02711,-0.826045,0.250218,0
8.02391,-0.710068,0.241614,0
8.0184,-0.594512,0.233187,0
8.01062,-0.479414,0.224945,0
8.00057,-0.364785,0.216868,0
7.98828,-0.250732,0.208997,0
7.97377,-0.137227,0.201312,0
7.95706,-0.0243066,0.193802,0
7.93816,0.0880078,0.186468,0
7.9171,0.199658,0.17932,0
7.8939,0.310635,0.172357,0
7.86857,0.420889,0.165589,0
7.84115,0.530381,0.159017,0
7.81163,0.639121,0.15263,0
7.78721,0.74874,0.147855,0
7.7654,0.859062,0.144222,0
7.74154,0.969131,0.140755,0
7.71159,1.07766,0.136683,0
7.67809,1.18513,0.132513,0
7.64264,1.29198,0.128558,0
7.60525,1.39821,0.124827,0
7.56592,1.50383,0.121282,0
7.52466,1.60876,0.117972,0
7.48147,1.71299,0.114886,0
7.43636,1.81652,0.111995,0
7.38933,1.91934,0.109329,0
7.34039,2.02139,0.106888,0
7.28953,2.12266,0.104671,0
7.23678,2.22311,0.102679,0
7.18212,2.32277,0.100892,0
7.12556,2.42159,0.0993293,0
7.05244,2.50906,0.0947492,0
6.96967,2.58878,0.0885773,0
6.88583,2.6666,0.0826496,0
6.80098,2.74252,0.0769758,0
6.71513,2.81652,0.0715852,0
6.62832,2.88863,0.0664387,0
6.54058,2.95883,0.0615656,0
6.45194,3.02715,0.056927,0
6.36243,3.09356,0.052552,0
6.27208,3.1581,0.0484211,0
6.18092,3.22074,0.0445637,0
6.08897,3.28152,0.0409309,0
5.99627,3.34041,0.0375617,0
5.90282,3.39743,0.034427,0
5.42683,-4.80353,0.568626,0
5.53707,-4.76029,0.567054,0
5.64665,-4.71446,0.565394,0
5.7533,-4.66263,0.562591,0
5.85902,-4.60827,0.559691,0
5.96374,-4.55149,0.556751,0
6.06741,-4.49227,0.553763,0
6.16998,-4.43061,0.550706,0
6.27137,-4.36654,0.547611,0
6.37155,-4.30005,0.544446,0
6.47046,-4.23117,0.541224,0
6.56801,-4.15995,0.537972,0
6.66417,-4.08637,0.534661,0
6.75888,-4.01045,0.531292,0
6.85014,-3.93045,0.52723,0
6.9239,-3.83429,0.517777,0
6.99488,-3.73633,0.508206,0
7.06303,-3.63666,0.498519,0
7.12833,-3.5354,0.488734,0
7.19073,-3.43264,0.478841,0
7.2502,-3.32846,0.468861,0
7.30673,-3.22297,0.458812,0
7.36029,-3.11626,0.448685,0
7.41086,-3.00842,0.438499,0
7.45842,-2.89957,0.428265,0
7.50298,-2.78976,0.417972,0
7.54451,-2.67912,0.40765,0
7.58302,-2.56774,0.397308,0
7.6185,-2.45571,0.386937,0
7.65096,-2.34312,0.376546,0
7.6804,-2.23007,0.366165,0
7.70683,-2.11662,0.355794,0
7.73027,-2.00289,0.345413,0
7.75072,-1.88896,0.335071,0
7.7761,-1.77726,0.326634,0
7.80824,-1.66771,0.320433,0
7.83819,-1.55756,0.314368,0
7.86264,-1.44608,0.307669,0
7.87276,-1.33183,0.298362,0
7.88053,-1.21772,0.289193,0
7.88597,-1.1039,0.280228,0
7.88908,-0.990293,0.2714,0
7.88991,-0.877012,0.262747,0
7.88846,-0.764062,0.254271,0
7.88475,-0.651484,0.24596,0
7.8788,-0.539307,0.237825,0
7.87062,-0.427607,0.229876,0
7.86024,-0.316357,0.222083,0
7.84768,-0.205605,0.214466,0
7.83295,-0.0954102,0.207034,0
7.81607,0.0141895,0.199788,0
7.79706,0.123213,0.192708,0
7.77595,0.231572,0.185833,0
7.75274,0.339287,0.179114,0
7.72747,0.446289,0.172591,0
7.70014,0.552559,0.166263,0
7.67945,0.660029,0.161888,0
7.65924,0.767715,0.158236,0
7.63702,0.875146,0.154759,0
7.6128,0.982266,0.151497,0
7.58212,1.08766,0.147493,0
7.54864,1.19222,0.143509,0
7.51324,1.29614,0.139749,0
7.47594,1.39947,0.136195,0
7.43674,1.50216,0.132835,0
7.39565,1.60417,0.1297,0
7.35267,1.70551,0.126771,0
7.30781,1.80612,0.124056,0
7.26107,1.906,0.121575,0
7.21245,2.00511,0.1193,0
7.16196,2.10347,0.117239,0
7.10961,2.20103,0.115394,0
7.0554,2.29773,0.113782,0
6.99333,2.38947,0.11098,0
6.91376,2.46848,0.104769,0
6.8331,2.54562,0.098802,0
6.7514,2.62094,0.0930891,0
6.66869,2.69439,0.0876301,0
6.585,2.76599,0.082425,0
6.50035,2.83575,0.0774738,0
6.41479,2.90365,0.0727863,0
6.32834,2.96971,0.0683332,0
6.24103,3.03393,0.0641438,0
6.15288,3.09632,0.0601789,0
6.06393,3.15687,0.0564777,0
5.9742,3.21558,0.0530109,0
5.88372,3.27247,0.0497785,0
5.79252,3.32752,0.0468098,0
5.06901,-4.92498,0.573206,0
5.18096,-4.89002,0.571878,0
5.29244,-4.85247,0.570452,0
5.4034,-4.81236,0.568968,0
5.51377,-4.76966,0.567396,0
5.6235,-4.7244,0.565765,0
5.73079,-4.67381,0.563187,0
5.8367,-4.62,0.560306,0
5.94164,-4.56373,0.557386,0
6.04554,-4.50502,0.554398,0
6.14834,-4.44389,0.55137,0
6.24999,-4.3803,0.548265,0
6.35044,-4.31434,0.54512,0
6.44961,-4.24599,0.541927,0
6.54746,-4.17522,0.538655,0
6.64392,-4.10214,0.535355,0
6.73894,-4.02673,0.532015,0
6.83246,-3.949,0.528616,0
6.9085,-3.85481,0.519788,0
6.98008,-3.75723,0.510257,0
7.04884,-3.65792,0.500589,0
7.11474,-3.55699,0.490823,0
7.17775,-3.45454,0.48095,0
7.23785,-3.35065,0.470999,0
7.295,-3.24543,0.46095,0
