29.5332,-14.3878,0.397591,0
29.6417,-14.3122,0.398275,0
29.7486,-14.2337,0.398948,0
29.8536,-14.1525,0.399603,0
29.9567,-14.0685,0.400267,0
30.058,-13.9818,0.400911,0
30.1572,-13.8924,0.401527,0
30.2544,-13.8003,0.402142,0
30.3493,-13.7057,0.402747,0
30.4451,-13.611,0.404232,0
30.5387,-13.5137,0.405706,0
30.63,-13.4138,0.407152,0
30.7188,-13.3113,0.408548,0
30.805,-13.2063,0.409925,0
30.8887,-13.0989,0.411243,0
30.9695,-12.989,0.412523,0
31.0476,-12.8769,0.413753,0
31.1228,-12.7626,0.414945,0
31.1952,-12.6461,0.416087,0
31.2644,-12.5275,0.417191,0
31.3305,-12.407,0.418226,0
31.3934,-12.2845,0.419222,0
31.4531,-12.1603,0.420169,0
31.5095,-12.0343,0.421058,0
31.5626,-11.9067,0.421907,0
31.6123,-11.7775,0.422679,0
31.6584,-11.647,0.423411,0
31.7011,-11.5151,0.424095,0
31.7402,-11.382,0.4247,0
31.7787,-11.2484,0.42597,0
31.8147,-11.1138,0.427396,0
31.847,-10.9782,0.428763,0
31.8755,-10.8416,0.430081,0
31.9005,-10.7041,0.431341,0
31.9216,-10.5659,0.432552,0
31.9391,-10.427,0.433704,0
31.9527,-10.2876,0.434798,0
31.9625,-10.1478,0.435843,0
31.9685,-10.0077,0.43682,0
31.9707,-9.86742,0.437747,0
31.9688,-9.72706,0.438529,0
31.9587,-9.58707,0.438314,0
31.9446,-9.44747,0.438011,0
31.9267,-9.30835,0.437601,0
31.9048,-9.16986,0.437122,0
31.8791,-9.03214,0.436536,0
31.8495,-8.89529,0.435892,0
31.8219,-8.75825,0.436458,0
31.791,-8.62193,0.437073,0
31.7562,-8.48655,0.437581,0
31.7176,-8.35226,0.438011,0
31.6752,-8.21914,0.438323,0
31.6291,-8.08734,0.438568,0
31.5793,-7.95696,0.438704,0
25.064,-15.1291,0.412571,0
25.1805,-15.1569,0.412562,0
25.298,-15.182,0.412503,0
25.4164,-15.2044,0.412415,0
25.5353,-15.224,0.412288,0
25.6551,-15.2407,0.412122,0
25.7753,-15.2546,0.411907,0
25.8962,-15.2657,0.411663,0
26.0174,-15.2738,0.41139,0
26.1391,-15.2791,0.411077,0
26.261,-15.2814,0.410716,0
26.3833,-15.2807,0.410316,0
26.5052,-15.2733,0.408919,0
26.6266,-15.261,0.406995,0
26.748,-15.2458,0.405091,0
26.8689,-15.2279,0.403167,0
26.9895,-15.2072,0.401263,0
27.1097,-15.1836,0.399359,0
27.2295,-15.1573,0.397464,0
27.3485,-15.1281,0.395579,0
27.4671,-15.0962,0.393714,0
27.5848,-15.0615,0.391849,0
27.702,-15.0241,0.390003,0
27.8182,-14.9839,0.388167,0
27.9354,-14.9453,0.387484,0
28.0542,-14.9092,0.388236,0
28.1724,-14.8701,0.388987,0
28.2898,-14.8281,0.38972,0
28.4066,-14.7833,0.390462,0
28.5227,-14.7355,0.391195,0
28.6376,-14.6848,0.391927,0
28.7516,-14.6311,0.39264,0
28.8645,-14.5747,0.393362,0
28.9763,-14.5153,0.394066,0
29.0869,-14.4531,0.394759,0
29.1962,-14.3881,0.395452,0
29.304,-14.3203,0.396136,0
29.4103,-14.2496,0.39681,0
29.5152,-14.1763,0.397474,0
29.6183,-14.1002,0.398128,0
29.7198,-14.0214,0.398763,0
29.8194,-13.94,0.399398,0
29.9172,-13.8559,0.400013,0
30.013,-13.7693,0.400618,0
30.1068,-13.6802,0.401214,0
30.1984,-13.5885,0.40179,0
30.2879,-13.4945,0.402357,0
30.3759,-13.3986,0.403128,0
30.4637,-13.3019,0.404525,0
30.5493,-13.2027,0.405872,0
30.6323,-13.1012,0.407191,0
30.7127,-12.9973,0.40846,0
30.7906,-12.8911,0.409691,0
30.8658,-12.7827,0.410882,0
30.9382,-12.6722,0.412025,0
31.0077,-12.5597,0.413118,0
31.0744,-12.4452,0.414183,0
31.138,-12.3287,0.415189,0
31.1987,-12.2105,0.416136,0
31.2562,-12.0905,0.417054,0
31.3105,-11.9688,0.417904,0
31.3616,-11.8457,0.418724,0
31.4094,-11.721,0.419476,0
31.4539,-11.595,0.420179,0
31.495,-11.4677,0.420833,0
31.533,-11.3394,0.421517,0
31.5709,-11.2106,0.422933,0
31.6055,-11.0808,0.4243,0
31.6365,-10.9498,0.425609,0
31.664,-10.818,0.426888,0
31.6879,-10.6854,0.428099,0
31.7083,-10.552,0.429271,0
31.7251,-10.418,0.430384,0
31.7382,-10.2835,0.431429,0
31.7477,-10.1486,0.432435,0
31.7535,-10.0134,0.433382,0
31.7535,-9.87811,0.433763,0
31.7478,-9.74294,0.433646,0
31.7383,-9.60801,0.433441,0
31.7251,-9.47341,0.433138,0
31.708,-9.3393,0.432757,0
31.6873,-9.20578,0.432308,0
31.6628,-9.07297,0.431761,0
31.6347,-8.94101,0.431146,0
31.6062,-8.80928,0.431204,0
31.5766,-8.67787,0.43179,0
31.5432,-8.54736,0.432298,0
31.5062,-8.41788,0.432708,0
31.4657,-8.28953,0.43303,0
31.4216,-8.16242,0.433265,0
31.3739,-8.03666,0.433402,0
25.0085,-15.1148,0.412571,0
25.1248,-15.144,0.412571,0
25.2418,-15.1704,0.412532,0
25.3597,-15.1941,0.412464,0
25.4784,-15.215,0.412357,0
25.5977,-15.2331,0.4122,0
25.7178,-15.2483,0.412015,0
25.8384,-15.2608,0.41179,0
25.9595,-15.2703,0.411527,0
26.0809,-15.2769,0.411224,0
26.2027,-15.2806,0.410882,0
26.3248,-15.2814,0.410511,0
26.447,-15.2782,0.409837,0
26.5686,-15.2672,0.407923,0
26.69,-15.2534,0.405999,0
26.8111,-15.2368,0.404085,0
26.9319,-15.2174,0.402171,0
27.0523,-15.1952,0.400267,0
27.1723,-15.1702,0.398382,0
27.2917,-15.1424,0.396488,0
27.4105,-15.1118,0.394603,0
27.5287,-15.0784,0.392738,0
27.6461,-15.0423,0.390882,0
27.7627,-15.0034,0.389036,0
27.8785,-14.9618,0.38721,0
27.9975,-14.9268,0.387864,0
28.1159,-14.8891,0.388626,0
28.2337,-14.8486,0.389368,0
28.3509,-14.8051,0.390111,0
28.4673,-14.7587,0.390853,0
28.5828,-14.7093,0.391575,0
28.6973,-14.6571,0.392298,0
28.8107,-14.602,0.393021,0
28.923,-14.5441,0.393734,0
29.0343,-14.4832,0.394427,0
29.1441,-14.4196,0.39513,0
29.2526,-14.353,0.395814,0
29.3597,-14.2837,0.396488,0
29.4652,-14.2117,0.397161,0
29.5692,-14.1369,0.397816,0
29.6715,-14.0594,0.39846,0
29.772,-13.9792,0.399095,0
29.8706,-13.8964,0.39972,0
29.9674,-13.8111,0.400335,0
30.0622,-13.7231,0.400931,0
30.1548,-13.6326,0.401517,0
30.2455,-13.5397,0.402093,0
30.3337,-13.4444,0.40265,0
30.4221,-13.3484,0.403861,0
30.5087,-13.2504,0.405228,0
30.593,-13.15,0.406566,0
30.6746,-13.0472,0.407855,0
30.7537,-12.9421,0.409105,0
30.8302,-12.8348,0.410316,0
30.9039,-12.7253,0.411478,0
30.9749,-12.6137,0.412611,0
31.0429,-12.5002,0.413685,0
31.108,-12.3846,0.41471,0
31.1701,-12.2672,0.415687,0
31.2291,-12.148,0.416624,0
31.2849,-12.0272,0.417513,0
31.3376,-11.9047,0.418343,0
31.387,-11.7808,0.419114,0
31.433,-11.6554,0.419847,0
31.4758,-11.5287,0.420521,0
31.5151,-11.4008,0.421146,0
31.5533,-11.2723,0.422259,0
31.5895,-11.143,0.423655,0
31.6221,-11.0125,0.424984,0
31.6512,-10.8811,0.426282,0
31.6769,-10.7489,0.427532,0
31.699,-10.6158,0.428714,0
31.7176,-10.4821,0.429857,0
31.7324,-10.3478,0.430941,0
31.7436,-10.2131,0.431966,0
31.7512,-10.0781,0.432943,0
31.7548,-9.94279,0.433802,0
31.751,-9.80753,0.433714,0
31.7434,-9.67246,0.433548,0
31.7319,-9.53768,0.433294,0
31.7166,-9.40334,0.432962,0
31.6977,-9.26953,0.432542,0
31.675,-9.13636,0.432034,0
31.6486,-9.00397,0.431458,0
31.619,-8.87237,0.430892,0
31.5912,-8.74058,0.431527,0
31.5596,-8.60963,0.432073,0
31.5244,-8.47965,0.432532,0
31.4855,-8.35071,0.432884,0
31.4431,-8.22301,0.433167,0
31.3971,-8.09659,0.433343,0
25.0691,-15.1304,0.412571,0
25.1857,-15.1581,0.412552,0
25.3033,-15.1831,0.412493,0
25.4216,-15.2053,0.412405,0
25.5406,-15.2248,0.412279,0
25.6603,-15.2414,0.412113,0
25.7807,-15.2552,0.411898,0
25.9015,-15.2661,0.411663,0
26.0228,-15.2741,0.41138,0
26.1445,-15.2792,0.411058,0
26.2665,-15.2814,0.410696,0
26.3887,-15.2806,0.410296,0
26.5105,-15.2728,0.408831,0
26.632,-15.2604,0.406917,0
26.7533,-15.2451,0.404993,0
26.8742,-15.2271,0.403089,0
26.9948,-15.2062,0.401175,0
27.1151,-15.1825,0.39928,0
27.2347,-15.156,0.397386,0
27.3538,-15.1268,0.395501,0
27.4723,-15.0947,0.393626,0
27.5901,-15.0599,0.391761,0
27.707,-15.0224,0.389915,0
27.8234,-14.9821,0.388079,0
27.9406,-14.9437,0.387513,0
28.0594,-14.9075,0.388265,0
28.1775,-14.8683,0.389007,0
28.2951,-14.8262,0.389759,0
28.4118,-14.7812,0.390491,0
28.5277,-14.7333,0.391224,0
28.6427,-14.6825,0.391956,0
28.7566,-14.6287,0.392679,0
28.8695,-14.5721,0.393392,0
28.9812,-14.5126,0.394085,0
29.0918,-14.4503,0.394798,0
29.2009,-14.3852,0.395491,0
29.3087,-14.3172,0.396165,0
29.415,-14.2465,0.396839,0
29.5198,-14.173,0.397503,0
29.6228,-14.0968,0.398157,0
29.7242,-14.0179,0.398792,0
29.8237,-13.9363,0.399427,0
29.9215,-13.8522,0.400042,0
30.0171,-13.7654,0.400648,0
30.1109,-13.6762,0.401234,0
30.2023,-13.5844,0.40182,0
30.2918,-13.4903,0.402386,0
30.3798,-13.3944,0.403196,0
30.4676,-13.2975,0.404583,0
30.553,-13.1983,0.405931,0
30.6359,-13.0966,0.407249,0
30.7162,-12.9926,0.408519,0
30.794,-12.8864,0.409739,0
30.8691,-12.7779,0.410931,0
30.9413,-12.6673,0.412073,0
31.0108,-12.5547,0.413167,0
31.0773,-12.44,0.414222,0
31.1409,-12.3235,0.415228,0
31.2013,-12.2052,0.416185,0
31.2586,-12.0852,0.417093,0
31.3128,-11.9635,0.417952,0
31.3637,-11.8402,0.418753,0
31.4114,-11.7155,0.419505,0
31.4558,-11.5894,0.420208,0
31.4967,-11.4621,0.420853,0
31.5348,-11.3337,0.421575,0
31.5726,-11.2049,0.422991,0
31.607,-11.075,0.424349,0
31.6378,-10.944,0.425667,0
31.6651,-10.8122,0.426937,0
31.6889,-10.6795,0.428148,0
31.7091,-10.5461,0.42932,0
31.7258,-10.4121,0.430433,0
31.7387,-10.2776,0.431488,0
31.748,-10.1426,0.432484,0
31.7537,-10.0075,0.433431,0
31.7533,-9.87218,0.433773,0
31.7475,-9.73699,0.433636,0
31.7378,-9.60206,0.433421,0
31.7244,-9.46748,0.433128,0
31.7072,-9.3334,0.432747,0
31.6862,-9.19991,0.432279,0
31.6616,-9.06713,0.431732,0
31.6334,-8.9352,0.431126,0
31.6049,-8.80346,0.431224,0
31.5752,-8.67209,0.43182,0
31.5416,-8.54165,0.432318,0
31.5045,-8.41219,0.432718,0
31.4638,-8.2839,0.43304,0
31.4195,-8.15684,0.433255,0
31.3717,-8.03112,0.433392,0
25.088,-14.9749,0.41055,0
25.201,-15.0016,0.410521,0
25.315,-15.0256,0.410472,0
25.4298,-15.047,0.410374,0
25.5452,-15.0657,0.410257,0
25.6613,-15.0816,0.410091,0
25.778,-15.0948,0.409876,0
25.8951,-15.1052,0.409642,0
26.0127,-15.1128,0.409368,0
26.1306,-15.1175,0.409046,0
26.2488,-15.1195,0.408704,0
26.3673,-15.1185,0.408314,0
26.4858,-15.1147,0.407904,0
26.6044,-15.1077,0.407347,0
26.7222,-15.0929,0.405491,0
26.8395,-15.0754,0.403636,0
26.9566,-15.0551,0.40179,0
27.0733,-15.0322,0.399945,0
27.1895,-15.0065,0.398099,0
27.3051,-14.9781,0.396273,0
27.4201,-14.947,0.394456,0
27.5344,-14.9132,0.39265,0
27.648,-14.8768,0.390853,0
27.7608,-14.8377,0.389066,0
27.8727,-14.796,0.387298,0
27.9874,-14.7598,0.387806,0
28.1019,-14.7215,0.388538,0
28.2156,-14.6805,0.389251,0
28.3286,-14.6366,0.389974,0
28.4408,-14.5899,0.390677,0
28.5521,-14.5404,0.39138,0
28.6624,-14.4882,0.392083,0
28.7716,-14.4331,0.392767,0
28.8797,-14.3752,0.39345,0
28.9866,-14.3147,0.394124,0
29.0923,-14.2513,0.394798,0
29.1964,-14.1853,0.395462,0
29.2993,-14.1166,0.396116,0
29.4005,-14.0453,0.396741,0
29.5002,-13.9713,0.397386,0
29.5982,-13.8947,0.397991,0
29.6945,-13.8156,0.398607,0
29.7889,-13.734,0.399202,0
29.8814,-13.6499,0.399788,0
29.972,-13.5633,0.400364,0
30.0605,-13.4744,0.400921,0
30.1468,-13.3831,0.401468,0
30.231,-13.2895,0.402005,0
30.313,-13.1937,0.402513,0
30.394,-13.0967,0.403421,0
30.4739,-12.9983,0.404691,0
30.5514,-12.8976,0.405902,0
30.6263,-12.7948,0.407093,0
30.6987,-12.6898,0.408236,0
30.7683,-12.5829,0.409339,0
30.8352,-12.4739,0.410404,0
30.8994,-12.3631,0.411409,0
30.9605,-12.2504,0.412376,0
31.0189,-12.1361,0.413304,0
31.0742,-12.02,0.414173,0
31.1264,-11.9024,0.415003,0
31.1756,-11.7833,0.415775,0
31.2215,-11.6628,0.416507,0
31.2644,-11.541,0.417181,0
31.3038,-11.4179,0.417806,0
31.3417,-11.2942,0.418773,0
31.378,-11.1697,0.42014,0
31.4111,-11.0442,0.421448,0
31.4408,-10.9177,0.422718,0
31.4672,-10.7903,0.423948,0
31.4901,-10.6621,0.42512,0
31.5095,-10.5333,0.426243,0
31.5255,-10.4038,0.427318,0
31.5381,-10.2739,0.428333,0
31.5466,-10.1436,0.429193,0
31.5484,-10.013,0.429232,0
31.5466,-9.88243,0.429193,0
31.5412,-9.75199,0.429075,0
31.5321,-9.62178,0.42888,0
31.5194,-9.49189,0.428587,0
31.5031,-9.36249,0.428236,0
31.4832,-9.23363,0.427796,0
31.4598,-9.10543,0.427259,0
31.4328,-8.97803,0.426663,0
31.4037,-8.85125,0.426321,0
31.3751,-8.72447,0.426888,0
31.343,-8.59855,0.427376,0
31.3075,-8.47359,0.427767,0
31.2684,-8.34975,0.428079,0
31.2259,-8.22707,0.428314,0
31.1801,-8.10569,0.42845,0
25.0341,-14.9612,0.41054,0
25.1469,-14.9891,0.41054,0
25.2605,-15.0144,0.410501,0
25.3748,-15.0371,0.410423,0
25.4899,-15.0571,0.410316,0
25.6058,-15.0743,0.410169,0
25.7221,-15.0888,0.409984,0
25.8391,-15.1005,0.409769,0
25.9564,-15.1095,0.409505,0
26.0742,-15.1156,0.409212,0
26.1923,-15.1189,0.40888,0
26.3105,-15.1193,0.408499,0
26.4291,-15.1169,0.408099,0
26.5477,-15.1116,0.407659,0
26.6659,-15.1003,0.40637,0
26.7834,-15.0841,0.404515,0
26.9007,-15.0652,0.402669,0
27.0176,-15.0435,0.400823,0
27.134,-15.0191,0.398978,0
27.2498,-14.992,0.397142,0
27.3652,-14.9622,0.395325,0
27.4799,-14.9297,0.393519,0
27.5938,-14.8946,0.391712,0
27.707,-14.8567,0.389915,0
27.8193,-14.8162,0.388138,0
27.9326,-14.7771,0.387464,0
28.0473,-14.7402,0.388187,0
28.1613,-14.7005,0.388909,0
28.2747,-14.6579,0.389622,0
28.3873,-14.6126,0.390335,0
28.4991,-14.5645,0.391048,0
28.6098,-14.5135,0.391741,0
28.7195,-14.4598,0.392445,0
28.8282,-14.4032,0.393128,0
28.9357,-14.344,0.393812,0
29.0419,-14.282,0.394476,0
29.1468,-14.2172,0.39514,0
29.2503,-14.1498,0.395794,0
29.3523,-14.0797,0.396439,0
29.4528,-14.007,0.397073,0
29.5516,-13.9317,0.397708,0
29.6487,-13.8537,0.398314,0
29.744,-13.7733,0.398919,0
29.8374,-13.6904,0.399515,0
29.9289,-13.605,0.400081,0
30.0184,-13.5172,0.400648,0
30.1058,-13.427,0.401204,0
30.1911,-13.3346,0.401741,0
30.2741,-13.2398,0.402279,0
30.3549,-13.1429,0.402806,0
30.436,-13.0456,0.404085,0
30.5147,-12.946,0.405325,0
30.5909,-12.8442,0.406527,0
30.6644,-12.7403,0.407698,0
30.7354,-12.6342,0.408812,0
30.8036,-12.5262,0.409896,0
30.8691,-12.4163,0.410941,0
30.9317,-12.3045,0.411917,0
30.9914,-12.1909,0.412864,0
31.0482,-12.0757,0.413763,0
31.1019,-11.9588,0.414613,0
31.1524,-11.8404,0.415404,0
31.1999,-11.7205,0.416165,0
31.2443,-11.5993,0.416868,0
31.2854,-11.4769,0.417513,0
31.3231,-11.3533,0.418109,0
31.3611,-11.2294,0.419486,0
31.3957,-11.1043,0.420823,0
31.427,-10.9783,0.422122,0
31.4549,-10.8513,0.423362,0
31.4795,-10.7235,0.424573,0
31.5006,-10.5949,0.425716,0
31.5184,-10.4657,0.42681,0
31.5325,-10.336,0.427855,0
31.5432,-10.2059,0.428841,0
31.548,-10.0754,0.429222,0
31.548,-9.94481,0.429212,0
31.5443,-9.81432,0.429144,0
31.5369,-9.68396,0.428978,0
31.5259,-9.55392,0.428734,0
31.5113,-9.42427,0.428411,0
31.4932,-9.29513,0.428011,0
31.4715,-9.16661,0.427532,0
31.4461,-9.03884,0.426976,0
31.4173,-8.91187,0.426331,0
31.3892,-8.78498,0.426634,0
31.3588,-8.65862,0.427161,0
31.3248,-8.53319,0.427591,0
31.2875,-8.40881,0.427952,0
31.2467,-8.28557,0.428226,0
31.2024,-8.16354,0.428392,0
25.0928,-14.9761,0.41055,0
25.2061,-15.0027,0.41053,0
25.3201,-15.0266,0.410472,0
25.4348,-15.0479,0.410374,0
25.5503,-15.0664,0.410237,0
25.6665,-15.0822,0.410071,0
25.7831,-15.0953,0.409866,0
25.9002,-15.1056,0.409632,0
26.0179,-15.113,0.409349,0
26.1358,-15.1177,0.409036,0
26.254,-15.1195,0.408695,0
26.3725,-15.1184,0.408294,0
26.491,-15.1145,0.407874,0
26.6096,-15.1071,0.407269,0
26.7273,-15.0922,0.405413,0
26.8448,-15.0746,0.403548,0
26.9618,-15.0542,0.401702,0
27.0784,-15.0311,0.399857,0
27.1946,-15.0053,0.398021,0
27.3102,-14.9768,0.396195,0
27.4252,-14.9456,0.394378,0
27.5395,-14.9117,0.392562,0
27.653,-14.8751,0.390775,0
27.7658,-14.8359,0.388987,0
27.8777,-14.7941,0.38722,0
27.9925,-14.7582,0.387845,0
28.1069,-14.7198,0.388568,0
28.2206,-14.6786,0.38929,0
28.3336,-14.6346,0.389993,0
28.4457,-14.5878,0.390716,0
28.557,-14.5382,0.391409,0
28.6673,-14.4858,0.392112,0
28.7764,-14.4306,0.392796,0
28.8845,-14.3726,0.39348,0
28.9912,-14.3119,0.394163,0
29.0969,-14.2485,0.394827,0
29.201,-14.1824,0.395491,0
29.3037,-14.1135,0.396136,0
29.4049,-14.0421,0.39678,0
29.5046,-13.968,0.397405,0
29.6024,-13.8913,0.398021,0
29.6987,-13.8121,0.398636,0
29.793,-13.7303,0.399232,0
29.8854,-13.6461,0.399818,0
29.9759,-13.5595,0.400384,0
30.0643,-13.4704,0.400941,0
30.1505,-13.379,0.401487,0
30.2347,-13.2854,0.402025,0
30.3166,-13.1895,0.402542,0
30.3975,-13.0924,0.40347,0
30.4773,-12.9938,0.404739,0
30.5547,-12.8931,0.40596,0
30.6296,-12.7902,0.407142,0
30.7018,-12.6852,0.408284,0
30.7713,-12.5781,0.409388,0
30.8381,-12.4691,0.410443,0
30.9021,-12.3582,0.411448,0
30.9632,-12.2454,0.412415,0
31.0214,-12.131,0.413343,0
31.0766,-12.0148,0.414212,0
31.1287,-11.8971,0.415032,0
31.1777,-11.778,0.415814,0
31.2234,-11.6574,0.416536,0
31.2662,-11.5356,0.41721,0
31.3055,-11.4125,0.417835,0
31.3434,-11.2887,0.418831,0
31.3795,-11.1642,0.420198,0
31.4125,-11.0386,0.421507,0
31.442,-10.9121,0.422777,0
31.4682,-10.7846,0.423997,0
31.491,-10.6564,0.425169,0
31.5103,-10.5275,0.426292,0
31.5262,-10.3981,0.427357,0
31.5385,-10.2681,0.428372,0
31.5468,-10.1378,0.429193,0
31.5484,-10.0072,0.429232,0
31.5465,-9.87668,0.429193,0
31.5409,-9.74624,0.429066,0
31.5316,-9.61603,0.428861,0
31.5188,-9.48618,0.428577,0
31.5023,-9.35681,0.428226,0
31.4823,-9.22795,0.427767,0
31.4587,-9.09981,0.427259,0
31.4316,-8.97242,0.426634,0
31.4025,-8.84566,0.426361,0
31.3738,-8.71891,0.426927,0
31.3416,-8.59304,0.427405,0
31.3058,-8.46813,0.427796,0
31.2666,-8.3443,0.428089,0
31.224,-8.22168,0.428314,0
31.178,-8.10036,0.42845,0
25.1105,-14.8291,0.408626,0
25.2204,-14.8548,0.408607,0
25.3311,-14.8778,0.408548,0
25.4425,-14.8983,0.40846,0
25.5545,-14.9161,0.408323,0
25.6672,-14.9313,0.408167,0
25.7804,-14.9438,0.407962,0
25.8941,-14.9536,0.407728,0
26.0081,-14.9607,0.407454,0
26.1225,-14.965,0.407152,0
26.2372,-14.9666,0.4068,0
26.3521,-14.9655,0.406439,0
26.4671,-14.9615,0.406019,0
26.5821,-14.9547,0.40557,0
26.6972,-14.9452,0.405081,0
26.8117,-14.931,0.404075,0
26.9255,-14.9112,0.402279,0
27.0388,-14.8888,0.400482,0
27.1516,-14.8638,0.398695,0
27.264,-14.8361,0.396927,0
27.3756,-14.8058,0.395159,0
27.4866,-14.7729,0.393402,0
27.597,-14.7374,0.391654,0
27.7066,-14.6993,0.389925,0
27.8152,-14.6587,0.388206,0
27.9245,-14.6187,0.387415,0
28.0353,-14.5813,0.388109,0
28.1455,-14.5411,0.388812,0
28.255,-14.4982,0.389505,0
28.3636,-14.4526,0.390189,0
28.4713,-14.4042,0.390872,0
28.5782,-14.3532,0.391546,0
28.6839,-14.2995,0.39222,0
28.7885,-14.2431,0.392874,0
28.892,-14.1841,0.393538,0
28.9942,-14.1224,0.394173,0
29.095,-14.0581,0.394818,0
29.1945,-13.9912,0.395443,0
29.2925,-13.9218,0.396068,0
29.3888,-13.8498,0.396673,0
29.4836,-13.7754,0.397279,0
29.5767,-13.6985,0.397864,0
29.668,-13.6191,0.398441,0
29.7575,-13.5374,0.399007,0
29.845,-13.4533,0.399564,0
29.9305,-13.3669,0.400101,0
30.0141,-13.2783,0.400628,0
30.0954,-13.1874,0.401146,0
30.1745,-13.0944,0.401644,0
30.2515,-12.9993,0.402132,0
30.326,-12.9022,0.402601,0
30.3998,-12.804,0.403519,0
30.4721,-12.7043,0.404652,0
30.5417,-12.6026,0.405755,0
30.6089,-12.499,0.40682,0
30.6734,-12.3934,0.407835,0
30.7352,-12.2861,0.408812,0
30.7941,-12.177,0.409749,0
30.8502,-12.0662,0.410628,0
30.9035,-11.9539,0.411478,0
30.9537,-11.84,0.412269,0
31.001,-11.7248,0.413021,0
31.0453,-11.6081,0.413724,0
31.0866,-11.4903,0.414368,0
31.1245,-11.3713,0.414964,0
31.1621,-11.2518,0.416204,0
31.197,-11.1314,0.417513,0
31.2288,-11.0099,0.418792,0
31.2573,-10.8875,0.420013,0
31.2825,-10.7643,0.421185,0
31.3045,-10.6403,0.422318,0
31.3231,-10.5157,0.423402,0
31.3384,-10.3905,0.424437,0
31.3479,-10.2647,0.424798,0
31.353,-10.1387,0.424905,0
31.3549,-10.0126,0.424954,0
31.3531,-9.88647,0.424915,0
31.348,-9.76045,0.424788,0
31.3392,-9.63466,0.424603,0
31.327,-9.50919,0.424329,0
31.3114,-9.38418,0.423997,0
31.2923,-9.25967,0.423558,0
31.2698,-9.13583,0.42307,0
31.2439,-9.01271,0.422484,0
31.2147,-8.89044,0.421829,0
31.1867,-8.76806,0.422308,0
31.1558,-8.64643,0.422777,0
31.1215,-8.52574,0.423167,0
31.0838,-8.40608,0.42347,0
31.0429,-8.28756,0.423695,0
30.997,-8.1709,0.423343,0
25.0583,-14.816,0.408636,0
25.1679,-14.8428,0.408626,0
25.2781,-14.8671,0.408587,0
25.3891,-14.8888,0.408499,0
25.5009,-14.9079,0.408392,0
25.6133,-14.9243,0.408245,0
25.7262,-14.9381,0.40806,0
25.8397,-14.9492,0.407845,0
25.9536,-14.9576,0.407591,0
26.0679,-14.9633,0.407298,0
26.1824,-14.9662,0.406986,0
26.2972,-14.9664,0.406614,0
26.4121,-14.9637,0.406224,0
26.5272,-14.9583,0.405784,0
26.6422,-14.9501,0.405316,0
26.7572,-14.9391,0.404818,0
26.8713,-14.921,0.403128,0
26.9847,-14.8999,0.401331,0
27.0978,-14.8761,0.399544,0
27.2103,-14.8497,0.397777,0
27.3223,-14.8206,0.395999,0
27.4337,-14.789,0.394241,0
27.5444,-14.7547,0.392493,0
27.6543,-14.7178,0.390745,0
27.7634,-14.6784,0.389027,0
27.8716,-14.6365,0.387318,0
27.9824,-14.5995,0.387777,0
28.093,-14.5606,0.38848,0
28.2028,-14.519,0.389173,0
28.3118,-14.4747,0.389857,0
28.42,-14.4277,0.39055,0
28.5272,-14.378,0.391234,0
28.6335,-14.3255,0.391898,0
28.7387,-14.2704,0.392562,0
28.8427,-14.2126,0.393226,0
28.9455,-14.1522,0.39387,0
29.047,-14.0892,0.394515,0
29.1471,-14.0235,0.39514,0
29.2459,-13.9553,0.395765,0
29.343,-13.8845,0.39638,0
29.4385,-13.8113,0.396986,0
29.5325,-13.7355,0.397581,0
29.6246,-13.6573,0.398167,0
29.7149,-13.5767,0.398734,0
29.8034,-13.4937,0.39929,0
29.8899,-13.4085,0.399847,0
29.9744,-13.3209,0.400374,0
30.0568,-13.2311,0.400892,0
30.137,-13.1391,0.401409,0
30.215,-13.045,0.401898,0
30.2907,-12.9489,0.402376,0
30.3644,-12.8509,0.402952,0
30.4378,-12.7522,0.404114,0
30.5088,-12.6515,0.405237,0
30.5771,-12.5487,0.406312,0
30.6428,-12.4441,0.407357,0
30.7059,-12.3376,0.408353,0
30.7662,-12.2293,0.40931,0
30.8237,-12.1194,0.410218,0
30.8784,-12.0078,0.411087,0
30.9301,-11.8946,0.411898,0
30.9789,-11.78,0.412669,0
31.0246,-11.664,0.413392,0
31.0673,-11.5468,0.414066,0
31.1068,-11.4283,0.414691,0
31.1443,-11.309,0.41556,0
31.1807,-11.1891,0.416898,0
31.214,-11.0681,0.418187,0
31.2441,-10.9461,0.419437,0
31.2709,-10.8233,0.420638,0
31.2945,-10.6996,0.42179,0
31.3146,-10.5753,0.422894,0
31.3315,-10.4504,0.423958,0
31.3441,-10.3249,0.42471,0
31.351,-10.199,0.424866,0
31.3545,-10.0729,0.424935,0
31.3545,-9.94673,0.424945,0
31.3509,-9.82066,0.424866,0
31.3438,-9.69474,0.4247,0
31.3334,-9.56911,0.424466,0
31.3193,-9.44387,0.424163,0
31.3019,-9.3191,0.423782,0
31.281,-9.19491,0.423304,0
31.2567,-9.07145,0.422777,0
31.2291,-8.94878,0.422171,0
31.2003,-8.82649,0.422054,0
31.171,-8.70446,0.422571,0
31.1383,-8.5833,0.422991,0
31.1023,-8.46313,0.423323,0
31.0629,-8.34405,0.423587,0
31.0203,-8.22617,0.423773,0
25.1154,-14.8303,0.408626,0
25.2253,-14.8558,0.408607,0
25.336,-14.8788,0.408548,0
25.4474,-14.8991,0.40845,0
25.5595,-14.9168,0.408323,0
25.6722,-14.9319,0.408157,0
25.7855,-14.9443,0.407952,0
25.8991,-14.954,0.407718,0
26.0132,-14.9609,0.407445,0
26.1276,-14.9652,0.407132,0
26.2423,-14.9666,0.40679,0
26.3572,-14.9653,0.406409,0
26.4721,-14.9613,0.405999,0
26.5872,-14.9544,0.40555,0
26.7023,-14.9447,0.405062,0
26.8168,-14.9302,0.403997,0
26.9305,-14.9103,0.402191,0
27.0438,-14.8878,0.400403,0
27.1566,-14.8626,0.398626,0
27.2688,-14.8348,0.396849,0
27.3805,-14.8044,0.395081,0
27.4916,-14.7714,0.393323,0
27.6018,-14.7358,0.391575,0
27.7113,-14.6976,0.389847,0
27.82,-14.6568,0.388128,0
27.9293,-14.6171,0.387445,0
28.0402,-14.5796,0.388148,0
28.1504,-14.5393,0.388841,0
28.2598,-14.4963,0.389534,0
28.3684,-14.4505,0.390218,0
28.4761,-14.4021,0.390902,0
28.5829,-14.3509,0.391575,0
28.6886,-14.2971,0.392239,0
28.7931,-14.2406,0.392904,0
28.8966,-14.1814,0.393568,0
28.9987,-14.1196,0.394202,0
29.0995,-14.0552,0.394847,0
29.1988,-13.9882,0.395472,0
29.2968,-13.9187,0.396087,0
29.393,-13.8466,0.396702,0
29.4877,-13.772,0.397298,0
29.5808,-13.695,0.397894,0
29.672,-13.6155,0.39846,0
29.7614,-13.5337,0.399027,0
29.8487,-13.4495,0.399583,0
29.9343,-13.363,0.40012,0
30.0177,-13.2743,0.400648,0
30.0989,-13.1834,0.401165,0
30.178,-13.0903,0.401663,0
30.2548,-12.9951,0.402152,0
30.3293,-12.8978,0.40262,0
30.403,-12.7997,0.403568,0
30.4752,-12.6999,0.4047,0
30.5448,-12.5981,0.405804,0
30.6118,-12.4943,0.406859,0
30.6762,-12.3887,0.407884,0
30.7377,-12.2813,0.408851,0
30.7966,-12.1721,0.409788,0
30.8527,-12.0613,0.410677,0
30.9058,-11.9489,0.411517,0
30.9559,-11.835,0.412308,0
31.0031,-11.7196,0.41305,0
31.0472,-11.603,0.413743,0
31.0883,-11.4851,0.414398,0
31.1262,-11.366,0.414993,0
31.1637,-11.2465,0.416263,0
31.1985,-11.126,0.417581,0
31.2301,-11.0045,0.418841,0
31.2584,-10.8821,0.420062,0
31.2836,-10.7588,0.421243,0
31.3054,-10.6348,0.422376,0
31.3239,-10.5102,0.42345,0
31.3391,-10.385,0.424486,0
31.3482,-10.2592,0.424798,0
31.3533,-10.1331,0.424915,0
31.3549,-10.007,0.424954,0
31.353,-9.88089,0.424905,0
31.3477,-9.75489,0.424788,0
31.3387,-9.62911,0.424593,0
31.3264,-9.50365,0.42431,0
31.3106,-9.37866,0.423968,0
31.2914,-9.25419,0.423538,0
31.2687,-9.13036,0.42304,0
31.2427,-9.00729,0.422464,0
31.2133,-8.88509,0.42181,0
31.1855,-8.76269,0.422337,0
31.1543,-8.6411,0.422806,0
31.1198,-8.52044,0.423177,0
31.0821,-8.40082,0.42348,0
31.041,-8.28234,0.423695,0
30.9947,-8.16583,0.423294,0
25.132,-14.6912,0.40682,0
25.2388,-14.7158,0.40679,0
25.3463,-14.7379,0.406732,0
25.4545,-14.7575,0.406644,0
25.5634,-14.7746,0.406507,0
25.6728,-14.7891,0.406341,0
25.7827,-14.8009,0.406155,0
25.8931,-14.8102,0.405911,0
26.0038,-14.8168,0.405648,0
26.115,-14.8208,0.405355,0
26.2262,-14.8221,0.405023,0
26.3378,-14.8207,0.404642,0
26.4494,-14.8166,0.404241,0
26.561,-14.8098,0.403802,0
26.6727,-14.8003,0.403323,0
26.7842,-14.7881,0.402816,0
26.8955,-14.7731,0.402279,0
27.0061,-14.7529,0.400999,0
27.1158,-14.7284,0.399271,0
27.2249,-14.7015,0.397542,0
27.3334,-14.6719,0.395823,0
27.4414,-14.6399,0.394124,0
27.5487,-14.6053,0.392425,0
27.655,-14.5682,0.390736,0
27.7607,-14.5286,0.389075,0
27.8654,-14.4865,0.387415,0
27.9723,-14.4486,0.387708,0
28.0792,-14.4093,0.388392,0
28.1853,-14.3673,0.389066,0
28.2906,-14.3227,0.38973,0
28.3952,-14.2755,0.390394,0
28.4986,-14.2257,0.391038,0
28.601,-14.1733,0.391693,0
28.7024,-14.1183,0.392327,0
28.8027,-14.0607,0.392972,0
28.9016,-14.0006,0.393597,0
28.9993,-13.9379,0.394212,0
29.0956,-13.8728,0.394818,0
29.1905,-13.8052,0.395413,0
29.2837,-13.7351,0.396009,0
29.3755,-13.6627,0.396595,0
29.4656,-13.5879,0.397161,0
29.554,-13.5107,0.397718,0
29.6405,-13.4312,0.398265,0
29.7252,-13.3494,0.398802,0
29.808,-13.2655,0.399329,0
29.8888,-13.1794,0.399837,0
29.9674,-13.0911,0.400335,0
30.044,-13.0008,0.400814,0
30.1184,-12.9084,0.401292,0
30.1905,-12.8141,0.401741,0
30.2603,-12.7178,0.402181,0
30.3277,-12.6197,0.402611,0
30.3942,-12.5206,0.403421,0
30.4589,-12.4201,0.404446,0
30.5211,-12.3177,0.405433,0
30.5806,-12.2136,0.40637,0
30.6375,-12.1079,0.407269,0
30.6916,-12.0006,0.408118,0
30.743,-11.8917,0.408939,0
30.7915,-11.7814,0.40971,0
30.837,-11.6697,0.410423,0
30.8798,-11.5568,0.411097,0
30.9194,-11.4427,0.411732,0
30.9567,-11.3276,0.412474,0
30.9934,-11.212,0.413782,0
31.0269,-11.0953,0.415062,0
31.0573,-10.9777,0.416282,0
31.0848,-10.8592,0.417464,0
31.109,-10.7399,0.418607,0
31.1302,-10.6198,0.4197,0
31.1464,-10.499,0.420335,0
31.1582,-10.3777,0.420599,0
31.1666,-10.256,0.420784,0
31.1716,-10.1341,0.420892,0
31.1734,-10.0122,0.420931,0
31.1716,-9.89022,0.420892,0
31.1667,-9.76838,0.420784,0
31.1584,-9.64674,0.420599,0
31.1466,-9.52542,0.420345,0
31.1316,-9.40449,0.420003,0
31.1133,-9.2841,0.419603,0
31.0916,-9.16432,0.419124,0
31.0667,-9.04521,0.418558,0
31.0385,-8.92696,0.417943,0
31.0101,-8.80893,0.418011,0
30.9802,-8.69133,0.41847,0
30.9471,-8.57459,0.418831,0
30.9108,-8.45889,0.419134,0
30.8709,-8.34445,0.419222,0
30.8241,-8.23245,0.418236,0
25.0812,-14.6786,0.40682,0
25.1876,-14.7044,0.40681,0
25.2948,-14.7277,0.406761,0
25.4027,-14.7485,0.406693,0
25.5113,-14.7668,0.406575,0
25.6205,-14.7825,0.406429,0
25.7302,-14.7956,0.406243,0
25.8403,-14.8061,0.406029,0
25.9509,-14.814,0.405784,0
26.0619,-14.8192,0.405501,0
26.173,-14.8218,0.405179,0
26.2845,-14.8217,0.404818,0
26.3961,-14.8189,0.404437,0
26.5077,-14.8134,0.404017,0
26.6193,-14.8052,0.403558,0
26.7309,-14.7943,0.40306,0
26.8424,-14.7806,0.402542,0
26.9534,-14.7637,0.401829,0
27.0634,-14.7404,0.400091,0
27.1728,-14.7147,0.398372,0
27.2816,-14.6863,0.396634,0
27.3899,-14.6555,0.394935,0
27.4974,-14.6221,0.393226,0
27.6043,-14.5862,0.391546,0
27.7103,-14.5478,0.389866,0
27.8155,-14.507,0.388206,0
27.921,-14.4664,0.387386,0
28.0283,-14.4284,0.38807,0
28.1347,-14.3877,0.388743,0
28.2404,-14.3444,0.389417,0
28.3453,-14.2984,0.390071,0
28.4493,-14.2498,0.390726,0
28.5522,-14.1986,0.39139,0
28.6541,-14.1449,0.392025,0
28.7549,-14.0885,0.392659,0
28.8545,-14.0296,0.393294,0
28.9527,-13.9682,0.393919,0
29.0497,-13.9042,0.394534,0
29.1453,-13.8378,0.39514,0
29.2394,-13.7689,0.395726,0
29.3319,-13.6976,0.396312,0
29.4228,-13.6239,0.396888,0
29.512,-13.5479,0.397454,0
29.5994,-13.4695,0.398011,0
29.6849,-13.3888,0.398548,0
29.7686,-13.3059,0.399085,0
29.8504,-13.2208,0.399593,0
29.9301,-13.1335,0.400091,0
30.0077,-13.0442,0.400589,0
30.0831,-12.9528,0.401068,0
30.1563,-12.8594,0.401527,0
30.2273,-12.7641,0.401976,0
30.2958,-12.6668,0.402405,0
30.3623,-12.568,0.402923,0
30.4283,-12.4683,0.403958,0
30.4916,-12.3669,0.404964,0
30.5525,-12.2636,0.405931,0
30.6106,-12.1587,0.406849,0
30.6662,-12.0521,0.407728,0
30.7188,-11.9439,0.408558,0
30.7687,-11.8343,0.409349,0
30.8156,-11.7233,0.410081,0
30.8597,-11.6109,0.410784,0
30.9009,-11.4974,0.411429,0
30.9389,-11.3826,0.412034,0
30.9762,-11.2674,0.413167,0
31.0112,-11.1512,0.414456,0
31.0432,-11.034,0.415696,0
31.0721,-10.9159,0.416907,0
31.0979,-10.797,0.41806,0
31.1204,-10.6773,0.419183,0
31.1396,-10.5569,0.420189,0
31.153,-10.4357,0.420482,0
31.163,-10.3142,0.420696,0
31.1696,-10.1924,0.420853,0
31.173,-10.0705,0.420921,0
31.1729,-9.94851,0.420921,0
31.1695,-9.8266,0.420843,0
31.1627,-9.70485,0.420706,0
31.1526,-9.58336,0.420472,0
31.1391,-9.46224,0.420179,0
31.1224,-9.34158,0.419808,0
31.1023,-9.22147,0.419349,0
31.079,-9.10205,0.418841,0
31.0524,-8.98338,0.418245,0
31.0233,-8.86543,0.417767,0
30.9949,-8.74743,0.418265,0
30.9634,-8.63029,0.418685,0
30.9286,-8.51407,0.419007,0
30.8906,-8.39893,0.419261,0
30.8469,-8.2858,0.418714,0
25.1367,-14.6923,0.40682,0
25.2435,-14.7168,0.40679,0
25.3511,-14.7389,0.406732,0
25.4594,-14.7583,0.406634,0
25.5682,-14.7753,0.406497,0
25.6776,-14.7896,0.406341,0
25.7877,-14.8014,0.406146,0
25.898,-14.8106,0.405902,0
26.0087,-14.8171,0.405638,0
26.1199,-14.8209,0.405335,0
26.2312,-14.8221,0.404993,0
26.3427,-14.8206,0.404632,0
26.4543,-14.8164,0.404222,0
26.5659,-14.8095,0.403782,0
26.6776,-14.7998,0.403304,0
26.7891,-14.7875,0.402796,0
26.9005,-14.7724,0.402249,0
27.0109,-14.7519,0.400921,0
27.1206,-14.7273,0.399193,0
27.2297,-14.7002,0.397464,0
27.3382,-14.6705,0.395745,0
27.4461,-14.6384,0.394046,0
27.5534,-14.6037,0.392347,0
27.6597,-14.5665,0.390667,0
27.7653,-14.5268,0.388997,0
27.87,-14.4846,0.387337,0
27.977,-14.4469,0.387747,0
28.0839,-14.4075,0.388421,0
28.19,-14.3654,0.389095,0
28.2953,-14.3207,0.389759,0
28.3997,-14.2734,0.390413,0
28.5031,-14.2234,0.391077,0
28.6055,-14.1709,0.391722,0
28.7069,-14.1158,0.392357,0
28.807,-14.0581,0.392991,0
28.9059,-13.9979,0.393626,0
29.0036,-13.9351,0.394232,0
29.0998,-13.8699,0.394847,0
29.1946,-13.8022,0.395452,0
29.2879,-13.732,0.396029,0
29.3795,-13.6594,0.396614,0
29.4695,-13.5845,0.397191,0
29.5578,-13.5072,0.397747,0
29.6443,-13.4276,0.398294,0
29.7289,-13.3458,0.398821,0
29.8116,-13.2617,0.399349,0
29.8922,-13.1755,0.399857,0
29.9709,-13.0871,0.400355,0
30.0473,-12.9967,0.400843,0
30.1216,-12.9043,0.401312,0
30.1937,-12.8099,0.401761,0
30.2634,-12.7135,0.4022,0
30.3307,-12.6154,0.40263,0
30.397,-12.5162,0.40347,0
30.4616,-12.4156,0.404495,0
30.5238,-12.3132,0.405472,0
30.5832,-12.209,0.406409,0
30.64,-12.1032,0.407308,0
30.694,-11.9958,0.408167,0
30.7452,-11.8869,0.408978,0
30.7936,-11.7765,0.409739,0
30.8391,-11.6648,0.410452,0
30.8816,-11.5518,0.411126,0
30.9211,-11.4376,0.411761,0
30.9584,-11.3225,0.412532,0
30.9948,-11.2069,0.413841,0
31.0283,-11.0902,0.415111,0
31.0587,-10.9725,0.416331,0
31.0859,-10.8539,0.417513,0
31.11,-10.7346,0.418655,0
31.1309,-10.6145,0.419739,0
31.147,-10.4937,0.420345,0
31.1586,-10.3723,0.420599,0
31.1669,-10.2506,0.420794,0
31.1718,-10.1288,0.420902,0
31.1734,-10.0068,0.420941,0
31.1716,-9.88485,0.420892,0
31.1664,-9.76302,0.420775,0
31.1579,-9.64139,0.420589,0
31.146,-9.52008,0.420325,0
31.1308,-9.39919,0.419993,0
31.1123,-9.27882,0.419593,0
31.0905,-9.15904,0.419105,0
31.0655,-9.03999,0.418538,0
31.0373,-8.92177,0.417913,0
31.0089,-8.80374,0.41805,0
30.9789,-8.68616,0.41848,0
30.9456,-8.56949,0.418861,0
30.9091,-8.45381,0.419144,0
30.8688,-8.33947,0.419173,0
30.822,-8.22755,0.418187,0
25.1523,-14.5604,0.405101,0
25.2562,-14.5841,0.405071,0
25.3607,-14.6054,0.405013,0
25.4659,-14.6242,0.404915,0
25.5718,-14.6405,0.404788,0
25.6781,-14.6543,0.404622,0
25.785,-14.6656,0.404427,0
25.8922,-14.6744,0.404202,0
25.9998,-14.6806,0.403939,0
26.1077,-14.6842,0.403646,0
26.2159,-14.6853,0.403323,0
26.3242,-14.6837,0.402952,0
26.4327,-14.6795,0.402562,0
26.5411,-14.6727,0.402132,0
26.6495,-14.6632,0.401673,0
26.7578,-14.6511,0.401175,0
26.8659,-14.6363,0.400638,0
26.9738,-14.6189,0.400081,0
27.0814,-14.5988,0.399486,0
27.1879,-14.5736,0.398128,0
27.2934,-14.5448,0.396448,0
27.3984,-14.5135,0.394798,0
27.5027,-14.4798,0.393148,0
27.6062,-14.4436,0.391507,0
27.709,-14.4051,0.389886,0
27.8107,-14.3641,0.388284,0
27.9127,-14.3229,0.387337,0
28.0164,-14.2844,0.387991,0
28.1194,-14.2434,0.388646,0
28.2216,-14.1997,0.38929,0
28.3228,-14.1536,0.389925,0
28.4233,-14.105,0.39057,0
28.5227,-14.0538,0.391195,0
28.6209,-14.0001,0.39181,0
28.718,-13.9439,0.392425,0
28.8141,-13.8853,0.39303,0
28.9087,-13.8242,0.393636,0
29.002,-13.7608,0.394232,0
29.094,-13.6949,0.394808,0
29.1844,-13.6267,0.395374,0
29.2733,-13.5561,0.395941,0
29.3605,-13.4833,0.396497,0
29.4461,-13.4081,0.397034,0
29.5299,-13.3308,0.397562,0
29.612,-13.2513,0.398089,0
29.6921,-13.1696,0.398597,0
29.7703,-13.0859,0.399085,0
29.8465,-13.0001,0.399573,0
29.9206,-12.9123,0.400042,0
29.9927,-12.8225,0.400491,0
30.0624,-12.7308,0.400931,0
30.13,-12.6373,0.40137,0
30.1953,-12.542,0.401771,0
30.2582,-12.445,0.402171,0
30.3187,-12.3463,0.402552,0
30.3776,-12.2464,0.403157,0
30.4352,-12.1454,0.404075,0
30.49,-12.0428,0.404945,0
30.5423,-11.9387,0.405765,0
30.5918,-11.8332,0.406546,0
30.6386,-11.7262,0.407288,0
30.6826,-11.6179,0.407982,0
30.7237,-11.5084,0.408636,0
30.762,-11.3978,0.409241,0
30.7991,-11.2865,0.410237,0
30.8344,-11.1745,0.411507,0
30.8666,-11.0614,0.412737,0
30.896,-10.9474,0.413919,0
30.9223,-10.8325,0.415062,0
30.9445,-10.7167,0.415863,0
30.9623,-10.6001,0.416263,0
30.9768,-10.483,0.416585,0
30.9881,-10.3656,0.416839,0
30.9963,-10.2478,0.417005,0
31.0011,-10.1299,0.417122,0
31.0028,-10.0118,0.417161,0
31.0012,-9.89378,0.417122,0
30.9964,-9.77584,0.417015,0
30.9883,-9.6581,0.416839,0
30.9771,-9.54064,0.416575,0
30.9626,-9.4236,0.416263,0
30.9449,-9.30706,0.415882,0
30.9241,-9.19107,0.415404,0
30.9002,-9.0758,0.414886,0
30.873,-8.96127,0.41428,0
30.8442,-8.84731,0.413978,0
30.8154,-8.73349,0.414417,0
30.7834,-8.62052,0.414779,0
30.7483,-8.50852,0.415071,0
30.7069,-8.39863,0.414378,0
30.662,-8.29022,0.413441,0
25.103,-14.5482,0.405101,0
25.2065,-14.5731,0.405091,0
25.3106,-14.5955,0.405052,0
25.4155,-14.6155,0.404964,0
25.5211,-14.633,0.404847,0
25.6272,-14.648,0.4047,0
25.7338,-14.6605,0.404525,0
25.8409,-14.6705,0.40432,0
25.9484,-14.6779,0.404075,0
26.0562,-14.6828,0.403792,0
26.1642,-14.6851,0.40348,0
26.2724,-14.6848,0.403138,0
26.3809,-14.6818,0.402757,0
26.4893,-14.6762,0.402337,0
26.5977,-14.668,0.401888,0
26.706,-14.6572,0.401409,0
26.8143,-14.6437,0.400902,0
26.9223,-14.6276,0.400345,0
27.0301,-14.6088,0.399779,0
27.1372,-14.5865,0.398929,0
27.243,-14.5589,0.397259,0
27.3484,-14.5288,0.395589,0
27.453,-14.4962,0.393929,0
27.5568,-14.4612,0.392288,0
27.6599,-14.4238,0.390667,0
27.7622,-14.384,0.389046,0
27.8636,-14.3418,0.387445,0
27.967,-14.3031,0.387679,0
28.0702,-14.2633,0.388333,0
28.1729,-14.2209,0.388987,0
28.2745,-14.176,0.389622,0
28.3754,-14.1285,0.390267,0
28.4753,-14.0785,0.390902,0
28.5741,-14.026,0.391517,0
28.6717,-13.9711,0.392142,0
28.7684,-13.9136,0.392747,0
28.8637,-13.8537,0.393353,0
28.9576,-13.7914,0.393948,0
29.0502,-13.7267,0.394534,0
29.1413,-13.6596,0.395111,0
29.2309,-13.5901,0.395677,0
29.3191,-13.5184,0.396234,0
29.4055,-13.4443,0.39678,0
29.4901,-13.368,0.397318,0
29.573,-13.2896,0.397835,0
29.654,-13.2089,0.398353,0
29.7332,-13.1262,0.398851,0
29.8103,-13.0413,0.399339,0
29.8854,-12.9545,0.399818,0
29.9584,-12.8656,0.400277,0
30.0294,-12.7749,0.400726,0
30.098,-12.6822,0.401155,0
30.1644,-12.5878,0.401575,0
30.2284,-12.4916,0.401986,0
30.2901,-12.3937,0.402376,0
30.3493,-12.2941,0.402747,0
30.4079,-12.1939,0.403646,0
30.4641,-12.0921,0.404525,0
30.5176,-11.9887,0.405374,0
30.5684,-11.8838,0.406175,0
30.6166,-11.7775,0.406937,0
30.662,-11.6698,0.407659,0
30.7045,-11.5609,0.408333,0
30.7441,-11.4508,0.408948,0
30.7812,-11.3397,0.409632,0
30.8178,-11.2282,0.410921,0
30.8516,-11.1155,0.412152,0
30.8823,-11.002,0.413363,0
30.9102,-10.8875,0.414525,0
30.9349,-10.7722,0.415648,0
30.9541,-10.6559,0.416077,0
30.9703,-10.539,0.416439,0
30.9831,-10.4217,0.416722,0
30.9927,-10.3041,0.416937,0
30.9992,-10.1862,0.417073,0
31.0024,-10.0682,0.417152,0
31.0023,-9.9502,0.417152,0
30.9991,-9.83219,0.417073,0
30.9926,-9.71434,0.416927,0
30.9829,-9.59674,0.416712,0
30.9699,-9.47949,0.416419,0
30.9537,-9.36269,0.416068,0
30.9345,-9.24643,0.415638,0
30.912,-9.1308,0.41514,0
30.8864,-9.01592,0.414583,0
30.8577,-8.90184,0.413939,0
30.8295,-8.78779,0.414222,0
30.7991,-8.6744,0.414613,0
30.7655,-8.56192,0.414945,0
30.7273,-8.4509,0.414788,0
30.6838,-8.34186,0.4139,0
25.157,-14.5615,0.405101,0
25.2608,-14.5851,0.405071,0
25.3653,-14.6062,0.405003,0
25.4705,-14.6249,0.404905,0
25.5764,-14.6411,0.404788,0
25.6828,-14.6549,0.404612,0
25.7897,-14.6661,0.404427,0
25.897,-14.6747,0.404193,0
26.0046,-14.6808,0.403929,0
26.1125,-14.6843,0.403626,0
26.2207,-14.6852,0.403304,0
26.329,-14.6835,0.402933,0
26.4374,-14.6792,0.402542,0
26.5459,-14.6723,0.402112,0
26.6543,-14.6627,0.401653,0
26.7626,-14.6505,0.401146,0
26.8707,-14.6356,0.400618,0
26.9786,-14.6181,0.400052,0
27.0862,-14.5979,0.399456,0
27.1926,-14.5724,0.39805,0
27.2981,-14.5435,0.39638,0
27.403,-14.5121,0.39473,0
27.5073,-14.4783,0.393079,0
27.6108,-14.442,0.391439,0
27.7134,-14.4033,0.389818,0
27.8152,-14.3622,0.388216,0
27.9173,-14.3212,0.387366,0
28.0209,-14.2826,0.388021,0
28.1239,-14.2415,0.388675,0
28.226,-14.1978,0.38932,0
28.3273,-14.1515,0.389964,0
28.4277,-14.1028,0.390599,0
28.527,-14.0515,0.391224,0
28.6252,-13.9977,0.391839,0
28.7223,-13.9414,0.392464,0
28.8183,-13.8826,0.39306,0
28.9129,-13.8215,0.393665,0
29.0062,-13.7579,0.394251,0
29.098,-13.6919,0.394837,0
29.1884,-13.6236,0.395404,0
29.2771,-13.5529,0.39596,0
29.3644,-13.48,0.396517,0
29.4498,-13.4048,0.397064,0
29.5336,-13.3274,0.397591,0
29.6155,-13.2477,0.398109,0
29.6955,-13.166,0.398616,0
29.7737,-13.0821,0.399105,0
29.8498,-12.9962,0.399583,0
29.9238,-12.9083,0.400062,0
29.9957,-12.8185,0.400521,0
30.0655,-12.7267,0.40095,0
30.133,-12.6332,0.40138,0
30.198,-12.5378,0.40179,0
30.2609,-12.4407,0.402181,0
30.3213,-12.3419,0.402571,0
30.3802,-12.242,0.403206,0
30.4376,-12.1409,0.404105,0
30.4923,-12.0383,0.404974,0
30.5445,-11.9341,0.405794,0
30.5939,-11.8285,0.406585,0
30.6405,-11.7214,0.407318,0
30.6845,-11.6131,0.408021,0
30.7255,-11.5036,0.408655,0
30.7637,-11.3929,0.409261,0
30.8007,-11.2816,0.410296,0
30.8359,-11.1695,0.411556,0
30.868,-11.0564,0.412796,0
30.8973,-10.9423,0.413968,0
30.9234,-10.8274,0.415111,0
30.9454,-10.7116,0.415892,0
30.963,-10.5949,0.416273,0
30.9773,-10.4779,0.416595,0
30.9885,-10.3604,0.416839,0
30.9966,-10.2426,0.417025,0
31.0012,-10.1246,0.417122,0
31.0028,-10.0066,0.417152,0
31.001,-9.88856,0.417112,0
30.9961,-9.77064,0.417005,0
30.988,-9.65292,0.416829,0
30.9765,-9.53549,0.416575,0
30.962,-9.41847,0.416253,0
30.9441,-9.30192,0.415853,0
30.9231,-9.18599,0.415394,0
30.8991,-9.07072,0.414866,0
30.8718,-8.95624,0.414251,0
30.843,-8.84227,0.413987,0
30.814,-8.7285,0.414437,0
30.7819,-8.61558,0.414798,0
30.7466,-8.5036,0.415081,0
30.705,-8.39381,0.414339,0
30.6599,-8.28548,0.413402,0
25.1716,-14.4362,0.40347,0
25.2727,-14.459,0.403441,0
25.3744,-14.4795,0.403372,0
25.4768,-14.4975,0.403275,0
25.5797,-14.5132,0.403148,0
25.6831,-14.5264,0.402991,0
25.7871,-14.5372,0.402796,0
25.8913,-14.5455,0.402571,0
25.996,-14.5513,0.402318,0
26.1009,-14.5546,0.402025,0
26.2061,-14.5554,0.401702,0
26.3114,-14.5537,0.401351,0
26.4167,-14.5494,0.40096,0
26.5221,-14.5425,0.40054,0
26.6275,-14.5332,0.400091,0
26.7328,-14.5212,0.399603,0
26.8378,-14.5067,0.399095,0
26.9427,-14.4895,0.398538,0
27.0472,-14.4699,0.397962,0
27.1513,-14.4476,0.397347,0
27.2551,-14.4228,0.396712,0
27.3575,-14.3934,0.395452,0
27.459,-14.3605,0.393841,0
27.5598,-14.3253,0.392249,0
27.6597,-14.2877,0.390667,0
27.7587,-14.2477,0.389105,0
27.857,-14.2054,0.387552,0
27.9569,-14.1659,0.38762,0
28.0568,-14.1258,0.388255,0
28.1559,-14.0831,0.38888,0
28.2544,-14.038,0.389495,0
28.3518,-13.9905,0.390111,0
28.4482,-13.9405,0.390726,0
28.5437,-13.8881,0.391331,0
28.6379,-13.8332,0.391927,0
28.731,-13.776,0.392513,0
28.8229,-13.7165,0.393089,0
28.9134,-13.6546,0.393665,0
29.0025,-13.5904,0.394232,0
29.0902,-13.5239,0.394788,0
29.1764,-13.4552,0.395325,0
29.261,-13.3842,0.395862,0
29.344,-13.3111,0.39639,0
29.4252,-13.2358,0.396898,0
29.5048,-13.1583,0.397405,0
29.5824,-13.0789,0.397904,0
29.6582,-12.9974,0.398372,0
29.732,-12.9139,0.398841,0
29.8038,-12.8285,0.3993,0
29.8736,-12.7412,0.399739,0
29.9412,-12.6521,0.400169,0
30.0066,-12.5612,0.400589,0
30.0699,-12.4685,0.40098,0
30.1309,-12.3742,0.401361,0
30.1895,-12.2783,0.401732,0
30.2457,-12.1808,0.402093,0
30.2995,-12.0818,0.402435,0
30.3509,-11.9814,0.402757,0
30.4012,-11.8804,0.403538,0
30.4491,-11.7779,0.40429,0
30.4944,-11.6741,0.405013,0
30.5369,-11.5691,0.405687,0
30.5766,-11.4628,0.406312,0
30.6137,-11.3555,0.406888,0
30.6503,-11.2478,0.408138,0
30.6843,-11.1391,0.409359,0
30.7155,-11.0293,0.41055,0
30.7427,-10.9185,0.4114,0
30.7658,-10.8068,0.411907,0
30.786,-10.6944,0.412357,0
30.803,-10.5814,0.412737,0
30.8171,-10.468,0.41305,0
30.828,-10.3542,0.413294,0
30.8359,-10.2401,0.41346,0
30.8406,-10.1258,0.413568,0
30.8422,-10.0115,0.413597,0
30.8407,-9.8971,0.413568,0
30.836,-9.78285,0.41346,0
30.8283,-9.66879,0.413294,0
30.8175,-9.55501,0.41306,0
30.8035,-9.44161,0.412747,0
30.7865,-9.32867,0.412366,0
30.7664,-9.2163,0.411927,0
30.7433,-9.10457,0.411409,0
30.7172,-8.99359,0.410833,0
30.688,-8.88345,0.410189,0
30.6601,-8.77319,0.410609,0
30.6292,-8.66375,0.41096,0
30.5931,-8.55585,0.410628,0
30.5527,-8.44957,0.409818,0
30.5094,-8.34454,0.408919,0
25.1236,-14.4245,0.40347,0
25.2243,-14.4484,0.40346,0
25.3257,-14.47,0.403411,0
25.4277,-14.4892,0.403323,0
25.5305,-14.506,0.403216,0
25.6337,-14.5204,0.40307,0
25.7373,-14.5324,0.402903,0
25.8415,-14.5418,0.402679,0
25.9459,-14.5488,0.402445,0
26.0508,-14.5534,0.402171,0
26.1558,-14.5553,0.401859,0
26.261,-14.5548,0.401517,0
26.3663,-14.5518,0.401155,0
26.4718,-14.5461,0.400745,0
26.5772,-14.538,0.400306,0
26.6825,-14.5272,0.399837,0
26.7876,-14.5139,0.399339,0
26.8927,-14.498,0.398812,0
26.9973,-14.4796,0.398245,0
27.1016,-14.4586,0.39765,0
27.2055,-14.435,0.397025,0
27.3088,-14.4083,0.396214,0
27.4106,-14.3765,0.394603,0
27.5117,-14.3424,0.393011,0
27.612,-14.3059,0.391419,0
27.7115,-14.2671,0.389847,0
27.8102,-14.2259,0.388284,0
27.9087,-14.1843,0.387308,0
28.0091,-14.1453,0.387943,0
28.1087,-14.1038,0.388577,0
28.2075,-14.0599,0.389202,0
28.3053,-14.0135,0.389818,0
28.4023,-13.9647,0.390433,0
28.4982,-13.9134,0.391038,0
28.593,-13.8597,0.391644,0
28.6867,-13.8037,0.392239,0
28.7791,-13.7452,0.392816,0
28.8703,-13.6845,0.393392,0
28.9601,-13.6214,0.393958,0
29.0485,-13.556,0.394515,0
29.1354,-13.4883,0.395071,0
29.2208,-13.4184,0.395609,0
29.3045,-13.3463,0.396146,0
29.3866,-13.272,0.396663,0
29.467,-13.1956,0.397171,0
29.5455,-13.1171,0.397659,0
29.6222,-13.0366,0.398148,0
29.697,-12.9541,0.398616,0
29.7698,-12.8696,0.399085,0
29.8405,-12.7831,0.399525,0
29.9091,-12.6949,0.399964,0
29.9756,-12.6048,0.400384,0
30.04,-12.513,0.400784,0
30.102,-12.4195,0.401185,0
30.1617,-12.3243,0.401566,0
30.2191,-12.2276,0.401927,0
30.2741,-12.1293,0.402269,0
30.3266,-12.0296,0.402601,0
30.3774,-11.9288,0.403157,0
30.4266,-11.827,0.403929,0
30.473,-11.7239,0.404671,0
30.5169,-11.6194,0.405364,0
30.558,-11.5137,0.406009,0
30.5963,-11.4069,0.406614,0
30.6331,-11.2994,0.407532,0
30.6684,-11.1912,0.408782,0
30.7009,-11.0819,0.409993,0
30.7305,-10.9717,0.411126,0
30.7551,-10.8603,0.411673,0
30.7767,-10.7481,0.412152,0
30.7953,-10.6354,0.412562,0
30.8109,-10.5222,0.412904,0
30.8232,-10.4086,0.413177,0
30.8326,-10.2946,0.413382,0
30.8387,-10.1804,0.413519,0
30.8418,-10.0661,0.413587,0
30.8418,-9.95177,0.413597,0
30.8387,-9.83745,0.413529,0
30.8324,-9.72329,0.413392,0
30.823,-9.60935,0.413177,0
30.8105,-9.49576,0.412904,0
30.795,-9.38258,0.412552,0
30.7764,-9.26993,0.412142,0
30.7548,-9.15788,0.411663,0
30.73,-9.04653,0.411116,0
30.7023,-8.93598,0.410501,0
30.6738,-8.82581,0.410423,0
30.6444,-8.71596,0.410804,0
30.6114,-8.6071,0.410999,0
30.5724,-8.50021,0.410218,0
30.5304,-8.39459,0.409368,0
25.1761,-14.4373,0.40347,0
25.2771,-14.46,0.403441,0
25.3789,-14.4803,0.403372,0
25.4812,-14.4983,0.403275,0
25.5843,-14.5138,0.403148,0
25.6877,-14.5269,0.402982,0
25.7916,-14.5376,0.402786,0
25.8959,-14.5458,0.402571,0
26.0006,-14.5515,0.402298,0
26.1055,-14.5547,0.402015,0
26.2108,-14.5554,0.401693,0
26.316,-14.5535,0.401331,0
26.4214,-14.5491,0.400941,0
26.5268,-14.5422,0.400521,0
26.6321,-14.5327,0.400071,0
26.7374,-14.5206,0.399583,0
26.8425,-14.5059,0.399066,0
26.9473,-14.4887,0.398519,0
27.0518,-14.4689,0.397943,0
27.1559,-14.4466,0.397318,0
27.2596,-14.4216,0.396683,0
27.362,-14.392,0.395374,0
27.4634,-14.359,0.393773,0
27.5642,-14.3237,0.392181,0
27.6641,-14.2859,0.390599,0
27.7631,-14.2459,0.389036,0
27.8613,-14.2035,0.387484,0
27.9613,-14.1642,0.38765,0
28.0612,-14.1239,0.388275,0
28.1603,-14.0812,0.3889,0
28.2587,-14.036,0.389525,0
28.3561,-13.9883,0.39014,0
28.4524,-13.9382,0.390755,0
28.5478,-13.8857,0.391351,0
28.642,-13.8308,0.391956,0
28.7351,-13.7735,0.392542,0
28.8269,-13.7138,0.393118,0
28.9173,-13.6518,0.393695,0
29.0064,-13.5875,0.394261,0
29.0941,-13.5209,0.394808,0
29.1802,-13.4521,0.395355,0
29.2648,-13.381,0.395892,0
29.3476,-13.3078,0.396419,0
29.4288,-13.2324,0.396927,0
29.5082,-13.1549,0.397425,0
29.5858,-13.0753,0.397913,0
29.6615,-12.9937,0.398402,0
29.7352,-12.9102,0.398861,0
29.807,-12.8247,0.39932,0
29.8766,-12.7373,0.399749,0
29.9441,-12.6481,0.400179,0
30.0095,-12.5571,0.400599,0
30.0727,-12.4644,0.400999,0
30.1334,-12.37,0.40138,0
30.192,-12.274,0.401751,0
30.2481,-12.1765,0.402112,0
30.3018,-12.0774,0.402454,0
30.353,-11.977,0.402767,0
30.4034,-11.8758,0.403568,0
30.4512,-11.7733,0.404329,0
30.4963,-11.6695,0.405032,0
30.5387,-11.5644,0.405706,0
30.5783,-11.4581,0.406331,0
30.6152,-11.3507,0.406927,0
30.6519,-11.243,0.408196,0
30.6858,-11.1342,0.409417,0
30.7167,-11.0245,0.410609,0
30.7437,-10.9136,0.411419,0
30.7668,-10.8018,0.411927,0
30.7868,-10.6894,0.412376,0
30.8038,-10.5764,0.412747,0
30.8177,-10.4629,0.41305,0
