67.4565,-45.7705,-2.32341,0
67.4162,-45.6117,-2.31089,0
67.368,-45.4554,-2.29815,0
67.3153,-45.2996,-2.28491,0
67.2583,-45.1443,-2.27113,0
66.821,-45.2982,-2.29678,174
66.7372,-45.1742,-2.28544,174
67.0609,-44.6825,-2.22656,0
66.9864,-44.5305,-2.21064,0
66.9073,-44.3798,-2.1942,0
66.8237,-44.2305,-2.17723,0
66.733,-44.0857,-2.16011,0
66.6306,-43.9511,-2.14356,0
66.5241,-43.8191,-2.12657,0
66.4134,-43.6899,-2.10919,0
66.2987,-43.5636,-2.09142,0
66.0347,-43.6375,-2.09823,174
66.0594,-43.3177,-2.05441,0
65.9345,-43.1991,-2.03527,0
65.8058,-43.0839,-2.01579,0
65.6732,-42.9725,-1.99599,0
65.5372,-42.8649,-1.97587,0
65.4002,-42.7566,-1.95486,0
65.2595,-42.6525,-1.93355,0
65.1152,-42.5525,-1.91198,0
66.2485,-55.3766,-1.78945,0
66.3681,-55.2579,-1.8117,0
66.4841,-55.1364,-1.83367,0
66.5966,-55.0121,-1.85536,0
66.7055,-54.8851,-1.87676,0
66.8105,-54.7557,-1.89784,0
66.9119,-54.6238,-1.91859,0
67.0096,-54.4897,-1.939,0
67.1034,-54.3535,-1.95906,0
67.1935,-54.2153,-1.97874,0
67.2797,-54.0751,-1.99805,0
67.362,-53.9333,-2.01698,0
66.2851,-52.9202,-2.1979,174
66.3819,-52.8313,-2.20729,174
67.5852,-53.4985,-2.07135,0
67.6515,-53.3508,-2.08866,0
67.6948,-53.1902,-2.10787,0
67.734,-53.0295,-2.12653,0
67.7746,-52.8722,-2.14398,0
67.8112,-52.7148,-2.16091,0
67.8439,-52.5576,-2.17729,0
67.8728,-52.4006,-2.19312,0
67.8979,-52.244,-2.20843,0
67.9193,-52.0878,-2.22319,0
67.937,-51.9321,-2.2374,0
67.9511,-51.777,-2.2511,0
66.419,-51.094,-2.40644,174
67.9687,-51.469,-2.27686,0
67.9723,-51.3162,-2.28894,0
67.9725,-51.1644,-2.30049,0
67.9694,-51.0136,-2.31153,0
67.9667,-50.8646,-2.32174,0
67.9863,-50.7216,-2.32937,0
68.0026,-50.5785,-2.33657,0
68.0158,-50.4353,-2.34335,0
68.0258,-50.292,-2.34968,0
68.0433,-50.1499,-2.35478,0
68.0602,-50.0076,-2.35926,0
68.0745,-49.8649,-2.3633,0
68.0857,-49.7218,-2.36691,0
68.0942,-49.5784,-2.37007,0
68.1,-49.4348,-2.37279,0
68.1029,-49.2909,-2.37506,0
68.1029,-49.1469,-2.37688,0
68.1,-49.0027,-2.37825,0
68.0942,-48.8585,-2.37918,0
68.0857,-48.7142,-2.37965,0
68.0743,-48.5699,-2.37966,0
68.0599,-48.4256,-2.37922,0
68.0445,-48.2812,-2.37819,0
68.0263,-48.1368,-2.37669,0
68.0052,-47.9925,-2.37471,0
67.9812,-47.8483,-2.37229,0
67.9474,-47.7064,-2.3699,0
67.9105,-47.5651,-2.36709,0
67.8705,-47.4245,-2.36382,0
67.8277,-47.2847,-2.36011,0
67.7818,-47.1456,-2.35593,0
67.733,-47.0074,-2.35131,0
67.6814,-46.8701,-2.34623,0
67.6268,-46.7338,-2.3407,0
67.5694,-46.5985,-2.33473,0
67.5091,-46.4643,-2.32831,0
67.4458,-46.3313,-2.32144,0
67.3762,-46.2015,-2.31446,0
67.2998,-46.0756,-2.30742,0
67.2253,-45.9485,-2.29951,0
67.1798,-45.8014,-2.28797,0
67.1323,-45.6533,-2.27574,0
67.0809,-45.5056,-2.26298,0
67.0254,-45.3584,-2.24973,0
66.8092,-45.3394,-2.25395,174
66.7399,-45.2043,-2.241,174
66.8339,-44.9212,-2.20694,0
66.7619,-44.7775,-2.19169,0
66.6855,-44.635,-2.17593,0
66.6049,-44.4939,-2.15968,0
66.52,-44.3547,-2.14301,0
66.422,-44.2271,-2.1272,0
66.32,-44.1019,-2.111,0
66.2142,-43.9794,-2.09442,0
66.1048,-43.8597,-2.07748,0
65.9916,-43.743,-2.06017,0
65.8747,-43.6292,-2.04255,0
65.7542,-43.5188,-2.02457,0
65.631,-43.4107,-2.00616,0
65.5048,-43.3053,-1.98734,0
65.3753,-43.2035,-1.96823,0
65.243,-43.1044,-1.94868,0
64.3957,-44.3707,-2.12035,174
64.3245,-44.2216,-2.09361,174
66.2573,-55.3682,-1.79105,0
66.3766,-55.2493,-1.81328,0
66.4923,-55.1275,-1.83524,0
66.6046,-55.003,-1.85692,0
66.7131,-54.8759,-1.87828,0
66.818,-54.7463,-1.89934,0
66.9191,-54.6143,-1.92007,0
67.0166,-54.48,-1.94045,0
67.1101,-54.3436,-1.96049,0
67.1998,-54.2052,-1.98014,0
67.2857,-54.065,-1.99944,0
67.3677,-53.923,-2.01833,0
66.2891,-52.9116,-2.19901,174
66.3917,-52.8269,-2.20757,174
67.5901,-53.4879,-2.07261,0
67.6547,-53.3392,-2.09006,0
67.6978,-53.1786,-2.10923,0
67.7371,-53.0182,-2.1278,0
67.7773,-52.8608,-2.14522,0
67.8137,-52.7035,-2.1621,0
67.8461,-52.5463,-2.17844,0
67.8748,-52.3893,-2.19424,0
67.8996,-52.2327,-2.20951,0
67.9207,-52.0765,-2.22424,0
67.9381,-51.9209,-2.23841,0
67.952,-51.7658,-2.25206,0
66.4186,-51.0854,-2.40723,174
67.9691,-51.4579,-2.27775,0
67.9723,-51.3053,-2.2898,0
67.9723,-51.1535,-2.30131,0
67.9691,-51.0028,-2.3123,0
67.9682,-50.8543,-2.3223,0
67.9876,-50.7113,-2.3299,0
68.0036,-50.5682,-2.33708,0
68.0166,-50.4249,-2.34382,0
68.0264,-50.2817,-2.35012,0
68.0446,-50.1396,-2.35511,0
68.0614,-49.9973,-2.35957,0
68.0753,-49.8546,-2.36358,0
68.0865,-49.7115,-2.36715,0
68.0948,-49.5681,-2.37028,0
68.1003,-49.4245,-2.37296,0
68.1029,-49.2806,-2.3752,0
68.1027,-49.1365,-2.37699,0
68.0997,-48.9923,-2.37833,0
68.0938,-48.8481,-2.37923,0
68.085,-48.7038,-2.37966,0
68.0733,-48.5595,-2.37964,0
68.0587,-48.4153,-2.37916,0
68.0433,-48.2708,-2.37809,0
68.0249,-48.1264,-2.37655,0
68.0036,-47.9821,-2.37456,0
67.9791,-47.838,-2.37211,0
67.9448,-47.6962,-2.36972,0
67.9077,-47.555,-2.36687,0
67.8676,-47.4144,-2.36357,0
67.8244,-47.2746,-2.35982,0
67.7784,-47.1356,-2.35562,0
67.7294,-46.9975,-2.35095,0
67.6776,-46.8603,-2.34585,0
67.6228,-46.7241,-2.34029,0
67.5652,-46.5889,-2.33428,0
67.5046,-46.4547,-2.32784,0
67.4411,-46.3218,-2.32093,0
67.3708,-46.1924,-2.31396,0
67.2941,-46.0666,-2.3069,0
67.2203,-45.939,-2.29888,0
67.1766,-45.7907,-2.28711,0
67.1288,-45.6427,-2.27483,0
67.077,-45.495,-2.26205,0
67.0212,-45.3479,-2.24876,0
66.8026,-45.3311,-2.25324,174
66.7355,-45.194,-2.23996,174
66.8289,-44.9109,-2.20586,0
66.7565,-44.7672,-2.19056,0
66.6798,-44.6248,-2.17477,0
66.599,-44.4838,-2.15851,0
66.513,-44.3454,-2.1419,0
66.4148,-44.218,-2.12605,0
66.3126,-44.093,-2.10982,0
66.2066,-43.9707,-2.09322,0
66.0967,-43.8512,-2.07624,0
65.9832,-43.7346,-2.05893,0
65.8662,-43.6212,-2.04126,0
65.7455,-43.511,-2.02326,0
65.6221,-43.403,-2.00482,0
65.4956,-43.2978,-1.98597,0
65.3658,-43.1963,-1.96684,0
65.2336,-43.0972,-1.94724,0
64.384,-44.3731,-2.12029,174
64.311,-44.2275,-2.09401,174
66.2659,-55.3597,-1.79266,0
66.385,-55.2406,-1.81487,0
66.5005,-55.1187,-1.83681,0
66.6125,-54.994,-1.85846,0
66.7208,-54.8667,-1.87981,0
66.8254,-54.7368,-1.90084,0
66.9263,-54.6047,-1.92155,0
67.0234,-54.4702,-1.94191,0
67.1166,-54.3337,-1.96191,0
67.2062,-54.1952,-1.98154,0
67.2917,-54.0548,-2.0008,0
67.3734,-53.9127,-2.01968,0
66.2937,-52.9034,-2.20003,174
66.4051,-52.825,-2.20737,174
67.595,-53.4773,-2.07386,0
67.658,-53.3276,-2.09147,0
67.7008,-53.167,-2.11058,0
67.7402,-53.0069,-2.12907,0
67.7801,-52.8495,-2.14645,0
67.8162,-52.6922,-2.16329,0
67.8483,-52.535,-2.1796,0
67.8766,-52.3781,-2.19536,0
67.9012,-52.2215,-2.21059,0
67.922,-52.0653,-2.22527,0
67.9392,-51.9097,-2.23942,0
67.9528,-51.7547,-2.25302,0
66.4181,-51.0767,-2.40801,174
67.9693,-51.4469,-2.27863,0
67.9725,-51.2943,-2.29064,0
67.9723,-51.1426,-2.30212,0
67.9688,-50.992,-2.31307,0
67.9697,-50.8441,-2.32285,0
67.9887,-50.7011,-2.33043,0
68.0047,-50.5579,-2.33757,0
68.0174,-50.4146,-2.34428,0
68.027,-50.2714,-2.35056,0
68.0459,-50.1294,-2.35545,0
68.0624,-49.9871,-2.35987,0
68.0762,-49.8443,-2.36384,0
68.0872,-49.7012,-2.36739,0
68.0953,-49.5578,-2.37049,0
68.1006,-49.4141,-2.37314,0
68.103,-49.2702,-2.37535,0
68.1027,-49.1261,-2.37711,0
68.0994,-48.982,-2.37841,0
68.0932,-48.8377,-2.37927,0
68.0842,-48.6934,-2.37967,0
68.0724,-48.5491,-2.37963,0
68.0577,-48.4049,-2.37911,0
68.042,-48.2604,-2.378,0
68.0234,-48.116,-2.37643,0
68.0019,-47.9717,-2.3744,0
67.9767,-47.8278,-2.37195,0
67.9423,-47.686,-2.36953,0
67.9048,-47.5448,-2.36665,0
67.8645,-47.4043,-2.36331,0
67.8213,-47.2646,-2.35953,0
67.7749,-47.1257,-2.35529,0
67.7258,-46.9876,-2.35061,0
67.6737,-46.8505,-2.34546,0
67.6188,-46.7143,-2.33988,0
67.5609,-46.5792,-2.33384,0
67.5001,-46.4451,-2.32736,0
67.4364,-46.3122,-2.32042,0
67.3653,-46.1833,-2.31346,0
67.2887,-46.0575,-2.30636,0
67.2173,-45.9284,-2.29805,0
67.1733,-45.7801,-2.28624,0
67.1252,-45.632,-2.27393,0
67.0731,-45.4844,-2.26111,0
67.017,-45.3373,-2.24778,0
66.7962,-45.3226,-2.25249,174
66.7315,-45.1834,-2.23888,174
66.8238,-44.9005,-2.20478,0
66.7511,-44.7569,-2.18944,0
66.6741,-44.6146,-2.17362,0
66.593,-44.4737,-2.15732,0
66.5061,-44.3362,-2.14076,0
66.4075,-44.2089,-2.12489,0
66.305,-44.0841,-2.10863,0
66.1988,-43.962,-2.09201,0
66.0887,-43.8427,-2.07501,0
65.9749,-43.7264,-2.05766,0
65.8576,-43.6132,-2.03997,0
65.7366,-43.5032,-2.02196,0
65.613,-43.3953,-2.00347,0
65.4865,-43.2904,-1.9846,0
65.3564,-43.1892,-1.96546,0
65.2241,-43.09,-1.94579,0
64.3744,-44.3712,-2.11964,174
64.3026,-44.223,-2.09294,174
66.0662,-55.1294,-1.78122,0
66.1813,-55.0164,-1.80257,0
66.293,-54.9006,-1.82366,0
66.4014,-54.7822,-1.84449,0
66.5063,-54.6612,-1.86503,0
66.6077,-54.5378,-1.88528,0
65.4489,-53.1694,-2.14081,174
66.8001,-54.2841,-1.92484,0
66.8908,-54.1541,-1.94413,0
66.9779,-54.0222,-1.96307,0
67.0612,-53.8884,-1.98165,0
67.141,-53.7529,-1.99988,0
66.2741,-52.907,-2.15872,174
66.3667,-52.8157,-2.16846,174
67.355,-53.3356,-2.05266,0
67.4109,-53.1888,-2.07051,0
67.4591,-53.0389,-2.08842,0
67.5032,-52.8888,-2.10583,0
67.5437,-52.7384,-2.12273,0
67.5803,-52.588,-2.13912,0
67.6131,-52.4377,-2.155,0
67.6423,-52.2875,-2.17037,0
67.6679,-52.1375,-2.18523,0
67.6899,-51.9879,-2.19958,0
67.7083,-51.8387,-2.21341,0
67.7233,-51.69,-2.22673,0
66.3943,-51.0832,-2.37328,174
67.743,-51.3945,-2.25183,0
67.7479,-51.2478,-2.26362,0
67.7495,-51.102,-2.27491,0
67.7479,-50.957,-2.2857,0
67.7562,-50.8159,-2.2948,0
67.7754,-50.6779,-2.30222,0
67.7916,-50.5398,-2.30921,0
67.8127,-50.4028,-2.3151,0
67.8344,-50.2658,-2.32029,0
67.8534,-50.1283,-2.32503,0
67.8698,-49.9904,-2.32936,0
67.8834,-49.8522,-2.33326,0
67.8943,-49.7135,-2.33674,0
67.9024,-49.5746,-2.33978,0
67.9078,-49.4354,-2.34239,0
67.9104,-49.296,-2.34457,0
67.9102,-49.1564,-2.34631,0
67.9073,-49.0168,-2.3476,0
67.9016,-48.877,-2.34847,0
67.893,-48.7372,-2.34889,0
67.8817,-48.5975,-2.34887,0
67.8676,-48.4578,-2.3484,0
67.852,-48.318,-2.34739,0
67.834,-48.1782,-2.34589,0
67.8133,-48.0385,-2.34393,0
67.7842,-47.9004,-2.34197,0
67.7511,-47.7631,-2.33966,0
67.7152,-47.6265,-2.33691,0
67.6765,-47.4905,-2.33372,0
67.6348,-47.3553,-2.3301,0
67.5903,-47.2208,-2.32604,0
67.543,-47.0872,-2.32154,0
67.4928,-46.9545,-2.3166,0
67.4398,-46.8227,-2.31123,0
67.3809,-46.6935,-2.30571,0
67.3159,-46.5672,-2.30009,0
67.248,-46.4425,-2.29408,0
67.1773,-46.3195,-2.28769,0
67.105,-46.1973,-2.28077,0
67.0336,-46.0745,-2.27307,0
66.9594,-45.9532,-2.26498,0
66.9093,-45.8145,-2.25343,0
66.8586,-45.6741,-2.24109,0
66.8039,-45.5343,-2.22826,0
66.7454,-45.3952,-2.21495,0
66.683,-45.257,-2.20118,0
66.6166,-45.1197,-2.18692,0
66.5463,-44.9835,-2.17222,0
66.472,-44.8486,-2.15704,0
66.3938,-44.715,-2.14141,0
66.3116,-44.583,-2.12532,0
65.1638,-45.639,-2.28104,174
66.1195,-44.3429,-2.09453,0
66.0178,-44.2269,-2.07864,0
65.9126,-44.1135,-2.06241,0
65.8038,-44.0029,-2.04584,0
65.6916,-43.8952,-2.02896,0
65.5762,-43.7907,-2.01178,0
65.4574,-43.6894,-1.9943,0
65.3355,-43.5914,-1.97655,0
65.2105,-43.4969,-1.95854,0
65.0831,-43.4048,-1.94012,0
64.394,-44.3835,-2.08026,174
64.3229,-44.235,-2.05289,174
66.0745,-55.1214,-1.78277,0
66.1894,-55.0082,-1.80409,0
66.3009,-54.8922,-1.82517,0
66.4091,-54.7735,-1.84598,0
66.5137,-54.6524,-1.8665,0
66.615,-54.5288,-1.88672,0
65.4554,-53.1639,-2.14163,174
66.8067,-54.2748,-1.92624,0
66.8972,-54.1447,-1.9455,0
66.984,-54.0126,-1.96442,0
67.0671,-53.8787,-1.98298,0
67.1466,-53.7431,-2.00117,0
66.2787,-52.8989,-2.15975,174
66.3765,-52.8113,-2.1687,174
67.3591,-53.325,-2.05396,0
67.4145,-53.178,-2.07181,0
67.4623,-53.0281,-2.08969,0
67.5062,-52.8779,-2.10706,0
67.5464,-52.7276,-2.12393,0
67.5827,-52.5772,-2.14028,0
67.6153,-52.4269,-2.15612,0
67.6443,-52.2767,-2.17146,0
67.6696,-52.1267,-2.18628,0
67.6913,-51.9771,-2.20059,0
67.7095,-51.828,-2.21438,0
67.7242,-51.6793,-2.22767,0
66.3938,-51.0746,-2.37408,174
67.7434,-51.3839,-2.2527,0
67.7481,-51.2373,-2.26445,0
67.7495,-51.0915,-2.27571,0
67.7477,-50.9466,-2.28646,0
67.7577,-50.806,-2.29535,0
67.7767,-50.668,-2.30274,0
67.7926,-50.5299,-2.3097,0
67.8143,-50.3929,-2.3155,0
67.8359,-50.2559,-2.32064,0
67.8547,-50.1184,-2.32536,0
67.8709,-49.9805,-2.32966,0
67.8843,-49.8422,-2.33353,0
67.895,-49.7035,-2.33697,0
67.9029,-49.5646,-2.33998,0
67.9081,-49.4254,-2.34256,0
67.9105,-49.286,-2.3447,0
67.9102,-49.1464,-2.34641,0
67.907,-49.0067,-2.34768,0
67.901,-48.867,-2.34852,0
67.8923,-48.7272,-2.3489,0
67.8808,-48.5874,-2.34885,0
67.8665,-48.4478,-2.34835,0
67.8507,-48.3079,-2.3473,0
67.8326,-48.1681,-2.34576,0
67.8116,-48.0284,-2.34377,0
67.782,-47.8905,-2.34182,0
67.7487,-47.7533,-2.33947,0
67.7125,-47.6167,-2.3367,0
67.6735,-47.4808,-2.33348,0
67.6317,-47.3456,-2.32983,0
67.587,-47.2112,-2.32573,0
67.5395,-47.0776,-2.3212,0
67.4891,-46.945,-2.31623,0
67.4359,-46.8133,-2.31083,0
67.3763,-46.6843,-2.30531,0
67.3112,-46.5582,-2.29968,0
67.243,-46.4336,-2.29363,0
67.1721,-46.3107,-2.28721,0
67.0999,-46.1884,-2.28023,0
67.0284,-46.0657,-2.27251,0
66.9539,-45.9445,-2.26438,0
66.9058,-45.8044,-2.25257,0
66.8548,-45.6641,-2.24018,0
66.7998,-45.5243,-2.22732,0
66.741,-45.3853,-2.21398,0
66.6783,-45.2471,-2.20016,0
66.6117,-45.1098,-2.18588,0
66.5411,-44.9737,-2.17113,0
66.4666,-44.8389,-2.15592,0
66.388,-44.7055,-2.14026,0
66.3055,-44.5738,-2.12417,0
65.153,-45.6386,-2.28109,174
66.1124,-44.3345,-2.0934,0
66.0104,-44.2186,-2.07748,0
65.9049,-44.1054,-2.06123,0
65.7959,-43.995,-2.04464,0
65.6834,-43.8876,-2.02774,0
65.5677,-43.7833,-2.01053,0
65.4487,-43.6822,-1.99303,0
65.3266,-43.5844,-1.97527,0
65.2014,-43.4902,-1.95724,0
65.0739,-43.3983,-1.93879,0
64.3831,-44.3843,-2.08002,174
64.2916,-44.2768,-2.05876,174
66.0829,-55.1133,-1.78431,0
66.1976,-54.9999,-1.80562,0
66.3088,-54.8837,-1.82668,0
66.4167,-54.7649,-1.84746,0
66.5212,-54.6436,-1.86797,0
66.622,-54.5198,-1.88818,0
65.4645,-53.161,-2.14194,174
66.8134,-54.2655,-1.92764,0
66.9035,-54.1352,-1.94687,0
66.9901,-54.003,-1.96577,0
67.073,-53.869,-1.9843,0
67.1522,-53.7333,-2.00248,0
66.2832,-52.8908,-2.16077,174
66.3862,-52.8069,-2.16894,174
67.3633,-53.3145,-2.05525,0
67.4181,-53.1672,-2.07312,0
67.4656,-53.0173,-2.09096,0
67.5092,-52.8671,-2.10829,0
67.5491,-52.7168,-2.12512,0
67.5852,-52.5664,-2.14144,0
67.6175,-52.416,-2.15724,0
67.6462,-52.2659,-2.17254,0
67.6712,-52.1159,-2.18732,0
67.6927,-51.9664,-2.2016,0
67.7107,-51.8172,-2.21535,0
67.7252,-51.6686,-2.2286,0
66.3933,-51.066,-2.37488,174
67.7439,-51.3733,-2.25356,0
67.7483,-51.2268,-2.26528,0
67.7494,-51.081,-2.27649,0
67.7473,-50.9362,-2.28721,0
67.7591,-50.7961,-2.2959,0
67.7779,-50.6581,-2.30325,0
67.7936,-50.5199,-2.31019,0
67.8159,-50.3831,-2.31588,0
67.8373,-50.246,-2.32099,0
67.856,-50.1085,-2.32568,0
67.8719,-49.9706,-2.32995,0
67.8852,-49.8322,-2.33379,0
67.8956,-49.6936,-2.33719,0
67.9034,-49.5546,-2.34018,0
67.9084,-49.4154,-2.34273,0
67.9105,-49.2759,-2.34485,0
67.91,-49.1364,-2.34652,0
67.9066,-48.9967,-2.34776,0
67.9005,-48.8569,-2.34856,0
67.8916,-48.7171,-2.34891,0
67.8799,-48.5774,-2.34883,0
67.8654,-48.4377,-2.34829,0
67.8495,-48.2979,-2.34721,0
67.8312,-48.1581,-2.34563,0
67.81,-48.0184,-2.34361,0
67.7796,-47.8806,-2.34166,0
67.7462,-47.7434,-2.33929,0
67.7098,-47.6069,-2.33648,0
67.6706,-47.471,-2.33323,0
67.6285,-47.3359,-2.32955,0
67.5837,-47.2015,-2.32542,0
67.5359,-47.068,-2.32086,0
67.4854,-46.9355,-2.31585,0
67.432,-46.8038,-2.31042,0
67.3717,-46.6752,-2.30492,0
67.3063,-46.5492,-2.29924,0
67.238,-46.4247,-2.29318,0
67.1668,-46.3019,-2.28674,0
67.0948,-46.1795,-2.27969,0
67.0231,-46.0569,-2.27193,0
66.9498,-45.935,-2.26364,0
66.9023,-45.7943,-2.25169,0
66.8509,-45.654,-2.23926,0
66.7958,-45.5143,-2.22637,0
66.7366,-45.3753,-2.213,0
66.6738,-45.2372,-2.19915,0
66.6068,-45.1,-2.18484,0
66.5359,-44.964,-2.17006,0
66.461,-44.8293,-2.15481,0
66.3823,-44.6959,-2.13912,0
66.2988,-44.565,-2.12309,0
65.1436,-45.6366,-2.28092,174
66.1052,-44.3261,-2.09227,0
66.0029,-44.2104,-2.07633,0
65.8971,-44.0974,-2.06005,0
65.7879,-43.9872,-2.04343,0
65.6752,-43.88,-2.02651,0
65.5593,-43.7759,-2.00928,0
65.4401,-43.675,-1.99177,0
65.3177,-43.5775,-1.97398,0
65.1923,-43.4835,-1.95593,0
65.0647,-43.3918,-1.93745,0
64.3735,-44.3826,-2.07941,174
64.2849,-44.2691,-2.0572,174
65.8979,-54.9014,-1.77364,0
66.0089,-54.7936,-1.79415,0
66.1166,-54.683,-1.81443,0
66.2212,-54.5699,-1.83445,0
66.3225,-54.4544,-1.85421,0
66.4203,-54.3363,-1.87372,0
65.4363,-53.1513,-2.10591,174
66.6047,-54.0925,-1.91207,0
66.6915,-53.9674,-1.9308,0
66.7748,-53.8404,-1.94924,0
66.8542,-53.7115,-1.96736,0
66.9301,-53.5809,-1.98514,0
66.265,-52.8953,-2.1194,174
66.3565,-52.8037,-2.1291,174
67.1276,-53.1749,-2.03752,0
67.1823,-53.035,-2.05472,0
67.2332,-52.8943,-2.07152,0
67.2802,-52.7529,-2.08789,0
67.3233,-52.6109,-2.10384,0
67.3624,-52.4685,-2.11936,0
67.3979,-52.3259,-2.13445,0
67.4283,-52.1824,-2.14924,0
67.4542,-52.0386,-2.16368,0
67.4766,-51.895,-2.17762,0
67.4957,-51.7518,-2.19108,0
66.5003,-51.2381,-2.315,174
66.3773,-51.0751,-2.33961,174
66.572,-51.0208,-2.32954,174
67.5388,-51.1841,-2.24004,0
67.5416,-51.0438,-2.25107,0
67.5413,-50.9043,-2.26161,0
67.5591,-50.7703,-2.2696,0
67.585,-50.6384,-2.27614,0
67.6113,-50.5066,-2.28196,0
67.635,-50.3743,-2.28738,0
67.656,-50.2414,-2.29239,0
67.6745,-50.1081,-2.29699,0
67.6903,-49.9743,-2.30118,0
67.7034,-49.8402,-2.30494,0
67.7138,-49.7057,-2.3083,0
67.7216,-49.571,-2.31123,0
67.7266,-49.436,-2.31374,0
67.7291,-49.3008,-2.31583,0
67.7288,-49.1655,-2.31749,0
67.7257,-49.03,-2.31873,0
67.72,-48.8945,-2.31953,0
67.7116,-48.759,-2.31991,0
67.7003,-48.6235,-2.31986,0
67.6864,-48.4881,-2.31937,0
67.6705,-48.3527,-2.31839,0
67.6529,-48.2172,-2.31688,0
67.6281,-48.0828,-2.31531,0
67.5988,-47.9494,-2.31349,0
67.5667,-47.8165,-2.31124,0
67.5318,-47.6842,-2.30856,0
67.4941,-47.5526,-2.30545,0
67.4536,-47.4217,-2.30191,0
67.4102,-47.2916,-2.29797,0
67.3591,-47.1644,-2.29408,0
67.305,-47.0384,-2.28981,0
67.248,-46.9137,-2.28514,0
67.1882,-46.7904,-2.2801,0
67.1255,-46.6686,-2.27469,0
67.06,-46.5482,-2.26889,0
66.9917,-46.4295,-2.26272,0
66.9238,-46.3105,-2.25584,0
66.8547,-46.192,-2.24839,0
66.7829,-46.0751,-2.24056,0
66.7084,-45.9598,-2.23235,0
66.6538,-45.8293,-2.22092,0
66.6002,-45.6963,-2.20849,0
66.5428,-45.564,-2.19562,0
66.4817,-45.4325,-2.1823,0
66.4169,-45.302,-2.16853,0
66.3484,-45.1727,-2.15433,0
66.2762,-45.0446,-2.1397,0
66.2002,-44.9179,-2.12463,0
65.2909,-45.6776,-2.24686,174
65.1406,-45.6696,-2.24825,174
65.9358,-44.5638,-2.07944,0
65.8379,-44.4536,-2.06418,0
65.7366,-44.3459,-2.04861,0
65.632,-44.2409,-2.03272,0
65.5241,-44.1387,-2.01653,0
65.4132,-44.0395,-2.00006,0
65.2992,-43.9433,-1.98332,0
65.1822,-43.8504,-1.96633,0
65.0624,-43.7607,-1.94909,0
64.9398,-43.6744,-1.9316,0
64.3929,-44.395,-2.04007,174
64.3227,-44.2456,-2.01182,174
65.906,-54.8937,-1.77512,0
66.0167,-54.7857,-1.79562,0
66.1242,-54.675,-1.81587,0
66.2286,-54.5617,-1.83588,0
66.3297,-54.446,-1.85561,0
66.4272,-54.3276,-1.87512,0
65.4422,-53.1453,-2.10684,174
66.6111,-54.0836,-1.91342,0
66.6976,-53.9584,-1.93214,0
66.7805,-53.8312,-1.95055,0
66.8598,-53.7022,-1.96865,0
66.9353,-53.5714,-1.98641,0
66.2947,-52.906,-2.11646,174
66.3696,-52.8017,-2.12879,174
67.1316,-53.1649,-2.03878,0
67.1861,-53.0249,-2.05594,0
67.2367,-52.8841,-2.07271,0
67.2834,-52.7427,-2.08904,0
67.3262,-52.6007,-2.10497,0
67.3652,-52.4583,-2.12046,0
67.4003,-52.3156,-2.13551,0
67.4302,-52.172,-2.1503,0
67.4559,-52.0282,-2.1647,0
67.4781,-51.8847,-2.17861,0
67.4969,-51.7415,-2.19204,0
66.3811,-51.1857,-2.32892,174
66.3788,-51.0672,-2.34022,174
67.5334,-51.3149,-2.22937,0
67.5391,-51.1739,-2.24085,0
67.5416,-51.0337,-2.25184,0
67.5412,-50.8942,-2.26236,0
67.5607,-50.7607,-2.27013,0
67.587,-50.6289,-2.27657,0
67.613,-50.4971,-2.28237,0
67.6366,-50.3647,-2.28776,0
67.6575,-50.2318,-2.29275,0
67.6757,-50.0984,-2.29731,0
67.6912,-49.9647,-2.30147,0
67.7042,-49.8305,-2.3052,0
67.7144,-49.696,-2.30852,0
67.722,-49.5613,-2.31142,0
67.727,-49.4263,-2.31391,0
67.7291,-49.2911,-2.31595,0
67.7286,-49.1557,-2.3176,0
67.7253,-49.0203,-2.31879,0
67.7195,-48.8848,-2.31957,0
67.7108,-48.7492,-2.31992,0
67.6994,-48.6137,-2.31984,0
67.6853,-48.4783,-2.31932,0
67.6694,-48.3429,-2.31829,0
67.6516,-48.2074,-2.31675,0
67.6262,-48.0732,-2.3152,0
67.5966,-47.9398,-2.31334,0
67.5643,-47.807,-2.31106,0
67.5291,-47.6747,-2.30834,0
67.4912,-47.5431,-2.30521,0
67.4506,-47.4123,-2.30164,0
67.4066,-47.2824,-2.29771,0
67.3553,-47.1552,-2.29379,0
67.301,-47.0294,-2.28948,0
67.2438,-46.9048,-2.28479,0
67.1837,-46.7816,-2.27973,0
67.1209,-46.6598,-2.27428,0
67.0552,-46.5396,-2.26845,0
66.9867,-46.421,-2.26226,0
66.9188,-46.3019,-2.25532,0
66.8496,-46.1836,-2.24784,0
66.7776,-46.0668,-2.23998,0
66.7029,-45.9516,-2.23175,0
66.6501,-45.8197,-2.22004,0
66.5961,-45.6867,-2.20759,0
66.5385,-45.5545,-2.19468,0
66.4773,-45.4231,-2.18133,0
66.4122,-45.2927,-2.16753,0
66.3434,-45.1634,-2.1533,0
66.2708,-45.0354,-2.13863,0
66.1945,-44.9088,-2.12354,0
65.2764,-45.6807,-2.24757,174
65.1312,-45.6676,-2.24811,174
65.9289,-44.5558,-2.07835,0
65.8307,-44.4457,-2.06307,0
65.7291,-44.3382,-2.04747,0
65.6244,-44.2334,-2.03156,0
65.5163,-44.1315,-2.01536,0
65.4051,-44.0325,-1.99886,0
65.2909,-43.9365,-1.98211,0
65.1737,-43.8438,-1.96509,0
65.0537,-43.7544,-1.94784,0
64.9313,-43.6674,-1.93021,0
64.3826,-44.3946,-2.0397,174
64.2851,-44.3002,-2.02009,174
65.9141,-54.8861,-1.77661,0
66.0245,-54.7778,-1.79708,0
66.1319,-54.6669,-1.81732,0
66.2359,-54.5534,-1.83731,0
66.3368,-54.4375,-1.85703,0
66.4341,-54.319,-1.87653,0
65.4539,-53.1449,-2.1066,174
66.6175,-54.0746,-1.91478,0
66.7038,-53.9493,-1.93348,0
66.7864,-53.8219,-1.95187,0
66.8654,-53.6928,-1.96994,0
66.2497,-53.0221,-2.10044,174
66.2972,-52.8964,-2.11782,174
66.3827,-52.7997,-2.12847,174
67.1357,-53.1548,-2.04002,0
67.1898,-53.0148,-2.05716,0
67.2402,-52.8739,-2.0739,0
67.2866,-52.7325,-2.09021,0
67.3291,-52.5904,-2.1061,0
67.3678,-52.448,-2.12155,0
67.4027,-52.3053,-2.13658,0
67.4322,-52.1617,-2.15135,0
67.4576,-52.0179,-2.16572,0
67.4795,-51.8744,-2.17959,0
67.4982,-51.7313,-2.19299,0
66.375,-51.175,-2.33041,174
66.3809,-51.0595,-2.34076,174
67.5339,-51.3048,-2.23022,0
67.5395,-51.1638,-2.24166,0
67.5417,-51.0236,-2.25261,0
67.541,-50.8842,-2.26309,0
67.5621,-50.7511,-2.27067,0
67.589,-50.6195,-2.277,0
67.6149,-50.4876,-2.28277,0
67.6382,-50.3552,-2.28813,0
67.6589,-50.2222,-2.29308,0
67.6769,-50.0888,-2.29762,0
67.6923,-49.955,-2.30174,0
67.7051,-49.8209,-2.30546,0
67.7151,-49.6863,-2.30875,0
67.7225,-49.5516,-2.31162,0
67.7272,-49.4165,-2.31407,0
67.7291,-49.2813,-2.3161,0
67.7284,-49.146,-2.31769,0
67.7251,-49.0105,-2.31886,0
67.7189,-48.875,-2.31961,0
67.71,-48.7395,-2.31993,0
67.6985,-48.604,-2.31982,0
67.6841,-48.4686,-2.31927,0
67.6682,-48.3331,-2.3182,0
67.6501,-48.1977,-2.31663,0
67.6241,-48.0636,-2.31508,0
67.5944,-47.9302,-2.31319,0
67.5619,-47.7974,-2.31088,0
67.5265,-47.6652,-2.30813,0
67.4884,-47.5337,-2.30497,0
67.4475,-47.4029,-2.30137,0
67.403,-47.2732,-2.29743,0
67.3515,-47.1461,-2.29349,0
67.297,-47.0203,-2.28916,0
67.2396,-46.8959,-2.28444,0
67.1794,-46.7728,-2.27935,0
67.1162,-46.6511,-2.27387,0
67.0503,-46.531,-2.26802,0
66.9816,-46.4125,-2.2618,0
66.9139,-46.2934,-2.25479,0
66.8445,-46.1751,-2.24728,0
66.7723,-46.0584,-2.2394,0
66.6974,-45.9433,-2.23113,0
66.6463,-45.8101,-2.21916,0
66.5921,-45.6772,-2.20667,0
66.5342,-45.545,-2.19373,0
66.4727,-45.4136,-2.18034,0
66.4073,-45.2833,-2.16652,0
66.3383,-45.1541,-2.15225,0
66.2655,-45.0263,-2.13756,0
66.1889,-44.8998,-2.12243,0
65.2619,-45.6839,-2.24827,174
65.1218,-45.6657,-2.24797,174
65.922,-44.5478,-2.07727,0
65.8234,-44.4379,-2.06196,0
65.7217,-44.3306,-2.04634,0
65.6166,-44.226,-2.03041,0
65.5084,-44.1242,-2.01418,0
65.397,-44.0255,-1.99766,0
65.2826,-43.9298,-1.98089,0
65.1652,-43.8373,-1.96386,0
65.0449,-43.7481,-1.9466,0
64.9229,-43.6605,-1.92882,0
64.3727,-44.3935,-2.0392,174
64.2777,-44.294,-2.01874,174
65.7352,-54.6814,-1.76849,0
65.8422,-54.5785,-1.78817,0
65.946,-54.4729,-1.80766,0
66.0466,-54.3648,-1.82694,0
66.1441,-54.2541,-1.846,0
66.2382,-54.141,-1.86481,0
65.43,-53.1395,-2.06995,174
66.4165,-53.9082,-1.90169,0
66.5005,-53.7887,-1.91972,0
66.581,-53.6673,-1.93746,0
66.6581,-53.5441,-1.9549,0
66.7316,-53.4192,-1.97203,0
66.2533,-52.8817,-2.08065,174
66.3383,-52.786,-2.09118,174
66.9177,-53.0266,-2.02355,0
66.9712,-52.893,-2.04013,0
67.0212,-52.7585,-2.05633,0
67.0673,-52.6234,-2.07215,0
67.1098,-52.4877,-2.08755,0
67.1487,-52.3515,-2.10255,0
67.1838,-52.2149,-2.11714,0
67.2155,-52.0781,-2.13132,0
67.2434,-51.9412,-2.14507,0
67.2678,-51.8043,-2.1584,0
67.2888,-51.6675,-2.1713,0
66.3557,-51.1825,-2.29537,174
66.3774,-51.0728,-2.30421,174
66.5256,-51.0038,-2.29816,174
67.3384,-51.123,-2.21858,0
67.3425,-50.9881,-2.22931,0
67.3538,-50.8563,-2.23848,0
67.3882,-50.7306,-2.24452,0
67.4187,-50.6038,-2.2503,0
67.4444,-50.4758,-2.25595,0
67.4673,-50.3473,-2.26121,0
67.4877,-50.2183,-2.26606,0
67.5055,-50.0889,-2.27051,0
67.5207,-49.9591,-2.27456,0
67.5333,-49.8289,-2.2782,0
67.5434,-49.6983,-2.28145,0
67.5508,-49.5676,-2.28426,0
67.5555,-49.4365,-2.28669,0
67.5577,-49.3053,-2.2887,0
67.5573,-49.174,-2.29028,0
67.5543,-49.0425,-2.29146,0
67.5485,-48.911,-2.29222,0
67.5402,-48.7795,-2.29256,0
67.5291,-48.6481,-2.29247,0
67.5155,-48.5167,-2.29198,0
67.4994,-48.3854,-2.29101,0
67.4787,-48.2547,-2.28983,0
67.4529,-48.1249,-2.28846,0
67.4243,-47.9955,-2.28666,0
67.3909,-47.8673,-2.28467,0
67.3532,-47.7404,-2.28242,0
67.3126,-47.6143,-2.2798,0
67.2689,-47.4892,-2.2768,0
67.2224,-47.3652,-2.27341,0
67.173,-47.2423,-2.26966,0
67.1208,-47.1206,-2.26553,0
67.0659,-47.0001,-2.26103,0
67.008,-46.881,-2.25616,0
66.9474,-46.7633,-2.25092,0
66.8841,-46.6471,-2.24532,0
66.8183,-46.5323,-2.23936,0
66.7541,-46.4165,-2.23251,0
66.6873,-46.3021,-2.22529,0
66.6177,-46.1892,-2.2177,0
66.5456,-46.0778,-2.20976,0
66.4709,-45.9681,-2.20146,0
66.4119,-45.8458,-2.19024,0
66.3558,-45.7197,-2.17778,0
66.296,-45.5944,-2.16488,0
66.2328,-45.4702,-2.15157,0
66.166,-45.347,-2.13784,0
66.0956,-45.2252,-2.12372,0
66.0218,-45.1047,-2.10918,0
65.257,-45.7181,-2.21555,174
65.1189,-45.6983,-2.21564,174
65.7669,-44.767,-2.06556,0
65.6723,-44.6621,-2.05089,0
65.5748,-44.5596,-2.03591,0
65.474,-44.4597,-2.02065,0
65.3702,-44.3624,-2.00511,0
65.2635,-44.2681,-1.9893,0
65.154,-44.1766,-1.97324,0
65.0416,-44.0882,-1.95694,0
64.9272,-44.0016,-1.94019,0
64.8152,-43.909,-1.92169,0
64.392,-44.4061,-1.99989,174
64.2895,-44.3224,-1.98182,174
65.743,-54.6741,-1.76991,0
65.8497,-54.571,-1.78957,0
65.9534,-54.4652,-1.80905,0
66.0538,-54.3569,-1.82831,0
66.151,-54.246,-1.84736,0
66.2448,-54.1328,-1.86616,0
65.4372,-53.1347,-2.07059,174
66.4227,-53.8996,-1.903,0
66.5064,-53.78,-1.92101,0
66.5867,-53.6584,-1.93873,0
66.6635,-53.5351,-1.95614,0
66.7368,-53.4101,-1.97325,0
66.2546,-52.8712,-2.08223,174
66.3591,-52.7895,-2.08954,174
66.9216,-53.017,-2.02475,0
66.975,-52.8833,-2.04131,0
67.0246,-52.7488,-2.05749,0
67.0705,-52.6136,-2.07326,0
67.1127,-52.4779,-2.08864,0
67.1513,-52.3416,-2.10362,0
67.1862,-52.2051,-2.11818,0
67.2176,-52.0683,-2.13232,0
67.2453,-51.9314,-2.14605,0
67.2695,-51.7945,-2.15934,0
67.2902,-51.6577,-2.1722,0
66.3572,-51.1746,-2.29603,174
66.379,-51.065,-2.30482,174
66.5872,-51.0146,-2.29199,174
67.3387,-51.1133,-2.21937,0
67.3427,-50.9784,-2.23007,0
67.3564,-50.8473,-2.23893,0
67.3905,-50.7215,-2.24494,0
67.4207,-50.5946,-2.25071,0
67.4461,-50.4666,-2.25635,0
67.4688,-50.338,-2.26156,0
67.4891,-50.209,-2.26639,0
67.5066,-50.0796,-2.27082,0
67.5217,-49.9497,-2.27484,0
67.5341,-49.8195,-2.27846,0
67.5439,-49.6889,-2.28166,0
67.5512,-49.5581,-2.28445,0
67.5559,-49.4271,-2.28685,0
67.5578,-49.2959,-2.28882,0
67.5572,-49.1645,-2.29038,0
67.5539,-49.0331,-2.29153,0
67.548,-48.9016,-2.29225,0
67.5395,-48.7701,-2.29256,0
67.5282,-48.6386,-2.29245,0
67.5143,-48.5072,-2.29192,0
67.4983,-48.3759,-2.29092,0
67.4769,-48.2453,-2.28975,0
67.4509,-48.1155,-2.28835,0
67.4221,-47.9862,-2.28652,0
67.3884,-47.8582,-2.28452,0
67.3504,-47.7313,-2.28225,0
67.3094,-47.6053,-2.2796,0
67.2656,-47.4802,-2.27657,0
67.219,-47.3563,-2.27316,0
67.1694,-47.2335,-2.26938,0
67.117,-47.1119,-2.26522,0
67.0618,-46.9915,-2.26069,0
67.0037,-46.8725,-2.25579,0
66.943,-46.7549,-2.25053,0
66.8794,-46.6388,-2.24491,0
66.8138,-46.5239,-2.23888,0
66.7494,-46.4082,-2.232,0
66.6824,-46.2939,-2.22476,0
66.6127,-46.1811,-2.21715,0
66.5403,-46.0699,-2.20918,0
66.4654,-45.9603,-2.20084,0
66.408,-45.8367,-2.18936,0
66.3516,-45.7106,-2.17686,0
66.2916,-45.5854,-2.16394,0
66.2281,-45.4613,-2.15059,0
66.1611,-45.3382,-2.13685,0
66.0905,-45.2164,-2.12268,0
66.0163,-45.0961,-2.10813,0
65.2456,-45.718,-2.21581,174
65.1096,-45.6963,-2.21553,174
65.7602,-44.7594,-2.06451,0
65.6655,-44.6546,-2.04982,0
65.5676,-44.5523,-2.03483,0
65.4666,-44.4526,-2.01954,0
65.3627,-44.3556,-2.00399,0
65.2557,-44.2614,-1.98816,0
65.1459,-44.1701,-1.97207,0
65.0333,-44.082,-1.95575,0
64.9192,-43.9949,-1.93887,0
64.8071,-43.9025,-1.92036,0
64.3821,-44.405,-1.99943,174
64.284,-44.3126,-1.97986,174
65.7508,-54.6667,-1.77133,0
65.8573,-54.5635,-1.79099,0
65.9607,-54.4575,-1.81044,0
66.0609,-54.349,-1.82969,0
66.1579,-54.2379,-1.84871,0
65.3873,-53.2393,-2.05293,174
65.4467,-53.1322,-2.07077,174
66.4287,-53.8911,-1.9043,0
66.5123,-53.7713,-1.9223,0
66.5923,-53.6496,-1.94,0
66.6689,-53.5262,-1.95739,0
66.2502,-53.0174,-2.05919,174
66.2565,-52.8612,-2.0837,174
66.3801,-52.7932,-2.08788,174
66.9256,-53.0074,-2.02596,0
66.9787,-52.8737,-2.04249,0
67.028,-52.7391,-2.05864,0
67.0737,-52.6039,-2.07439,0
67.1157,-52.4681,-2.08973,0
67.154,-52.3318,-2.10467,0
67.1886,-52.1952,-2.11922,0
67.2197,-52.0584,-2.13332,0
67.2472,-51.9215,-2.14701,0
67.2711,-51.7846,-2.16028,0
66.5088,-51.3438,-2.26675,174
66.3588,-51.1667,-2.29669,174
66.3805,-51.0571,-2.30542,174
67.3323,-51.239,-2.20904,0
67.3391,-51.1036,-2.22016,0
67.3428,-50.9687,-2.23082,0
67.359,-50.8383,-2.23938,0
67.3929,-50.7124,-2.24536,0
67.4227,-50.5854,-2.25114,0
67.4478,-50.4573,-2.25673,0
67.4704,-50.3288,-2.26193,0
67.4904,-50.1997,-2.26672,0
67.5078,-50.0702,-2.27112,0
67.5227,-49.9403,-2.27511,0
67.5349,-49.8101,-2.2787,0
67.5446,-49.6795,-2.28188,0
67.5516,-49.5487,-2.28464,0
67.5561,-49.4176,-2.28701,0
67.5579,-49.2864,-2.28895,0
67.557,-49.155,-2.29048,0
67.5536,-49.0236,-2.2916,0
67.5475,-48.8921,-2.29229,0
67.5387,-48.7606,-2.29257,0
67.5273,-48.6291,-2.29243,0
67.5133,-48.4978,-2.29187,0
67.497,-48.3665,-2.29083,0
67.4751,-48.236,-2.28966,0
67.4488,-48.1062,-2.28822,0
67.4199,-47.9769,-2.28638,0
67.3857,-47.849,-2.28438,0
67.3475,-47.7221,-2.28208,0
67.3064,-47.5962,-2.2794,0
67.2624,-47.4713,-2.27634,0
67.2155,-47.3474,-2.2729,0
67.1657,-47.2247,-2.26909,0
67.1131,-47.1032,-2.2649,0
67.0577,-46.9829,-2.26035,0
66.9995,-46.864,-2.25543,0
66.9385,-46.7465,-2.25014,0
66.8748,-46.6305,-2.24448,0
66.8092,-46.5156,-2.2384,0
66.7447,-46.3999,-2.23149,0
66.6774,-46.2857,-2.22422,0
66.6075,-46.173,-2.21658,0
66.535,-46.0619,-2.20859,0
66.4599,-45.9525,-2.20024,0
66.4041,-45.8276,-2.18848,0
66.3474,-45.7016,-2.17594,0
66.2872,-45.5765,-2.16299,0
66.2234,-45.4524,-2.14963,0
66.1561,-45.3294,-2.13584,0
66.0852,-45.2077,-2.12165,0
66.0109,-45.0875,-2.10707,0
65.2348,-45.7174,-2.21596,174
65.1004,-45.6944,-2.21542,174
65.7534,-44.7518,-2.06346,0
65.6585,-44.6472,-2.04875,0
65.5604,-44.545,-2.03374,0
65.4592,-44.4455,-2.01844,0
65.355,-44.3487,-2.00285,0
65.248,-44.2547,-1.987,0
65.1379,-44.1637,-1.97091,0
65.0251,-44.0757,-1.95457,0
64.9112,-43.9881,-1.93756,0
64.799,-43.8959,-1.91901,0
64.3722,-44.4038,-1.99895,174
64.2756,-44.3085,-1.97885,174
65.5841,-54.477,-1.76389,0
65.6873,-54.3786,-1.78282,0
65.7874,-54.2777,-1.80156,0
65.8846,-54.1742,-1.82011,0
65.9787,-54.0684,-1.83845,0
65.3654,-53.2352,-2.01578,174
65.4339,-53.1377,-2.03187,174
66.2421,-53.7374,-1.89208,0
66.3235,-53.623,-1.90945,0
66.4016,-53.5068,-1.92655,0
66.4762,-53.3888,-1.94336,0
66.5443,-53.2666,-1.96048,0
66.6075,-53.142,-1.97753,0
66.6672,-53.0162,-1.99424,0
66.7232,-52.8893,-2.01061,0
66.7757,-52.7614,-2.02662,0
66.8247,-52.6327,-2.04227,0
66.8701,-52.5033,-2.05755,0
66.9119,-52.3733,-2.07244,0
66.9502,-52.2428,-2.08695,0
66.9851,-52.1119,-2.10108,0
67.0166,-51.9808,-2.1148,0
67.0445,-51.8494,-2.12814,0
67.0691,-51.7181,-2.14107,0
66.3609,-51.3011,-2.24677,174
66.3588,-51.1813,-2.25943,174
66.38,-51.0714,-2.26844,174
66.551,-51.0096,-2.2588,174
67.1461,-51.0645,-2.19912,0
67.1563,-50.936,-2.20897,0
67.1802,-50.8119,-2.21653,0
67.2133,-50.6901,-2.22236,0
67.2437,-50.5674,-2.22784,0
67.2712,-50.444,-2.23298,0
67.2961,-50.32,-2.23778,0
67.3182,-50.1952,-2.24222,0
67.3375,-50.0699,-2.24631,0
67.354,-49.9441,-2.25004,0
67.3677,-49.8179,-2.25341,0
67.3785,-49.6912,-2.25641,0
67.3864,-49.5643,-2.25905,0
67.3916,-49.4371,-2.26133,0
67.3938,-49.3097,-2.26322,0
67.3932,-49.1821,-2.26477,0
67.3897,-49.0545,-2.26591,0
67.3833,-48.9269,-2.2667,0
67.374,-48.7994,-2.2671,0
67.3618,-48.6721,-2.26714,0
67.3466,-48.5449,-2.26679,0
67.3266,-48.4184,-2.26627,0
67.3016,-48.2928,-2.26558,0
67.2738,-48.1677,-2.26452,0
67.243,-48.0434,-2.26309,0
67.2094,-47.9198,-2.26129,0
67.1729,-47.797,-2.25912,0
67.1336,-47.6751,-2.25658,0
67.0914,-47.5541,-2.25367,0
67.0465,-47.4342,-2.25041,0
66.9987,-47.3153,-2.24677,0
66.9482,-47.1976,-2.24278,0
66.895,-47.0812,-2.23842,0
66.8391,-46.966,-2.23372,0
66.7805,-46.8521,-2.22865,0
66.7193,-46.7397,-2.22325,0
66.6572,-46.6278,-2.21728,0
66.5951,-46.5158,-2.21063,0
66.5303,-46.4052,-2.20363,0
66.4629,-46.2961,-2.19628,0
66.393,-46.1885,-2.18858,0
66.3206,-46.0825,-2.18053,0
66.2457,-45.9781,-2.17214,0
66.1826,-45.8639,-2.16125,0
66.1242,-45.7443,-2.14876,0
66.0625,-45.6257,-2.13588,0
65.9973,-45.5083,-2.12261,0
65.9289,-45.3921,-2.10896,0
65.857,-45.2773,-2.09492,0
65.2132,-45.7691,-2.18678,174
65.0975,-45.7266,-2.18343,174
65.6108,-44.9547,-2.05274,0
65.5195,-44.8545,-2.03861,0
65.4254,-44.7567,-2.02422,0
65.3283,-44.6615,-2.00952,0
65.2283,-44.5688,-1.99458,0
65.1255,-44.4788,-1.97938,0
65.02,-44.3916,-1.96394,0
64.9134,-44.3049,-1.94786,0
64.8081,-44.2142,-1.93035,0
64.7002,-44.1261,-1.91254,0
64.4076,-44.3859,-1.95435,174
64.296,-44.3195,-1.93904,174
65.5916,-54.47,-1.76527,0
65.6945,-54.3715,-1.78417,0
65.7945,-54.2703,-1.80291,0
65.8915,-54.1667,-1.82144,0
65.9853,-54.0607,-1.83976,0
65.3697,-53.2275,-2.0171,174
65.4416,-53.1335,-2.03238,174
66.2481,-53.7293,-1.89334,0
66.3291,-53.6147,-1.91069,0
66.407,-53.4983,-1.92777,0
66.4816,-53.3802,-1.94456,0
66.549,-53.2577,-1.96172,0
66.612,-53.133,-1.97875,0
66.6713,-53.0071,-1.99543,0
66.7271,-52.8801,-2.01177,0
66.7794,-52.7522,-2.02776,0
66.828,-52.6234,-2.04338,0
66.8731,-52.494,-2.05863,0
66.9148,-52.3639,-2.0735,0
66.9529,-52.2334,-2.08799,0
66.9875,-52.1025,-2.10208,0
67.0187,-51.9713,-2.11578,0
67.0464,-51.84,-2.12908,0
67.0708,-51.7086,-2.14198,0
66.3546,-51.29,-2.24849,174
66.36,-51.1732,-2.26014,174
66.3816,-51.0635,-2.26906,174
66.5785,-51.0097,-2.25627,174
67.1469,-51.0553,-2.19984,0
67.157,-50.9268,-2.20967,0
67.1827,-50.8032,-2.21695,0
67.2155,-50.6813,-2.22276,0
67.2457,-50.5586,-2.22822,0
67.2731,-50.4351,-2.23334,0
67.2977,-50.311,-2.23811,0
67.3197,-50.1862,-2.24253,0
67.3387,-50.0609,-2.24659,0
67.3551,-49.9351,-2.25029,0
67.3686,-49.8088,-2.25364,0
67.3792,-49.6821,-2.25661,0
67.387,-49.5551,-2.25923,0
67.3919,-49.4279,-2.26148,0
67.3939,-49.3005,-2.26335,0
67.393,-49.1729,-2.26486,0
67.3893,-49.0453,-2.26598,0
67.3827,-48.9178,-2.26674,0
67.3732,-48.7903,-2.26713,0
67.3608,-48.6629,-2.26712,0
67.3455,-48.5358,-2.26674,0
67.3248,-48.4093,-2.26624,0
67.2998,-48.2837,-2.26552,0
67.2717,-48.1588,-2.26443,0
67.2407,-48.0345,-2.26297,0
67.2069,-47.9109,-2.26114,0
67.1702,-47.7882,-2.25895,0
67.1306,-47.6663,-2.25639,0
67.0883,-47.5454,-2.25345,0
67.043,-47.4256,-2.25016,0
66.9952,-47.3068,-2.2465,0
66.9445,-47.1892,-2.24248,0
66.8911,-47.0728,-2.2381,0
66.835,-46.9577,-2.23337,0
66.7762,-46.844,-2.22828,0
66.7148,-46.7317,-2.22284,0
66.6528,-46.6197,-2.21681,0
66.5905,-46.5078,-2.21014,0
66.5255,-46.3973,-2.20311,0
66.458,-46.2883,-2.19574,0
66.3879,-46.1808,-2.18801,0
66.3153,-46.0749,-2.17994,0
66.2402,-45.9707,-2.17152,0
66.1785,-45.8553,-2.16036,0
66.1198,-45.7357,-2.14785,0
66.0579,-45.6172,-2.13494,0
65.9925,-45.4999,-2.12165,0
65.9238,-45.3838,-2.10796,0
65.8516,-45.2691,-2.09388,0
65.206,-45.7647,-2.18633,174
65.0883,-45.7246,-2.18335,174
65.6043,-44.9474,-2.05173,0
65.5129,-44.8474,-2.03758,0
65.4185,-44.7498,-2.02316,0
65.3212,-44.6547,-2.00845,0
65.221,-44.5622,-1.99349,0
65.118,-44.4724,-1.97828,0
65.0123,-44.3855,-1.96283,0
64.9059,-44.2983,-1.94662,0
64.8004,-44.2078,-1.92907,0
64.6922,-44.1198,-1.91124,0
64.3996,-44.381,-1.95325,174
64.2839,-44.3228,-1.93933,174
65.5991,-54.463,-1.76663,0
65.7019,-54.3643,-1.78553,0
65.8016,-54.263,-1.80424,0
65.8984,-54.1591,-1.82276,0
65.992,-54.0529,-1.84107,0
65.374,-53.2198,-2.01842,174
65.4521,-53.132,-2.0323,174
66.2541,-53.7211,-1.89459,0
66.3348,-53.6064,-1.91193,0
66.4125,-53.4899,-1.92899,0
66.4867,-53.3717,-1.94576,0
66.5537,-53.2488,-1.96296,0
66.6163,-53.1239,-1.97996,0
66.6755,-52.998,-1.99662,0
66.7309,-52.8709,-2.01294,0
66.783,-52.7429,-2.02889,0
66.8314,-52.6141,-2.04449,0
66.8763,-52.4846,-2.05971,0
66.9177,-52.3545,-2.07456,0
66.9555,-52.224,-2.08902,0
66.9898,-52.0931,-2.10308,0
67.0208,-51.9619,-2.11675,0
67.0483,-51.8305,-2.13003,0
67.0724,-51.6991,-2.14289,0
66.352,-51.2804,-2.24973,174
66.3612,-51.1651,-2.26086,174
66.3832,-51.0557,-2.26967,174
66.6083,-51.0103,-2.2535,174
67.1477,-51.046,-2.20056,0
67.1575,-50.9175,-2.21036,0
67.1852,-50.7944,-2.21738,0
67.2178,-50.6725,-2.22316,0
67.2478,-50.5497,-2.22861,0
67.275,-50.4262,-2.23369,0
67.2995,-50.3021,-2.23844,0
67.3212,-50.1772,-2.24283,0
67.3401,-50.0519,-2.24687,0
67.3561,-49.926,-2.25054,0
67.3694,-49.7997,-2.25386,0
67.3798,-49.673,-2.25681,0
67.3874,-49.546,-2.2594,0
67.3921,-49.4187,-2.26162,0
67.3939,-49.2913,-2.26347,0
67.3928,-49.1638,-2.26495,0
67.3889,-49.0362,-2.26605,0
67.3821,-48.9086,-2.26677,0
67.3724,-48.7811,-2.26713,0
67.3598,-48.6537,-2.26711,0
67.3443,-48.5266,-2.2667,0
67.3232,-48.4003,-2.2662,0
67.2977,-48.2747,-2.26545,0
67.2695,-48.1498,-2.26434,0
67.2384,-48.0255,-2.26286,0
67.2044,-47.902,-2.261,0
67.1674,-47.7794,-2.25878,0
67.1277,-47.6576,-2.25618,0
67.0851,-47.5368,-2.25322,0
67.0398,-47.417,-2.2499,0
66.9916,-47.2983,-2.24622,0
66.9407,-47.1808,-2.24218,0
66.8871,-47.0645,-2.23777,0
66.8309,-46.9495,-2.23301,0
66.7719,-46.8359,-2.2279,0
66.7104,-46.7236,-2.22244,0
66.6484,-46.6116,-2.21634,0
66.5859,-46.4998,-2.20965,0
66.5207,-46.3894,-2.20259,0
66.453,-46.2805,-2.19519,0
66.3827,-46.1731,-2.18743,0
66.3099,-46.0673,-2.17934,0
66.2347,-45.9632,-2.17091,0
66.1744,-45.8466,-2.15947,0
66.1155,-45.7272,-2.14693,0
66.0533,-45.6087,-2.134,0
65.9877,-45.4915,-2.12067,0
65.9187,-45.3755,-2.10696,0
65.8464,-45.2609,-2.09287,0
65.1989,-45.7603,-2.18588,174
65.0792,-45.7227,-2.18327,174
65.5978,-44.9401,-2.05072,0
65.5062,-44.8403,-2.03656,0
65.4116,-44.7429,-2.0221,0
65.3141,-44.648,-2.00739,0
65.2137,-44.5556,-1.99241,0
65.1105,-44.4661,-1.97717,0
65.0046,-44.3793,-1.96171,0
64.8984,-44.2917,-1.94536,0
64.7927,-44.2014,-1.9278,0
64.6844,-44.1136,-1.90995,0
64.3718,-44.4142,-1.95875,174
64.2754,-44.3189,-1.93835,174
65.4438,-54.2873,-1.75963,0
65.5434,-54.1932,-1.77786,0
65.6402,-54.0965,-1.79591,0
65.7341,-53.9974,-1.81377,0
65.8252,-53.896,-1.83144,0
65.3723,-53.2365,-1.97671,174
65.451,-53.1489,-1.99067,174
66.0802,-53.5788,-1.88314,0
66.159,-53.4691,-1.8999,0
66.2347,-53.3576,-1.9164,0
66.3031,-53.2412,-1.93343,0
66.3681,-53.1231,-1.95019,0
66.4297,-53.0038,-1.96664,0
66.4879,-52.8833,-1.98278,0
66.5426,-52.7617,-1.99859,0
66.594,-52.6392,-2.01406,0
66.642,-52.5158,-2.0292,0
66.6866,-52.3917,-2.04397,0
66.7277,-52.2669,-2.05839,0
66.7656,-52.1417,-2.07244,0
66.8002,-52.016,-2.08613,0
66.8314,-51.8901,-2.09944,0
66.8593,-51.7639,-2.11237,0
66.8839,-51.6376,-2.12492,0
66.361,-51.2985,-2.21082,174
66.3652,-51.1811,-2.22296,174
66.3827,-51.07,-2.23259,174
66.5947,-51.0211,-2.21667,174
66.9726,-51.0116,-2.18013,0
66.9832,-50.8876,-2.18975,0
67.0166,-50.77,-2.19585,0
67.0486,-50.652,-2.20149,0
67.0778,-50.5331,-2.20679,0
67.1045,-50.4135,-2.21175,0
67.1285,-50.2932,-2.21639,0
67.1498,-50.1724,-2.22068,0
67.1684,-50.0509,-2.22462,0
67.1842,-49.929,-2.22821,0
67.1973,-49.8067,-2.23147,0
67.2077,-49.684,-2.23437,0
67.2153,-49.561,-2.23691,0
67.2201,-49.4377,-2.23909,0
67.2221,-49.3143,-2.24091,0
67.2214,-49.1907,-2.24238,0
67.2178,-49.0671,-2.24349,0
67.2115,-48.9435,-2.24423,0
67.2024,-48.82,-2.2446,0
67.1904,-48.6966,-2.24462,0
67.1737,-48.5738,-2.24447,0
67.1523,-48.4517,-2.24417,0
67.1282,-48.3301,-2.2435,0
67.1012,-48.209,-2.24247,0
67.0715,-48.0887,-2.24108,0
67.0389,-47.969,-2.23933,0
67.0036,-47.8502,-2.23723,0
66.9655,-47.7322,-2.23477,0
66.9247,-47.6151,-2.23195,0
66.8811,-47.499,-2.22879,0
66.835,-47.3839,-2.22528,0
66.786,-47.27,-2.22141,0
66.7345,-47.1573,-2.21719,0
66.6805,-47.0458,-2.21264,0
66.6238,-46.9356,-2.20775,0
66.5646,-46.8267,-2.20251,0
66.5059,-46.7176,-2.19653,0
66.4455,-46.6092,-2.19007,0
66.3827,-46.5022,-2.18328,0
66.3175,-46.3966,-2.17614,0
66.2496,-46.2925,-2.16867,0
66.1795,-46.1899,-2.16086,0
66.1068,-46.0889,-2.15273,0
66.0319,-45.9896,-2.14426,0
65.9647,-45.8834,-2.1338,0
65.9044,-45.7701,-2.12132,0
65.8409,-45.6578,-2.10848,0
65.7741,-45.5468,-2.09527,0
65.7043,-45.4372,-2.0817,0
65.1754,-45.8135,-2.15772,174
65.0703,-45.7614,-2.15286,174
65.4662,-45.1284,-2.04087,0
65.3781,-45.0327,-2.02725,0
65.2872,-44.9392,-2.01337,0
65.1934,-44.8482,-1.99923,0
65.097,-44.7597,-1.98483,0
64.9979,-44.6737,-1.97021,0
64.8984,-44.5869,-1.95471,0
64.7994,-44.498,-1.9381,0
64.6977,-44.4114,-1.92121,0
64.5932,-44.3274,-1.90403,0
64.3876,-44.4332,-1.92061,174
64.2903,-44.341,-1.90055,174
65.4511,-54.2806,-1.76095,0
65.5505,-54.1863,-1.77916,0
65.6471,-54.0894,-1.7972,0
65.7409,-53.9902,-1.81505,0
65.8316,-53.8886,-1.83271,0
65.3763,-53.2284,-1.97813,174
65.4645,-53.1503,-1.98987,174
66.0859,-53.571,-1.88436,0
66.1645,-53.4611,-1.9011,0
66.2399,-53.3494,-1.9176,0
66.308,-53.2327,-1.93464,0
66.3727,-53.1146,-1.95138,0
66.434,-52.9952,-1.96782,0
66.492,-52.8746,-1.98393,0
66.5464,-52.7529,-1.99971,0
66.5976,-52.6303,-2.01516,0
66.6453,-52.5069,-2.03027,0
66.6896,-52.3827,-2.04502,0
66.7306,-52.258,-2.05941,0
66.7683,-52.1327,-2.07344,0
66.8025,-52.007,-2.0871,0
66.8335,-51.881,-2.10038,0
66.8612,-51.7548,-2.11328,0
66.8855,-51.6285,-2.1258,0
66.3584,-51.2889,-2.21212,174
66.3663,-51.173,-2.22369,174
66.3844,-51.0622,-2.2332,174
66.6201,-51.0204,-2.21423,174
66.9734,-51.0027,-2.18084,0
66.9847,-50.8789,-2.19033,0
67.0191,-50.7616,-2.19627,0
67.0508,-50.6434,-2.20188,0
67.0798,-50.5245,-2.20715,0
67.1063,-50.4049,-2.2121,0
67.1302,-50.2846,-2.21671,0
67.1512,-50.1636,-2.22098,0
67.1696,-50.0422,-2.22489,0
67.1853,-49.9202,-2.22846,0
67.1982,-49.7979,-2.23168,0
67.2084,-49.6751,-2.23456,0
67.2157,-49.5521,-2.23707,0
67.2203,-49.4288,-2.23924,0
67.2222,-49.3054,-2.24103,0
67.2212,-49.1818,-2.24247,0
67.2176,-49.0582,-2.24355,0
67.211,-48.9346,-2.24426,0
67.2016,-48.8111,-2.24461,0
67.1895,-48.6878,-2.2446,0
67.1723,-48.565,-2.24446,0
67.1508,-48.4429,-2.24413,0
67.1264,-48.3213,-2.24343,0
67.0991,-48.2004,-2.24237,0
67.0692,-48.08,-2.24096,0
67.0365,-47.9604,-2.23919,0
67.0009,-47.8416,-2.23706,0
66.9627,-47.7237,-2.23458,0
66.9216,-47.6067,-2.23175,0
66.8779,-47.4907,-2.22855,0
66.8315,-47.3757,-2.22501,0
66.7824,-47.2618,-2.22112,0
66.7308,-47.1492,-2.21688,0
66.6765,-47.0378,-2.2123,0
66.6197,-46.9277,-2.20738,0
66.5602,-46.8189,-2.20212,0
66.5016,-46.7097,-2.19607,0
66.4412,-46.6014,-2.1896,0
66.3781,-46.4945,-2.18278,0
66.3127,-46.389,-2.17563,0
66.2446,-46.285,-2.16812,0
66.1743,-46.1826,-2.16029,0
66.1015,-46.0817,-2.15213,0
66.0263,-45.9825,-2.14364,0
65.9604,-45.8752,-2.13292,0
65.8999,-45.762,-2.12041,0
65.8363,-45.6498,-2.10753,0
65.7693,-45.5389,-2.09429,0
65.6991,-45.4294,-2.0807,0
65.1673,-45.8103,-2.15749,174
65.064,-45.7563,-2.15224,174
65.46,-45.1214,-2.03989,0
65.3717,-45.0259,-2.02625,0
65.2805,-44.9326,-2.01236,0
65.1866,-44.8418,-1.99819,0
65.0899,-44.7534,-1.98379,0
64.9906,-44.6676,-1.96915,0
64.8914,-44.5804,-1.95353,0
64.7921,-44.4917,-1.9369,0
64.6902,-44.4053,-1.91999,0
64.5856,-44.3215,-1.90279,0
64.3794,-44.4289,-1.91961,174
64.3153,-44.2697,-1.88728,174
65.4584,-54.2739,-1.76227,0
65.5576,-54.1794,-1.78047,0
65.6539,-54.0824,-1.79849,0
65.7475,-53.9829,-1.81634,0
65.838,-53.8812,-1.83397,0
65.3803,-53.2204,-1.97955,174
65.4809,-53.1545,-1.98841,174
66.0916,-53.5631,-1.88558,0
66.1701,-53.4532,-1.90229,0
66.2448,-53.3411,-1.91885,0
66.3127,-53.2243,-1.93586,0
66.3772,-53.106,-1.95258,0
66.4383,-52.9865,-1.96899,0
66.4959,-52.8658,-1.98508,0
66.5502,-52.7441,-2.00084,0
66.6011,-52.6214,-2.01627,0
66.6486,-52.498,-2.03134,0
66.6927,-52.3737,-2.04607,0
66.7334,-52.2489,-2.06044,0
66.7709,-52.1236,-2.07444,0
66.8048,-51.9979,-2.08807,0
66.8356,-51.8719,-2.10132,0
66.863,-51.7457,-2.1142,0
66.8873,-51.6195,-2.12669,0
66.3558,-51.2792,-2.21341,174
66.3675,-51.165,-2.22442,174
66.3897,-51.0556,-2.23334,174
66.6458,-51.0198,-2.21176,174
66.9742,-50.9938,-2.18154,0
66.9872,-50.8705,-2.19077,0
67.0213,-50.7531,-2.19668,0
67.053,-50.6349,-2.20227,0
67.0819,-50.5159,-2.20752,0
67.1081,-50.3962,-2.21244,0
67.1317,-50.2759,-2.21702,0
67.1527,-50.1549,-2.22126,0
67.1708,-50.0334,-2.22516,0
67.1862,-49.9114,-2.22871,0
67.199,-49.789,-2.23191,0
67.209,-49.6663,-2.23475,0
67.2162,-49.5432,-2.23724,0
67.2205,-49.4199,-2.23937,0
67.2222,-49.2965,-2.24115,0
67.2211,-49.1729,-2.24257,0
67.2171,-49.0493,-2.24361,0
67.2104,-48.9257,-2.2443,0
67.2008,-48.8022,-2.24463,0
67.1884,-48.6789,-2.24459,0
67.1708,-48.5562,-2.24445,0
67.1491,-48.4342,-2.24408,0
67.1245,-48.3126,-2.24337,0
67.0971,-48.1917,-2.24228,0
67.0669,-48.0714,-2.24085,0
67.0341,-47.9519,-2.23904,0
66.9983,-47.8331,-2.2369,0
66.9598,-47.7152,-2.23439,0
66.9186,-47.5983,-2.23153,0
66.8746,-47.4823,-2.22831,0
66.828,-47.3675,-2.22474,0
66.7788,-47.2537,-2.22082,0
66.727,-47.1411,-2.21656,0
66.6725,-47.0298,-2.21195,0
66.6155,-46.9198,-2.20701,0
66.5559,-46.8112,-2.20173,0
66.4973,-46.7019,-2.19562,0
66.4366,-46.5937,-2.18912,0
66.3735,-46.4869,-2.18227,0
66.3078,-46.3815,-2.17509,0
66.2397,-46.2776,-2.16757,0
66.1691,-46.1753,-2.15971,0
66.0962,-46.0745,-2.15153,0
66.0209,-45.9755,-2.14302,0
65.9562,-45.8671,-2.13202,0
65.8954,-45.7538,-2.11949,0
65.8315,-45.6418,-2.1066,0
65.7643,-45.531,-2.09333,0
65.6939,-45.4215,-2.07971,0
65.1592,-45.8071,-2.15725,174
65.0577,-45.7513,-2.15162,174
65.4538,-45.1145,-2.03892,0
65.3652,-45.0191,-2.02528,0
65.2738,-44.926,-2.01135,0
65.1798,-44.8353,-1.99717,0
65.0828,-44.7471,-1.98275,0
64.9834,-44.6616,-1.96808,0
64.8844,-44.5739,-1.95234,0
64.7849,-44.4854,-1.9357,0
64.6828,-44.3992,-1.91876,0
64.578,-44.3155,-1.90154,0
64.3715,-44.4241,-1.91852,174
