31.4123,-17.4938,0.412152,0
31.5768,-17.3915,0.413909,0
31.739,-17.2851,0.415618,0
31.8987,-17.1746,0.417298,0
32.0559,-17.06,0.418919,0
32.21,-16.9409,0.420394,0
32.3614,-16.8179,0.42182,0
32.51,-16.6912,0.423236,0
32.6558,-16.5607,0.424612,0
32.7985,-16.4266,0.42597,0
32.9399,-16.2906,0.427689,0
33.0809,-16.153,0.429915,0
33.2187,-16.0119,0.432103,0
33.3533,-15.8671,0.434261,0
33.4846,-15.7189,0.43639,0
33.6126,-15.5672,0.438489,0
33.737,-15.4121,0.44055,0
33.8579,-15.2539,0.442601,0
33.9759,-15.0928,0.444739,0
34.0902,-14.9286,0.446868,0
34.2008,-14.7615,0.448968,0
34.3076,-14.5914,0.451058,0
34.4105,-14.4185,0.453128,0
34.5094,-14.2428,0.455179,0
34.6041,-14.0644,0.4572,0
34.6948,-13.8835,0.459212,0
34.7837,-13.7009,0.461585,0
34.8695,-13.5163,0.464153,0
34.9511,-13.3292,0.466712,0
35.0283,-13.1398,0.469232,0
35.1011,-12.9481,0.471741,0
35.1695,-12.7544,0.474232,0
35.2331,-12.5585,0.476693,0
35.2923,-12.3608,0.479134,0
35.1079,-12.1232,0.442928,174
35.0776,-11.9169,0.432575,174
35.4473,-11.7578,0.487288,0
35.489,-11.5535,0.489886,0
34.7523,-11.2983,0.368873,174
35.5614,-11.1409,0.495618,0
35.5863,-10.9325,0.497835,0
35.6031,-10.7232,0.499525,0
35.6142,-10.5133,0.501107,0
35.6195,-10.3028,0.502552,0
35.6192,-10.0919,0.50388,0
34.7559,-9.96759,0.368236,174
35.6012,-9.66996,0.506155,0
35.5836,-9.45915,0.507093,0
35.5601,-9.24869,0.507894,0
35.5308,-9.03879,0.508577,0
35.4994,-8.82879,0.50973,0
35.4729,-8.61685,0.512484,0
35.4405,-8.40529,0.515111,0
35.4022,-8.19434,0.517611,0
35.3578,-7.98415,0.519945,0
25.1518,-18.757,0.402015,0
25.3392,-18.7948,0.402825,0
25.5277,-18.8277,0.403538,0
25.7169,-18.8567,0.40432,0
25.9067,-18.8812,0.405071,0
26.0973,-18.9012,0.405804,0
26.2884,-18.9167,0.406507,0
26.4798,-18.9275,0.407181,0
26.6715,-18.9338,0.407825,0
26.8634,-18.9356,0.40845,0
27.0553,-18.9327,0.409036,0
27.2472,-18.9253,0.409593,0
27.439,-18.9132,0.41012,0
27.6305,-18.8966,0.410628,0
27.8216,-18.8754,0.411097,0
28.0113,-18.8444,0.410677,0
28.1998,-18.8065,0.409837,0
28.3873,-18.7642,0.408987,0
28.5737,-18.7184,0.408255,0
28.759,-18.6682,0.407513,0
28.9429,-18.6138,0.406751,0
29.1255,-18.5551,0.405989,0
29.3065,-18.4922,0.405218,0
29.4859,-18.4252,0.404437,0
29.6637,-18.3541,0.403655,0
29.8397,-18.2788,0.402855,0
30.0138,-18.1995,0.402054,0
30.1859,-18.1163,0.401253,0
30.3562,-18.0294,0.400491,0
30.5323,-17.9535,0.402474,0
30.7069,-17.8733,0.404427,0
30.8797,-17.7887,0.406351,0
31.0506,-17.6998,0.408226,0
31.2197,-17.6066,0.410071,0
31.3866,-17.5092,0.411878,0
33.9946,-14.3683,0.449495,0
34.091,-14.2021,0.451468,0
34.1836,-14.0333,0.453411,0
34.2723,-13.862,0.455335,0
34.3594,-13.6892,0.457679,0
34.4432,-13.5143,0.46014,0
34.523,-13.337,0.462571,0
34.5988,-13.1574,0.465003,0
34.6704,-12.9757,0.467386,0
34.7377,-12.7919,0.469769,0
34.8005,-12.6062,0.472132,0
34.8592,-12.4186,0.474476,0
34.9134,-12.2292,0.47679,0
34.963,-12.0382,0.479066,0
35.008,-11.8456,0.481321,0
35.0484,-11.6516,0.483538,0
35.0773,-11.4557,0.484593,0
34.6452,-11.2331,0.409401,174
35.1253,-11.0615,0.487347,0
35.1437,-10.8633,0.488948,0
35.157,-10.6643,0.490462,0
35.165,-10.4648,0.491878,0
35.1677,-10.2649,0.493187,0
34.6632,-10.1073,0.41068,174
35.1572,-9.86446,0.495521,0
35.1439,-9.66426,0.496536,0
35.1253,-9.46427,0.497445,0
35.1014,-9.26466,0.498265,0
35.0721,-9.06557,0.498958,0
35.0384,-8.86695,0.499739,0
35.0112,-8.66612,0.502376,0
34.9784,-8.46572,0.504925,0
34.9401,-8.26591,0.507366,0
34.8963,-8.06684,0.509681,0
25.2704,-18.4421,0.405384,0
25.4516,-18.4699,0.404935,0
25.6354,-18.4786,0.401956,0
25.8172,-18.4981,0.401517,0
25.9987,-18.5204,0.402318,0
26.1806,-18.5383,0.40306,0
26.3632,-18.5518,0.403763,0
26.546,-18.5609,0.404427,0
26.7291,-18.5655,0.405042,0
26.9124,-18.5656,0.405628,0
27.0956,-18.5613,0.406165,0
27.2787,-18.5525,0.406663,0
27.4617,-18.5393,0.407122,0
27.6443,-18.5216,0.407523,0
27.8266,-18.4994,0.407894,0
28.0082,-18.4728,0.408216,0
28.1892,-18.4417,0.408489,0
28.3684,-18.4015,0.407904,0
28.5464,-18.3566,0.4072,0
28.7232,-18.3075,0.406478,0
28.8988,-18.2543,0.405755,0
29.073,-18.1971,0.405032,0
29.2457,-18.1359,0.40428,0
29.4168,-18.0707,0.403538,0
29.5864,-18.0016,0.402786,0
29.7542,-17.9286,0.402025,0
29.9202,-17.8517,0.401253,0
30.0843,-17.7711,0.400482,0
30.2464,-17.6866,0.3997,0
30.4091,-17.6031,0.399808,0
30.5748,-17.5247,0.401653,0
30.7388,-17.4422,0.40347,0
30.9012,-17.3556,0.405257,0
31.0615,-17.265,0.406986,0
31.2198,-17.1703,0.408695,0
31.3761,-17.0717,0.410364,0
31.5301,-16.9691,0.411986,0
31.6817,-16.8626,0.413568,0
31.8309,-16.7523,0.415101,0
31.9776,-16.6382,0.416605,0
32.1216,-16.5204,0.41805,0
32.2629,-16.3988,0.419456,0
32.402,-16.2745,0.420999,0
32.543,-16.1509,0.423568,0
32.6812,-16.0237,0.426116,0
32.8168,-15.8929,0.428665,0
32.9477,-15.7572,0.430784,0
33.0754,-15.618,0.432874,0
33.2,-15.4757,0.434954,0
33.3216,-15.3301,0.437034,0
33.4398,-15.1814,0.439085,0
33.5547,-15.0297,0.441136,0
33.6662,-14.875,0.443177,0
33.7742,-14.7175,0.445198,0
33.8786,-14.557,0.4472,0
33.9794,-14.3939,0.449193,0
34.0763,-14.228,0.451155,0
34.1695,-14.0596,0.453118,0
34.2588,-13.8886,0.455032,0
34.346,-13.7161,0.457298,0
34.4305,-13.5415,0.459759,0
34.511,-13.3646,0.462191,0
34.5873,-13.1854,0.464612,0
34.6595,-13.004,0.467034,0
34.7275,-12.8205,0.469407,0
34.7912,-12.6351,0.471771,0
34.8504,-12.4478,0.474114,0
34.9052,-12.2587,0.476429,0
34.9556,-12.0679,0.478724,0
35.0013,-11.8755,0.48098,0
35.0424,-11.6817,0.483196,0
35.0737,-11.4861,0.484525,0
34.6782,-11.2641,0.415319,174
35.122,-11.0922,0.487093,0
35.1413,-10.894,0.488714,0
35.1553,-10.6952,0.490238,0
35.1641,-10.4957,0.491663,0
35.1676,-10.2959,0.492991,0
34.6687,-10.136,0.411309,174
34.7647,-9.93678,0.429539,174
35.1463,-9.69525,0.49639,0
35.1285,-9.49522,0.497318,0
35.1055,-9.29553,0.498138,0
35.077,-9.09634,0.498861,0
35.0432,-8.89782,0.499466,0
35.0158,-8.6972,0.501986,0
34.9838,-8.4967,0.504525,0
34.9464,-8.2968,0.506995,0
34.9035,-8.09759,0.509329,0
25.2425,-18.4369,0.405345,0
25.4231,-18.4682,0.405403,0
25.607,-18.4775,0.402405,0
25.7891,-18.4942,0.4014,0
25.9705,-18.5172,0.402191,0
26.1525,-18.5358,0.402952,0
26.3349,-18.55,0.403655,0
26.5177,-18.5598,0.404329,0
26.7008,-18.5651,0.404954,0
26.884,-18.5659,0.40554,0
27.0673,-18.5623,0.406087,0
27.2504,-18.5542,0.406595,0
27.4334,-18.5417,0.407054,0
27.6162,-18.5246,0.407464,0
27.7984,-18.5031,0.407835,0
27.9802,-18.4772,0.408167,0
28.1612,-18.4468,0.40845,0
28.3408,-18.4081,0.408011,0
28.5189,-18.3638,0.407308,0
28.6959,-18.3154,0.406595,0
28.8716,-18.2628,0.405862,0
29.046,-18.2062,0.40513,0
29.219,-18.1456,0.404398,0
29.3905,-18.0811,0.403646,0
29.5602,-18.0125,0.402894,0
29.7284,-17.9401,0.402132,0
29.8946,-17.8639,0.40137,0
30.0591,-17.7838,0.400599,0
30.2215,-17.6999,0.399818,0
30.3832,-17.6149,0.399525,0
30.5492,-17.5371,0.40137,0
30.7136,-17.4553,0.403196,0
30.8761,-17.3693,0.404974,0
31.0368,-17.2793,0.406722,0
31.1955,-17.1852,0.408441,0
31.352,-17.0872,0.410111,0
31.5063,-16.9852,0.411741,0
31.6584,-16.8793,0.413323,0
31.808,-16.7696,0.414866,0
31.9551,-16.6561,0.41637,0
32.0995,-16.5388,0.417825,0
32.2412,-16.4179,0.419232,0
32.3801,-16.2933,0.420609,0
32.5213,-16.1703,0.423167,0
32.6601,-16.0436,0.425726,0
32.796,-15.9134,0.428265,0
32.9276,-15.7784,0.430462,0
33.0558,-15.6398,0.432552,0
33.1809,-15.4979,0.434632,0
33.3029,-15.3529,0.436712,0
33.4216,-15.2047,0.438773,0
33.5371,-15.0534,0.440823,0
33.6491,-14.8992,0.442864,0
33.7577,-14.742,0.444886,0
33.8627,-14.582,0.446888,0
33.964,-14.4193,0.44888,0
34.0616,-14.2539,0.450853,0
34.1553,-14.0858,0.452806,0
34.2452,-13.9153,0.454739,0
34.3326,-13.7429,0.456917,0
34.4177,-13.5687,0.459378,0
34.4987,-13.3921,0.46182,0
34.5759,-13.2132,0.464241,0
34.6487,-13.0322,0.466653,0
34.7173,-12.8491,0.469046,0
34.7816,-12.6639,0.471409,0
34.8415,-12.4769,0.473753,0
34.8971,-12.288,0.476077,0
34.948,-12.0975,0.478363,0
34.9946,-11.9054,0.480628,0
35.0364,-11.7118,0.482864,0
35.07,-11.5165,0.484456,0
34.7231,-11.2962,0.423238,174
35.1186,-11.1228,0.486839,0
35.1386,-10.9248,0.48847,0
35.1534,-10.726,0.490013,0
35.163,-10.5266,0.491448,0
35.1673,-10.3268,0.492786,0
34.6852,-10.164,0.413799,174
34.7195,-9.97105,0.421588,174
35.1486,-9.72624,0.496234,0
35.1316,-9.52617,0.497181,0
35.1094,-9.32642,0.498021,0
35.0817,-9.12713,0.498743,0
35.0487,-8.92852,0.499388,0
35.0202,-8.72827,0.501575,0
34.9891,-8.52771,0.504153,0
34.9525,-8.3277,0.506624,0
34.9105,-8.12837,0.508968,0
25.2147,-18.4315,0.405306,0
25.395,-18.4646,0.40556,0
25.5785,-18.4764,0.402874,0
25.7612,-18.4903,0.401273,0
25.9424,-18.514,0.402064,0
26.1243,-18.5333,0.402835,0
26.3066,-18.5481,0.403548,0
26.4894,-18.5586,0.404222,0
26.6724,-18.5645,0.404857,0
26.8556,-18.5661,0.405452,0
27.0389,-18.5631,0.405999,0
27.2221,-18.5557,0.406517,0
27.4051,-18.5439,0.406986,0
27.5879,-18.5275,0.407396,0
27.7702,-18.5067,0.407777,0
27.952,-18.4815,0.408118,0
28.1333,-18.4518,0.408411,0
28.3131,-18.4146,0.408118,0
28.4914,-18.3709,0.407415,0
28.6686,-18.3231,0.406702,0
28.8445,-18.2712,0.405989,0
29.0192,-18.2153,0.405247,0
29.1923,-18.1553,0.404515,0
29.364,-18.0913,0.403773,0
29.5341,-18.0234,0.403011,0
29.7024,-17.9516,0.402249,0
29.869,-17.8759,0.401487,0
30.0337,-17.7964,0.400726,0
30.1964,-17.7132,0.399945,0
30.3574,-17.6265,0.399232,0
30.5237,-17.5494,0.401087,0
30.6882,-17.4682,0.402913,0
30.8511,-17.3829,0.4047,0
31.012,-17.2935,0.406458,0
31.1711,-17.2,0.408167,0
33.6784,-14.2129,0.447484,0
33.7702,-14.0536,0.449359,0
33.8581,-13.8918,0.451214,0
33.9439,-13.7284,0.453372,0
34.0273,-13.5631,0.455726,0
34.1068,-13.3954,0.45807,0
34.1824,-13.2256,0.460394,0
34.2541,-13.0537,0.462708,0
34.3218,-12.8797,0.465003,0
34.3854,-12.7037,0.467279,0
34.4448,-12.526,0.469525,0
34.5002,-12.3464,0.471751,0
34.5512,-12.1653,0.473948,0
34.5938,-11.9819,0.475423,0
34.6276,-11.7967,0.476058,0
34.6564,-11.6106,0.476614,0
34.6804,-11.4236,0.477064,0
34.627,-11.2318,0.464809,174
34.6775,-11.0465,0.471424,174
34.743,-10.8592,0.48138,0
34.755,-10.6697,0.482796,0
34.762,-10.4797,0.484144,0
34.764,-10.2893,0.485384,0
34.6696,-10.1065,0.47062,174
34.753,-9.90809,0.487581,0
34.7399,-9.7175,0.488538,0
34.7217,-9.52714,0.489398,0
34.6985,-9.33716,0.490159,0
34.6702,-9.14768,0.490823,0
34.6369,-8.95886,0.49138,0
34.6053,-8.76914,0.49306,0
34.5733,-8.57876,0.495452,0
34.536,-8.38897,0.497757,0
34.4936,-8.19992,0.499935,0
25.3263,-18.141,0.408421,0
25.5012,-18.1627,0.407064,0
25.6776,-18.1718,0.404193,0
25.8536,-18.177,0.401351,0
26.029,-18.1819,0.399202,0
26.203,-18.1989,0.399905,0
26.3776,-18.2116,0.400579,0
26.5524,-18.2202,0.401214,0
26.7275,-18.2244,0.40181,0
26.9027,-18.2244,0.402366,0
27.078,-18.2202,0.402874,0
27.253,-18.2117,0.403343,0
27.428,-18.1989,0.403782,0
27.6026,-18.1818,0.404163,0
27.7768,-18.1605,0.404515,0
27.9505,-18.135,0.404827,0
28.1234,-18.1052,0.405091,0
28.2958,-18.0712,0.405316,0
28.4673,-18.033,0.405491,0
28.6377,-17.9906,0.405628,0
28.8061,-17.9405,0.405062,0
28.973,-17.8858,0.404359,0
29.1386,-17.8273,0.403646,0
29.3026,-17.765,0.402933,0
29.4651,-17.6989,0.4022,0
29.6259,-17.629,0.401478,0
29.7851,-17.5555,0.400745,0
29.9423,-17.4783,0.400003,0
30.0977,-17.3975,0.399261,0
30.2512,-17.3132,0.398509,0
30.4048,-17.2294,0.398568,0
30.5615,-17.1501,0.400296,0
30.7163,-17.0668,0.402005,0
30.8694,-16.9797,0.403655,0
31.0205,-16.8888,0.405286,0
31.1695,-16.7941,0.406868,0
31.3164,-16.6957,0.408411,0
31.4611,-16.5935,0.409925,0
31.6034,-16.4877,0.41139,0
31.7433,-16.3783,0.412816,0
31.8816,-16.2665,0.414466,0
32.0208,-16.1546,0.416937,0
32.1577,-16.0392,0.419407,0
32.292,-15.9203,0.421849,0
32.4237,-15.7981,0.42429,0
32.5529,-15.6724,0.426712,0
32.6793,-15.5435,0.429134,0
32.8028,-15.4113,0.431527,0
32.922,-15.2749,0.433587,0
33.0377,-15.1352,0.43557,0
33.1504,-14.9926,0.437542,0
33.2598,-14.847,0.439505,0
33.366,-14.6987,0.441439,0
33.4688,-14.5475,0.443372,0
33.5681,-14.3937,0.445286,0
33.664,-14.2373,0.447191,0
33.7562,-14.0784,0.449066,0
33.8447,-13.917,0.450931,0
33.9307,-13.7537,0.453001,0
34.0146,-13.5888,0.455355,0
34.0947,-13.4215,0.457698,0
34.1709,-13.252,0.460032,0
34.2433,-13.0804,0.462357,0
34.3116,-12.9067,0.464642,0
34.3758,-12.7311,0.466927,0
34.4359,-12.5536,0.469173,0
34.4918,-12.3743,0.4714,0
34.5435,-12.1934,0.473616,0
34.5882,-12.0105,0.475316,0
34.6227,-11.8255,0.47597,0
34.6523,-11.6395,0.476527,0
34.677,-11.4526,0.476995,0
34.6486,-11.2621,0.468981,174
34.6524,-11.0747,0.467328,174
34.7407,-10.8885,0.481146,0
34.7534,-10.6991,0.482581,0
34.7613,-10.5091,0.483939,0
34.7641,-10.3188,0.485189,0
34.6705,-10.1357,0.470464,174
34.7417,-9.93896,0.485206,174
34.7423,-9.74698,0.488392,0
34.7248,-9.55658,0.489271,0
34.7025,-9.36652,0.490042,0
34.675,-9.17695,0.490716,0
34.6424,-8.98805,0.491302,0
34.6098,-8.79865,0.492679,0
34.5785,-8.60819,0.495091,0
34.5421,-8.4183,0.497396,0
34.5005,-8.22914,0.499612,0
25.2995,-18.136,0.408382,0
25.4739,-18.161,0.407523,0
25.6502,-18.1707,0.404642,0
25.8264,-18.1765,0.4018,0
26.002,-18.1789,0.399085,0
26.1761,-18.1965,0.399798,0
26.3505,-18.2099,0.400482,0
26.5254,-18.2191,0.401116,0
26.7005,-18.2241,0.401722,0
26.8756,-18.2247,0.402279,0
27.0508,-18.2211,0.402806,0
27.2259,-18.2133,0.403275,0
27.4009,-18.2011,0.403714,0
27.5755,-18.1847,0.404114,0
27.7498,-18.1641,0.404466,0
27.9236,-18.1392,0.404779,0
28.0967,-18.1101,0.405052,0
28.2691,-18.0767,0.405277,0
28.4408,-18.0392,0.405462,0
28.6114,-17.9975,0.405609,0
28.7802,-17.9486,0.405159,0
28.9473,-17.8946,0.404466,0
29.113,-17.8366,0.403763,0
29.2773,-17.7749,0.40304,0
29.4401,-17.7094,0.402327,0
29.6012,-17.6401,0.401595,0
29.7605,-17.5671,0.400862,0
29.9181,-17.4905,0.400111,0
30.0738,-17.4103,0.399368,0
30.2276,-17.3265,0.398626,0
30.3805,-17.2413,0.398304,0
30.5373,-17.1626,0.400042,0
30.6925,-17.08,0.401741,0
30.8458,-16.9935,0.403402,0
30.9972,-16.9031,0.405032,0
31.1466,-16.809,0.406624,0
31.2938,-16.7111,0.408187,0
31.4389,-16.6096,0.409691,0
31.5816,-16.5043,0.411165,0
31.7218,-16.3954,0.412591,0
31.8598,-16.2835,0.414085,0
31.9994,-16.1721,0.416556,0
32.1366,-16.0573,0.419027,0
32.2713,-15.9389,0.421468,0
32.4035,-15.8172,0.423909,0
32.5331,-15.6921,0.426341,0
32.6599,-15.5637,0.428753,0
32.7839,-15.432,0.431155,0
32.9037,-15.2963,0.433284,0
33.02,-15.157,0.435257,0
33.1332,-15.0149,0.437239,0
33.2431,-14.8697,0.439202,0
33.3498,-14.7218,0.441146,0
33.4531,-14.5711,0.443079,0
33.553,-14.4177,0.445003,0
33.6494,-14.2617,0.446898,0
33.7422,-14.1032,0.448782,0
33.8312,-13.9421,0.450638,0
33.9174,-13.7791,0.45263,0
34.0019,-13.6145,0.454993,0
34.0826,-13.4476,0.457347,0
34.1594,-13.2784,0.459681,0
34.2323,-13.1071,0.461995,0
34.3013,-12.9338,0.46429,0
34.3662,-12.7584,0.466575,0
34.4269,-12.5812,0.468831,0
34.4834,-12.4022,0.471068,0
34.5358,-12.2215,0.473275,0
34.5823,-12.039,0.475198,0
34.6176,-11.8542,0.475872,0
34.648,-11.6683,0.476448,0
34.6734,-11.4816,0.476937,0
34.6941,-11.2941,0.47734,174
34.6375,-11.1031,0.465045,174
34.7383,-10.9178,0.480921,0
34.7518,-10.7284,0.482376,0
34.7604,-10.5386,0.483734,0
34.7639,-10.3483,0.485003,0
34.6837,-10.1639,0.47247,174
34.6979,-9.97301,0.47715,174
34.7445,-9.77647,0.488245,0
34.7279,-9.58603,0.489134,0
34.7062,-9.39592,0.489925,0
34.6795,-9.20628,0.490628,0
34.6477,-9.01725,0.491224,0
34.6142,-8.82817,0.492288,0
34.5837,-8.63764,0.49471,0
34.548,-8.44767,0.497054,0
34.5073,-8.25837,0.499271,0
25.2727,-18.1308,0.408343,0
25.4466,-18.1591,0.407962,0
25.623,-18.1694,0.405081,0
25.7991,-18.1758,0.40223,0
25.9749,-18.1784,0.399437,0
26.1491,-18.1941,0.399691,0
26.3235,-18.2081,0.400374,0
26.4983,-18.218,0.401019,0
26.6733,-18.2235,0.401624,0
26.8484,-18.2249,0.402191,0
27.0237,-18.2219,0.402718,0
27.1989,-18.2148,0.403206,0
27.3739,-18.2033,0.403655,0
27.5486,-18.1876,0.404056,0
27.7229,-18.1676,0.404417,0
27.8968,-18.1434,0.404739,0
28.07,-18.1149,0.405013,0
28.2425,-18.0822,0.405247,0
28.4143,-18.0453,0.405433,0
28.5851,-18.0042,0.405589,0
28.7541,-17.9566,0.405277,0
28.9216,-17.9032,0.404573,0
29.0875,-17.8458,0.403861,0
29.252,-17.7847,0.403157,0
29.4149,-17.7197,0.402435,0
29.5763,-17.6511,0.401702,0
29.736,-17.5787,0.40097,0
29.8938,-17.5026,0.400228,0
30.0498,-17.4229,0.399486,0
30.2039,-17.3397,0.398734,0
30.356,-17.2532,0.39803,0
30.5131,-17.175,0.399769,0
30.6686,-17.093,0.401478,0
30.8222,-17.0071,0.403148,0
30.9739,-16.9174,0.404779,0
33.3879,-14.07,0.445628,0
33.4752,-13.9171,0.447425,0
33.56,-13.7623,0.449407,0
33.6428,-13.6058,0.451673,0
33.722,-13.4471,0.453929,0
33.7976,-13.2863,0.456175,0
33.8695,-13.1233,0.458402,0
33.9374,-12.9583,0.460609,0
34.0016,-12.7914,0.462796,0
34.062,-12.6227,0.464974,0
34.1139,-12.4513,0.466321,0
34.1593,-12.278,0.467181,0
34.2003,-12.1033,0.467952,0
34.2368,-11.9275,0.468646,0
34.2686,-11.7506,0.469251,0
34.2959,-11.5729,0.469769,0
34.3185,-11.3943,0.470198,0
34.3418,-11.2154,0.471507,0
34.3621,-11.0358,0.47303,0
34.3777,-10.8555,0.474466,0
34.3886,-10.6746,0.475814,0
34.3948,-10.4933,0.477083,0
34.3962,-10.3116,0.478265,0
34.3929,-10.1297,0.479349,0
34.3848,-9.94779,0.480335,0
34.3719,-9.76597,0.481243,0
34.3541,-9.58438,0.482064,0
34.3316,-9.40315,0.482777,0
34.3043,-9.22244,0.483402,0
34.2722,-9.04236,0.483929,0
34.2364,-8.86279,0.484583,0
34.205,-8.68149,0.486839,0
34.1688,-8.50081,0.489017,0
34.1276,-8.32084,0.491077,0
25.378,-17.862,0.411224,0
25.547,-17.8785,0.409046,0
25.7165,-17.8878,0.406282,0
25.8857,-17.8935,0.403538,0
26.0547,-17.8954,0.400853,0
26.2232,-17.8936,0.398216,0
26.3908,-17.8992,0.397659,0
26.5584,-17.9073,0.398265,0
26.7261,-17.9112,0.398831,0
26.8939,-17.9111,0.399359,0
27.0617,-17.9069,0.399847,0
27.2295,-17.8987,0.400306,0
27.397,-17.8863,0.400716,0
27.5643,-17.8699,0.401087,0
27.7311,-17.8494,0.401419,0
27.8974,-17.8249,0.401712,0
28.0631,-17.7963,0.401966,0
28.2282,-17.7636,0.402181,0
28.3924,-17.727,0.402357,0
28.5557,-17.6863,0.402484,0
28.718,-17.6417,0.402571,0
28.8791,-17.5932,0.40262,0
29.0391,-17.5407,0.40263,0
29.1973,-17.4832,0.402376,0
29.3534,-17.4199,0.401683,0
29.5077,-17.3529,0.40098,0
29.6605,-17.2825,0.400277,0
29.8115,-17.2085,0.399564,0
29.9606,-17.1311,0.398841,0
30.108,-17.0502,0.398128,0
30.2533,-16.966,0.397396,0
30.3987,-16.8818,0.397396,0
30.5467,-16.8017,0.399017,0
30.693,-16.7179,0.400599,0
30.8375,-16.6304,0.402152,0
30.98,-16.5394,0.403665,0
31.1204,-16.4447,0.40514,0
31.2587,-16.3466,0.406585,0
31.3962,-16.2469,0.40846,0
31.5337,-16.1459,0.410833,0
31.6689,-16.0415,0.413196,0
31.802,-15.9337,0.41557,0
31.9327,-15.8226,0.417923,0
32.061,-15.7082,0.420267,0
32.1869,-15.5906,0.422611,0
32.3102,-15.4697,0.424935,0
32.4308,-15.3457,0.427239,0
32.5487,-15.2186,0.429534,0
32.6637,-15.0885,0.43181,0
32.7759,-14.9554,0.434075,0
32.8841,-14.8188,0.436116,0
32.9887,-14.679,0.437991,0
33.0899,-14.5365,0.439857,0
33.188,-14.3913,0.441702,0
33.2827,-14.2436,0.443538,0
33.3741,-14.0934,0.445355,0
33.462,-13.9409,0.447142,0
33.5469,-13.7863,0.449056,0
33.6302,-13.6302,0.451321,0
33.71,-13.4718,0.453587,0
33.7861,-13.3113,0.455833,0
33.8585,-13.1487,0.45806,0
33.9272,-12.984,0.460267,0
33.992,-12.8174,0.462464,0
34.0529,-12.649,0.464632,0
34.1065,-12.478,0.466175,0
34.1527,-12.3049,0.467044,0
34.1942,-12.1304,0.467845,0
34.2314,-11.9548,0.468548,0
34.264,-11.7781,0.469163,0
34.292,-11.6004,0.469691,0
34.3153,-11.422,0.47013,0
34.3383,-11.2432,0.471273,0
34.3593,-11.0637,0.472796,0
34.3755,-10.8835,0.474251,0
34.3873,-10.7026,0.475618,0
34.3941,-10.5213,0.476898,0
34.3963,-10.3397,0.478079,0
34.3937,-10.1579,0.479183,0
34.3863,-9.97596,0.480198,0
34.3742,-9.79411,0.481116,0
34.3572,-9.61248,0.481946,0
34.3355,-9.43118,0.482679,0
34.3088,-9.25038,0.483314,0
34.2775,-9.0702,0.48387,0
34.2412,-8.89076,0.4843,0
34.2102,-8.70953,0.486507,0
34.1747,-8.52871,0.488675,0
34.1343,-8.34864,0.490765,0
25.3523,-17.8572,0.411195,0
25.5208,-17.8767,0.409476,0
25.6903,-17.8866,0.406702,0
25.8595,-17.8928,0.403958,0
26.0285,-17.8953,0.401263,0
26.1971,-17.8941,0.398616,0
26.3649,-17.8976,0.397562,0
26.5324,-17.9063,0.398167,0
26.7001,-17.9109,0.398743,0
26.8679,-17.9114,0.39928,0
27.0357,-17.9079,0.399779,0
27.2035,-17.9002,0.400238,0
27.3711,-17.8885,0.400657,0
27.5384,-17.8727,0.401038,0
27.7053,-17.8528,0.40137,0
27.8717,-17.8289,0.401673,0
28.0375,-17.801,0.401937,0
28.2027,-17.769,0.402152,0
28.367,-17.7329,0.402337,0
28.5305,-17.6929,0.402464,0
28.693,-17.6489,0.402552,0
28.8543,-17.6009,0.402611,0
29.0145,-17.5491,0.40264,0
29.173,-17.4927,0.402484,0
29.3293,-17.4299,0.40179,0
29.4839,-17.3635,0.401087,0
29.6369,-17.2936,0.400384,0
29.7882,-17.2202,0.399671,0
29.9377,-17.1433,0.398958,0
30.0853,-17.0629,0.398236,0
30.2309,-16.9793,0.397513,0
30.3755,-16.8939,0.397142,0
30.5239,-16.8143,0.398763,0
30.6705,-16.7311,0.400355,0
30.8153,-16.6442,0.401917,0
30.958,-16.5537,0.403441,0
31.0988,-16.4596,0.404915,0
31.2374,-16.362,0.40637,0
31.3748,-16.2622,0.408089,0
31.5126,-16.1618,0.410462,0
31.6481,-16.0579,0.412835,0
31.7815,-15.9506,0.415198,0
31.9126,-15.84,0.417562,0
32.0413,-15.7261,0.419905,0
32.1676,-15.609,0.422249,0
32.2913,-15.4886,0.424573,0
32.4123,-15.3651,0.426878,0
32.5306,-15.2385,0.429183,0
32.6462,-15.1089,0.431458,0
32.7588,-14.9762,0.433724,0
32.8677,-14.8402,0.435823,0
32.9727,-14.7008,0.437698,0
33.0745,-14.5587,0.439564,0
33.173,-14.4139,0.441419,0
33.2683,-14.2666,0.443255,0
33.3602,-14.1168,0.445062,0
33.4486,-13.9646,0.446868,0
33.5337,-13.8102,0.448695,0
33.6175,-13.6545,0.45097,0
33.6979,-13.4965,0.453226,0
33.7746,-13.3363,0.455482,0
33.8476,-13.174,0.457708,0
33.9168,-13.0096,0.459925,0
33.9822,-12.8433,0.462122,0
34.0437,-12.6752,0.4643,0
34.0989,-12.5047,0.466029,0
34.1458,-12.3318,0.466927,0
34.1881,-12.1575,0.467728,0
34.226,-11.982,0.468441,0
34.2592,-11.8055,0.469066,0
34.288,-11.628,0.469622,0
34.312,-11.4497,0.470071,0
34.3345,-11.2709,0.471029,0
34.3563,-11.0915,0.472562,0
34.3734,-10.9114,0.474036,0
34.3858,-10.7307,0.475404,0
34.3934,-10.5494,0.476702,0
34.3963,-10.3678,0.477904,0
34.3945,-10.186,0.479017,0
34.3878,-10.0041,0.480042,0
34.3764,-9.82225,0.48097,0
34.3601,-9.64058,0.48182,0
34.3391,-9.45922,0.482562,0
34.3133,-9.27831,0.483206,0
34.2826,-9.09804,0.483773,0
34.2472,-8.91848,0.484232,0
34.2153,-8.73758,0.486155,0
34.1805,-8.55668,0.488353,0
34.1409,-8.37648,0.490452,0
25.3265,-17.8522,0.411155,0
25.4945,-17.8748,0.409905,0
25.6641,-17.8853,0.407132,0
25.8334,-17.8921,0.404378,0
26.0023,-17.8952,0.401683,0
26.1711,-17.8945,0.399027,0
26.339,-17.8959,0.397464,0
26.5065,-17.9052,0.398079,0
26.6741,-17.9104,0.398655,0
26.8419,-17.9116,0.399202,0
27.0098,-17.9087,0.3997,0
27.1776,-17.9017,0.400169,0
27.3452,-17.8906,0.400589,0
27.5125,-17.8754,0.40098,0
27.6795,-17.8562,0.401321,0
27.846,-17.8329,0.401624,0
28.0119,-17.8055,0.401898,0
28.1772,-17.7742,0.402122,0
28.3416,-17.7388,0.402308,0
28.5052,-17.6993,0.402445,0
28.6678,-17.656,0.402552,0
28.8294,-17.6086,0.40262,0
28.9897,-17.5573,0.40263,0
29.1488,-17.502,0.402581,0
29.3052,-17.4398,0.401898,0
29.4601,-17.374,0.401204,0
29.6134,-17.3047,0.400491,0
29.7649,-17.2318,0.399779,0
29.9147,-17.1554,0.399075,0
30.0626,-17.0756,0.398353,0
30.2085,-16.9924,0.39762,0
30.3524,-16.9059,0.396898,0
30.5011,-16.8269,0.398519,0
30.648,-16.7442,0.40012,0
30.793,-16.6579,0.401673,0
33.1198,-13.9382,0.443919,0
33.2037,-13.7914,0.445745,0
33.286,-13.6432,0.447933,0
33.3649,-13.4927,0.450111,0
33.4404,-13.3402,0.452269,0
33.5124,-13.1856,0.454417,0
33.5788,-13.0283,0.456165,0
33.6386,-12.8684,0.457298,0
33.6943,-12.7068,0.458353,0
33.7459,-12.5436,0.459339,0
33.7932,-12.379,0.460238,0
33.8363,-12.213,0.461048,0
33.8752,-12.0459,0.46178,0
33.9098,-11.8777,0.462445,0
33.9399,-11.7084,0.463021,0
33.9658,-11.5384,0.463509,0
33.9871,-11.3675,0.463909,0
34.0099,-11.1965,0.465335,0
34.0288,-11.0246,0.46678,0
34.0433,-10.8521,0.468148,0
34.0533,-10.6791,0.469417,0
34.0587,-10.5057,0.470628,0
34.0597,-10.3319,0.471751,0
34.056,-10.158,0.472777,0
34.0479,-9.98414,0.473724,0
34.0352,-9.81033,0.474583,0
34.0179,-9.63675,0.475345,0
33.996,-9.46352,0.476029,0
33.9696,-9.29081,0.476614,0
33.9387,-9.11873,0.477122,0
33.903,-8.9474,0.477542,0
33.8688,-8.77531,0.478987,0
33.8336,-8.6029,0.481048,0
33.7937,-8.4312,0.483001,0
25.4264,-17.6014,0.413577,0
25.5896,-17.6146,0.410872,0
25.7527,-17.6242,0.408196,0
25.9155,-17.6302,0.40557,0
26.0782,-17.6325,0.402972,0
26.2405,-17.6313,0.400413,0
26.4024,-17.6266,0.397904,0
26.5637,-17.6189,0.39555,0
26.7247,-17.6226,0.396097,0
26.8858,-17.6224,0.396595,0
27.0467,-17.6183,0.397073,0
27.2077,-17.6102,0.397493,0
27.3684,-17.5983,0.397894,0
27.5289,-17.5825,0.398245,0
27.689,-17.5627,0.398568,0
27.8486,-17.5391,0.398851,0
28.0076,-17.5116,0.399095,0
28.1659,-17.4802,0.39929,0
28.3234,-17.445,0.399456,0
28.4801,-17.406,0.399583,0
28.6358,-17.3632,0.399671,0
28.7905,-17.3165,0.39971,0
28.9438,-17.2661,0.39972,0
29.0961,-17.212,0.3997,0
29.247,-17.1542,0.399622,0
29.3963,-17.0927,0.399505,0
29.5442,-17.0277,0.399359,0
29.6905,-16.9589,0.399154,0
29.8339,-16.8846,0.39847,0
29.9755,-16.807,0.397777,0
30.1152,-16.7261,0.397073,0
30.253,-16.642,0.39637,0
30.3904,-16.5574,0.396263,0
30.5305,-16.4767,0.397786,0
30.669,-16.3924,0.399261,0
30.8054,-16.3048,0.400716,0
30.9424,-16.2169,0.402903,0
31.0778,-16.126,0.405198,0
31.2114,-16.0319,0.407474,0
31.343,-15.9344,0.409759,0
31.4725,-15.8337,0.412034,0
31.5998,-15.7298,0.4143,0
31.725,-15.6227,0.416566,0
31.8478,-15.5124,0.418812,0
31.9683,-15.3991,0.421058,0
32.0863,-15.2827,0.423284,0
32.2016,-15.1632,0.425491,0
32.3143,-15.0409,0.427698,0
32.4243,-14.9156,0.429876,0
32.5316,-14.7875,0.432044,0
32.6358,-14.6567,0.434193,0
32.737,-14.5231,0.436321,0
32.8352,-14.3867,0.438382,0
32.9288,-14.2471,0.44015,0
33.0194,-14.1051,0.441917,0
33.1066,-13.9607,0.443646,0
33.1907,-13.8141,0.445404,0
33.2735,-13.6663,0.447601,0
33.353,-13.5162,0.449769,0
33.429,-13.3639,0.451937,0
33.5015,-13.2096,0.454085,0
33.5692,-13.0529,0.45598,0
33.6296,-12.8932,0.457122,0
33.6859,-12.7319,0.458196,0
33.7381,-12.569,0.459193,0
33.7861,-12.4046,0.460091,0
33.8299,-12.2388,0.460931,0
33.8695,-12.0718,0.461673,0
33.9047,-11.9038,0.462347,0
33.9355,-11.7347,0.462933,0
33.962,-11.5647,0.463431,0
33.9841,-11.394,0.463851,0
34.0066,-11.223,0.465101,0
34.0262,-11.0513,0.466556,0
34.0413,-10.8789,0.467943,0
34.052,-10.7059,0.469232,0
34.0581,-10.5325,0.470443,0
34.0598,-10.3588,0.471575,0
34.057,-10.185,0.47262,0
34.0495,-10.011,0.473577,0
34.0375,-9.83722,0.474446,0
34.0209,-9.6636,0.475237,0
33.9997,-9.49032,0.475931,0
33.974,-9.31751,0.476527,0
33.9437,-9.14531,0.477054,0
33.9088,-8.97385,0.477464,0
33.8739,-8.80206,0.478665,0
33.8394,-8.62953,0.480726,0
33.8002,-8.45773,0.482708,0
25.4013,-17.5981,0.413812,0
25.5644,-17.6128,0.411282,0
25.7274,-17.6229,0.408607,0
25.8904,-17.6295,0.40597,0
26.053,-17.6324,0.403372,0
26.2154,-17.6318,0.400814,0
26.3773,-17.6276,0.398294,0
26.5388,-17.6198,0.395814,0
26.6998,-17.6223,0.396009,0
26.8608,-17.6227,0.396517,0
27.0219,-17.6192,0.396995,0
27.1828,-17.6118,0.397435,0
27.3436,-17.6004,0.397835,0
27.5041,-17.5852,0.398206,0
27.6642,-17.5661,0.398529,0
27.8239,-17.543,0.398812,0
27.983,-17.5161,0.399056,0
28.1414,-17.4854,0.399271,0
28.2991,-17.4507,0.399437,0
28.4559,-17.4123,0.399564,0
28.6117,-17.37,0.399661,0
28.7666,-17.324,0.39972,0
28.9202,-17.2742,0.39973,0
29.0726,-17.2206,0.3997,0
29.2237,-17.1634,0.399642,0
29.3734,-17.1025,0.399534,0
29.5214,-17.038,0.399388,0
29.668,-16.9699,0.399202,0
29.8118,-16.8963,0.398577,0
29.9537,-16.8192,0.397884,0
30.0938,-16.7388,0.397191,0
30.2319,-16.6552,0.396478,0
30.3685,-16.5696,0.396029,0
30.509,-16.4894,0.397552,0
30.6477,-16.4057,0.399036,0
30.7845,-16.3186,0.400491,0
30.9212,-16.2306,0.402542,0
31.057,-16.1403,0.404837,0
31.1909,-16.0467,0.407122,0
31.3227,-15.9497,0.409407,0
31.4526,-15.8495,0.411683,0
31.5803,-15.7461,0.413948,0
31.7058,-15.6395,0.416204,0
31.829,-15.5297,0.41846,0
31.9498,-15.4168,0.420706,0
32.0681,-15.3009,0.422943,0
32.184,-15.1819,0.42515,0
32.297,-15.06,0.427357,0
32.4075,-14.9352,0.429534,0
32.5151,-14.8076,0.431712,0
32.6198,-14.6771,0.433861,0
32.7216,-14.544,0.435989,0
32.8204,-14.4081,0.438099,0
32.9146,-14.2689,0.439886,0
33.0056,-14.1273,0.441644,0
33.0933,-13.9832,0.443382,0
33.1777,-13.8369,0.445111,0
33.2609,-13.6893,0.447259,0
33.3409,-13.5395,0.449427,0
33.4174,-13.3876,0.451605,0
33.4905,-13.2336,0.453753,0
33.5595,-13.0775,0.455804,0
33.6205,-12.9181,0.456956,0
33.6775,-12.757,0.45804,0
33.7303,-12.5943,0.459036,0
33.779,-12.4301,0.459964,0
33.8234,-12.2646,0.460804,0
33.8636,-12.0978,0.461566,0
33.8995,-11.9298,0.462249,0
33.931,-11.7609,0.462855,0
33.9583,-11.5911,0.463362,0
33.981,-11.4205,0.463792,0
34.0032,-11.2495,0.464876,0
34.0234,-11.0779,0.466341,0
34.0393,-10.9056,0.467737,0
34.0506,-10.7327,0.469036,0
34.0575,-10.5594,0.470267,0
34.0598,-10.3857,0.4714,0
34.0577,-10.2119,0.472464,0
34.0509,-10.038,0.473431,0
34.0396,-9.86412,0.47432,0
34.0238,-9.69046,0.47512,0
34.0034,-9.51713,0.475833,0
33.9783,-9.34424,0.476448,0
33.9487,-9.17192,0.476976,0
33.9146,-9.00034,0.477405,0
33.8788,-8.82881,0.478323,0
33.845,-8.65618,0.480404,0
33.8065,-8.48428,0.482405,0
25.3765,-17.5933,0.413773,0
25.5391,-17.6109,0.411702,0
25.7022,-17.6216,0.409027,0
25.8652,-17.6287,0.40638,0
26.0279,-17.6322,0.403773,0
26.1903,-17.6321,0.401204,0
26.3523,-17.6284,0.398675,0
26.5138,-17.6213,0.396195,0
26.6749,-17.6219,0.395921,0
26.8359,-17.6229,0.396439,0
26.9969,-17.62,0.396927,0
27.1579,-17.6131,0.397366,0
27.3187,-17.6024,0.397777,0
27.4793,-17.5878,0.398148,0
27.6395,-17.5693,0.39848,0
27.7992,-17.5469,0.398773,0
27.9584,-17.5205,0.399017,0
28.117,-17.4904,0.399241,0
28.2747,-17.4563,0.399407,0
28.4317,-17.4185,0.399544,0
28.5877,-17.3768,0.399652,0
28.7427,-17.3313,0.3997,0
28.8965,-17.2821,0.39973,0
29.0491,-17.2292,0.39971,0
29.2004,-17.1725,0.399642,0
29.3502,-17.1122,0.399544,0
29.4986,-17.0482,0.399407,0
29.6453,-16.9806,0.399232,0
29.7897,-16.908,0.398685,0
29.9319,-16.8313,0.397991,0
30.0722,-16.7515,0.397288,0
30.2106,-16.6684,0.396595,0
30.347,-16.5821,0.395892,0
30.4873,-16.502,0.397318,0
30.6263,-16.4189,0.398812,0
32.8719,-13.8162,0.442366,0
32.9529,-13.6753,0.44429,0
33.0284,-13.5312,0.445726,0
33.1005,-13.3851,0.447093,0
33.1688,-13.237,0.448382,0
33.2333,-13.087,0.449612,0
33.2941,-12.9353,0.450765,0
33.3511,-12.7818,0.451839,0
33.4041,-12.6268,0.452855,0
33.4532,-12.4703,0.453782,0
33.4983,-12.3125,0.454632,0
33.5394,-12.1534,0.455413,0
33.5763,-11.9931,0.456116,0
33.6091,-11.8318,0.456741,0
33.6378,-11.6696,0.457288,0
33.6623,-11.5066,0.457747,0
33.683,-11.3429,0.458206,0
33.7048,-11.179,0.459652,0
33.7225,-11.0143,0.461038,0
33.7359,-10.849,0.462337,0
33.7451,-10.6832,0.463558,0
33.7499,-10.5171,0.4647,0
33.7505,-10.3506,0.465755,0
33.7466,-10.1841,0.466741,0
33.7384,-10.0175,0.46764,0
33.726,-9.85105,0.46845,0
33.7091,-9.68484,0.469193,0
33.688,-9.51897,0.469827,0
33.6623,-9.35359,0.470384,0
33.6324,-9.18883,0.470872,0
33.5981,-9.02479,0.471263,0
33.5607,-8.8613,0.47178,0
33.5264,-8.69646,0.473743,0
33.4877,-8.53232,0.475589,0
25.472,-17.3558,0.415189,0
25.6292,-17.369,0.412571,0
25.7863,-17.3788,0.409993,0
25.9434,-17.385,0.407454,0
26.1002,-17.3878,0.404945,0
26.2566,-17.3871,0.402484,0
26.4127,-17.383,0.400052,0
26.5684,-17.3754,0.397659,0
26.7235,-17.3645,0.395316,0
26.8782,-17.3554,0.394036,0
27.033,-17.3514,0.394495,0
27.1876,-17.3436,0.394905,0
27.342,-17.3321,0.395286,0
27.4963,-17.3168,0.395628,0
27.6501,-17.2977,0.395931,0
27.8034,-17.275,0.396204,0
27.9562,-17.2485,0.396439,0
28.1084,-17.2183,0.396634,0
28.2596,-17.1844,0.39679,0
28.4102,-17.1468,0.396898,0
28.5598,-17.1056,0.396986,0
28.7084,-17.0608,0.397034,0
28.8558,-17.0123,0.397044,0
29.002,-16.9603,0.397005,0
29.147,-16.9048,0.396937,0
29.2905,-16.8457,0.396839,0
29.4327,-16.7831,0.396693,0
29.5732,-16.7172,0.396507,0
29.7121,-16.6478,0.396292,0
29.8492,-16.575,0.396038,0
29.9845,-16.499,0.395736,0
30.118,-16.4197,0.395404,0
30.2495,-16.3371,0.395042,0
30.3815,-16.2552,0.39553,0
30.5166,-16.1773,0.397767,0
30.65,-16.0959,0.399974,0
30.7818,-16.0114,0.402171,0
30.9119,-15.9236,0.404368,0
31.04,-15.8326,0.406575,0
31.1663,-15.7385,0.408753,0
31.2905,-15.6412,0.41095,0
31.4127,-15.5409,0.413118,0
31.5327,-15.4375,0.415296,0
31.6505,-15.3311,0.417464,0
31.7659,-15.2217,0.419612,0
31.8789,-15.1095,0.421761,0
31.9895,-14.9943,0.42388,0
32.0974,-14.8764,0.425989,0
32.2027,-14.7557,0.428089,0
32.3053,-14.6322,0.430169,0
32.4052,-14.5062,0.43222,0
32.5021,-14.3775,0.434261,0
32.5962,-14.2463,0.436282,0
32.687,-14.1126,0.438284,0
32.775,-13.9765,0.440247,0
32.8591,-13.8379,0.442083,0
32.9409,-13.6974,0.444056,0
33.017,-13.5537,0.445501,0
33.0895,-13.4079,0.446888,0
33.1584,-13.26,0.448187,0
33.2236,-13.1104,0.449427,0
33.2849,-12.9589,0.450589,0
33.3425,-12.8057,0.451683,0
33.3962,-12.6509,0.452698,0
33.4459,-12.4946,0.453636,0
33.4916,-12.337,0.454505,0
33.5332,-12.1781,0.455306,0
33.5709,-12.018,0.456009,0
33.6044,-11.8569,0.456654,0
33.6337,-11.6948,0.45721,0
33.6587,-11.5319,0.457689,0
33.6798,-11.3683,0.458079,0
33.7017,-11.2044,0.459437,0
33.7201,-11.0398,0.460823,0
33.7341,-10.8746,0.462142,0
33.744,-10.7089,0.463362,0
33.7495,-10.5428,0.464525,0
33.7507,-10.3764,0.465599,0
33.7475,-10.2099,0.466585,0
33.7401,-10.0433,0.467503,0
33.7282,-9.87682,0.468333,0
33.712,-9.71056,0.469085,0
33.6915,-9.54463,0.469739,0
33.6666,-9.37917,0.470316,0
33.6373,-9.21428,0.470794,0
33.6037,-9.05013,0.471204,0
33.5658,-8.8868,0.471517,0
33.532,-8.72191,0.473431,0
33.4939,-8.55768,0.475316,0
25.4476,-17.3534,0.415589,0
25.6048,-17.3672,0.412972,0
25.762,-17.3775,0.410394,0
25.9191,-17.3843,0.407845,0
26.0759,-17.3876,0.405335,0
26.2324,-17.3874,0.402864,0
26.3885,-17.3838,0.400423,0
26.5443,-17.3768,0.39803,0
26.6995,-17.3665,0.395677,0
26.8542,-17.3557,0.393968,0
27.009,-17.3523,0.394427,0
27.1637,-17.345,0.394847,0
27.3182,-17.3341,0.395228,0
27.4724,-17.3194,0.395579,0
27.6263,-17.3009,0.395892,0
27.7797,-17.2787,0.396165,0
27.9326,-17.2528,0.3964,0
28.0848,-17.2232,0.396595,0
28.2362,-17.1899,0.396771,0
28.387,-17.1529,0.396888,0
28.5367,-17.1122,0.396986,0
28.6854,-17.068,0.397034,0
28.833,-17.0201,0.397044,0
28.9795,-16.9686,0.397015,0
29.1247,-16.9136,0.396956,0
29.2684,-16.8551,0.396849,0
29.4108,-16.793,0.396712,0
29.5516,-16.7276,0.396536,0
29.6906,-16.6587,0.396331,0
29.8281,-16.5865,0.396077,0
29.9637,-16.511,0.395784,0
30.0975,-16.4322,0.395462,0
30.2293,-16.3501,0.395101,0
30.3603,-16.2668,0.395159,0
30.4958,-16.1896,0.397435,0
30.6295,-16.1087,0.399632,0
30.7615,-16.0247,0.401829,0
30.8918,-15.9374,0.404027,0
31.0203,-15.8469,0.406224,0
31.1469,-15.7533,0.408421,0
31.2714,-15.6565,0.410609,0
31.3939,-15.5566,0.412796,0
31.5143,-15.4537,0.414964,0
31.6324,-15.3478,0.417132,0
31.7481,-15.2389,0.41928,0
31.8616,-15.1271,0.421419,0
31.9725,-15.0124,0.423548,0
32.0809,-14.8948,0.425667,0
32.1866,-14.7745,0.427757,0
32.2897,-14.6515,0.429847,0
32.3899,-14.5258,0.431907,0
32.4873,-14.3976,0.433948,0
32.5817,-14.2667,0.43597,0
32.6732,-14.1335,0.437972,0
32.7616,-13.9978,0.439954,0
32.8465,-13.8596,0.44182,0
32.9287,-13.7194,0.443821,0
33.0055,-13.5761,0.445286,0
33.0785,-13.4305,0.446673,0
33.148,-13.2831,0.447991,0
33.2137,-13.1337,0.449241,0
33.2757,-12.9824,0.450413,0
33.3338,-12.8295,0.451517,0
33.3881,-12.675,0.452552,0
33.4384,-12.5189,0.453499,0
33.4848,-12.3615,0.454378,0
33.527,-12.2028,0.455189,0
33.5653,-12.0428,0.455902,0
33.5995,-11.8819,0.456556,0
33.6294,-11.7199,0.457122,0
33.6552,-11.5572,0.457611,0
33.6768,-11.3937,0.458021,0
33.6985,-11.2298,0.459212,0
33.7175,-11.0654,0.460618,0
33.7322,-10.9002,0.461937,0
33.7427,-10.7346,0.463187,0
33.7489,-10.5685,0.464359,0
33.7508,-10.4022,0.465433,0
33.7483,-10.2357,0.466448,0
33.7415,-10.0691,0.467376,0
33.7303,-9.90257,0.468206,0
33.7148,-9.73626,0.468968,0
33.695,-9.57028,0.469642,0
33.6708,-9.40474,0.470228,0
33.6422,-9.23976,0.470726,0
33.6092,-9.07549,0.471146,0
33.572,-8.91202,0.471468,0
33.5375,-8.7474,0.473128,0
33.5001,-8.58306,0.475023,0
25.4233,-17.351,0.416009,0
25.5805,-17.3653,0.413382,0
25.7377,-17.3761,0.410794,0
25.8948,-17.3834,0.408236,0
26.0516,-17.3873,0.405726,0
26.2082,-17.3877,0.403245,0
26.3644,-17.3846,0.400794,0
26.5202,-17.3782,0.398402,0
26.6755,-17.3683,0.396038,0
26.8303,-17.3559,0.3939,0
26.9851,-17.353,0.394359,0
27.1398,-17.3464,0.394779,0
27.2943,-17.336,0.395169,0
27.4485,-17.3219,0.395521,0
27.6025,-17.304,0.395843,0
27.756,-17.2824,0.396126,0
27.909,-17.2571,0.396361,0
28.0612,-17.228,0.396575,0
28.2129,-17.1953,0.396741,0
28.3637,-17.1588,0.396868,0
28.5136,-17.1188,0.396966,0
28.6625,-17.075,0.397015,0
28.8102,-17.0277,0.397044,0
28.9569,-16.9768,0.397015,0
29.1023,-16.9223,0.396966,0
29.2463,-16.8643,0.396868,0
29.3888,-16.8029,0.396732,0
29.5298,-16.7379,0.396566,0
29.6692,-16.6696,0.396351,0
29.807,-16.5979,0.396116,0
29.9429,-16.5229,0.395833,0
30.077,-16.4446,0.395521,0
30.209,-16.363,0.395159,0
30.3396,-16.2791,0.394964,0
30.4749,-16.2018,0.397083,0
32.6326,-13.6985,0.438812,0
32.707,-13.5615,0.439993,0
32.7782,-13.4225,0.441116,0
32.8463,-13.2817,0.442259,0
32.9116,-13.1393,0.443499,0
32.9733,-12.9952,0.444671,0
33.0313,-12.8494,0.445775,0
33.0857,-12.7019,0.44681,0
33.1362,-12.553,0.447767,0
33.1832,-12.4027,0.448665,0
33.2262,-12.2511,0.449466,0
33.2653,-12.0983,0.450208,0
33.3005,-11.9444,0.450882,0
33.3319,-11.7896,0.451478,0
33.3591,-11.6338,0.451995,0
33.3824,-11.4773,0.452435,0
33.4028,-11.3203,0.45303,0
33.4234,-11.1629,0.454417,0
33.44,-11.0048,0.455726,0
33.4525,-10.8461,0.456976,0
33.4609,-10.687,0.458138,0
33.4652,-10.5276,0.459232,0
33.4654,-10.3679,0.460238,0
33.4615,-10.2081,0.461175,0
33.4533,-10.0483,0.462034,0
33.441,-9.88859,0.462806,0
33.4246,-9.72916,0.463509,0
33.404,-9.57007,0.464124,0
33.3792,-9.41144,0.464661,0
33.3503,-9.25341,0.465101,0
33.3173,-9.09609,0.465482,0
33.2801,-8.93958,0.465745,0
33.2437,-8.78252,0.467005,0
33.2061,-8.62535,0.468782,0
25.5145,-17.1266,0.416693,0
25.6662,-17.1399,0.414163,0
25.8178,-17.1497,0.411673,0
25.9693,-17.1562,0.409222,0
26.1205,-17.1593,0.40679,0
26.2716,-17.1591,0.404407,0
26.4223,-17.1555,0.402064,0
26.5726,-17.1487,0.399749,0
26.7224,-17.1385,0.397474,0
26.8716,-17.1251,0.395238,0
27.0203,-17.1084,0.39305,0
27.169,-17.0963,0.392493,0
27.3177,-17.0851,0.392864,0
27.4659,-17.0704,0.393196,0
27.614,-17.052,0.393489,0
27.7615,-17.03,0.393753,0
27.9085,-17.0045,0.393968,0
28.0549,-16.9754,0.394154,0
28.2005,-16.9427,0.39431,0
28.3454,-16.9065,0.394417,0
28.4893,-16.8668,0.394505,0
28.6323,-16.8237,0.394544,0
28.7741,-16.777,0.394544,0
28.9149,-16.7269,0.394515,0
29.0543,-16.6735,0.394456,0
29.1925,-16.6166,0.394349,0
29.3292,-16.5564,0.394212,0
29.4644,-16.4929,0.394036,0
29.598,-16.4262,0.393821,0
29.7301,-16.3562,0.393568,0
29.8606,-16.2836,0.393441,0
29.9915,-16.2112,0.394075,0
30.1207,-16.1358,0.39473,0
30.2483,-16.0574,0.395374,0
30.3749,-15.9772,0.396312,0
30.5036,-15.8991,0.398587,0
30.6306,-15.8179,0.400853,0
30.756,-15.7335,0.403109,0
30.8795,-15.646,0.405335,0
31.0011,-15.5553,0.407542,0
31.1208,-15.4616,0.40973,0
31.2384,-15.3649,0.411898,0
31.3538,-15.2652,0.414036,0
31.467,-15.1625,0.416146,0
31.5778,-15.057,0.418236,0
31.6862,-14.9486,0.420296,0
31.7923,-14.8374,0.422318,0
31.8957,-14.7234,0.42432,0
31.9966,-14.6068,0.426273,0
32.0947,-14.4875,0.428216,0
32.19,-14.3657,0.430111,0
32.2825,-14.2414,0.431956,0
32.372,-14.1146,0.433773,0
32.4585,-13.9854,0.43555,0
32.542,-13.854,0.437288,0
32.6207,-13.7196,0.438626,0
32.6957,-13.5828,0.439818,0
32.7674,-13.4441,0.44095,0
32.8359,-13.3035,0.442073,0
32.9017,-13.1615,0.443314,0
32.9639,-13.0176,0.444495,0
33.0226,-12.872,0.445609,0
33.0775,-12.7249,0.446654,0
33.1287,-12.5762,0.44762,0
33.1762,-12.4261,0.448519,0
33.2198,-12.2746,0.449349,0
33.2595,-12.122,0.450101,0
33.2954,-11.9683,0.450784,0
33.3273,-11.8136,0.45139,0
33.3552,-11.658,0.451917,0
33.3791,-11.5016,0.452376,0
33.3993,-11.3446,0.452806,0
33.4205,-11.1873,0.454212,0
33.4377,-11.0293,0.45553,0
33.4509,-10.8707,0.45679,0
33.4598,-10.7117,0.457962,0
33.4648,-10.5523,0.459066,0
33.4656,-10.3926,0.460081,0
33.4623,-10.2328,0.461038,0
33.4548,-10.073,0.461907,0
33.4432,-9.9133,0.462698,0
33.4274,-9.75381,0.463402,0
33.4074,-9.59466,0.464027,0
33.3834,-9.43596,0.464573,0
33.355,-9.27781,0.465032,0
33.3226,-9.1204,0.465423,0
33.2861,-8.96375,0.465716,0
33.2491,-8.80691,0.466722,0
33.2122,-8.64962,0.468509,0
25.491,-17.1243,0.417083,0
25.6427,-17.138,0.414554,0
25.7943,-17.1484,0.412054,0
25.9459,-17.1554,0.409603,0
26.0972,-17.159,0.407161,0
26.2483,-17.1593,0.404779,0
26.399,-17.1563,0.402415,0
26.5494,-17.1499,0.400101,0
26.6992,-17.1403,0.397816,0
26.8486,-17.1274,0.395579,0
26.9974,-17.1112,0.393392,0
27.1459,-17.0977,0.392445,0
27.2946,-17.0871,0.392806,0
27.443,-17.0729,0.393148,0
27.5911,-17.055,0.393441,0
27.7387,-17.0336,0.393704,0
27.8859,-17.0087,0.393929,0
28.0323,-16.9801,0.394124,0
28.178,-16.948,0.39429,0
28.323,-16.9124,0.394407,0
28.4671,-16.8732,0.394486,0
28.6102,-16.8306,0.394534,0
28.7523,-16.7845,0.394544,0
28.8932,-16.7349,0.394515,0
29.0328,-16.682,0.394466,0
29.1712,-16.6256,0.394368,0
29.3081,-16.5659,0.394232,0
29.4436,-16.503,0.394066,0
29.5775,-16.4367,0.393861,0
29.7098,-16.3672,0.393616,0
29.8402,-16.2945,0.393343,0
29.9713,-16.2226,0.393968,0
30.1008,-16.1477,0.394632,0
30.2286,-16.0698,0.395277,0
30.3548,-15.9889,0.39595,0
30.4837,-15.9114,0.398236,0
30.6111,-15.8307,0.400511,0
30.7367,-15.7468,0.402757,0
30.8605,-15.6597,0.404993,0
30.9824,-15.5696,0.4072,0
31.1024,-15.4763,0.409398,0
31.2202,-15.3801,0.411566,0
31.336,-15.2808,0.413704,0
31.4496,-15.1786,0.415823,0
31.5608,-15.0735,0.417913,0
31.6697,-14.9655,0.419974,0
31.776,-14.8548,0.422005,0
31.8798,-14.7413,0.424017,0
31.9811,-14.625,0.42598,0
32.0797,-14.5062,0.427913,0
32.1754,-14.3847,0.429818,0
32.2683,-14.2608,0.431673,0
32.3584,-14.1344,0.433499,0
32.4453,-14.0056,0.435277,0
32.5293,-13.8745,0.437015,0
32.6088,-13.7406,0.438441,0
32.6844,-13.6041,0.439632,0
32.7566,-13.4657,0.440775,0
32.8253,-13.3254,0.441868,0
32.8918,-13.1836,0.443128,0
32.9545,-13.04,0.44432,0
33.0137,-12.8947,0.445443,0
33.0692,-12.7477,0.446497,0
33.121,-12.5993,0.447474,0
33.1691,-12.4494,0.448392,0
33.2133,-12.2982,0.449232,0
33.2536,-12.1457,0.449993,0
33.2901,-11.9922,0.450687,0
33.3226,-11.8376,0.451302,0
33.3512,-11.6821,0.451839,0
33.3756,-11.5259,0.452308,0
33.3962,-11.3689,0.452698,0
33.4175,-11.2117,0.453997,0
33.4353,-11.0538,0.455325,0
33.4491,-10.8953,0.456585,0
33.4587,-10.7363,0.457786,0
33.4643,-10.577,0.4589,0
33.4658,-10.4173,0.459935,0
33.4631,-10.2576,0.460892,0
33.4562,-10.0978,0.46178,0
33.4452,-9.93803,0.462581,0
33.4301,-9.77849,0.463294,0
33.4108,-9.61927,0.463939,0
33.3873,-9.46049,0.464495,0
33.3597,-9.30226,0.464964,0
33.328,-9.14472,0.465364,0
33.292,-8.98794,0.465667,0
33.2545,-8.83134,0.466439,0
33.2181,-8.67393,0.468236,0
25.4675,-17.1218,0.417474,0
25.6192,-17.1361,0.414945,0
25.7709,-17.147,0.412445,0
25.9224,-17.1546,0.409974,0
26.0738,-17.1587,0.407542,0
26.2249,-17.1595,0.40514,0
26.3757,-17.157,0.402777,0
26.5261,-17.1511,0.400462,0
26.6761,-17.142,0.398167,0
26.8255,-17.1296,0.395931,0
26.9745,-17.1139,0.393724,0
27.1229,-17.099,0.392376,0
27.2716,-17.089,0.392757,0
27.4201,-17.0753,0.393099,0
27.5682,-17.0581,0.393402,0
27.7159,-17.0372,0.393665,0
27.863,-17.0127,0.3939,0
28.0096,-16.9847,0.394095,0
28.1555,-16.9532,0.394271,0
28.3006,-16.9181,0.394398,0
28.4449,-16.8795,0.394486,0
28.5881,-16.8374,0.394534,0
28.7303,-16.7918,0.394544,0
28.8714,-16.7428,0.394525,0
29.0113,-16.6904,0.394476,0
29.1498,-16.6346,0.394378,0
29.287,-16.5754,0.394261,0
29.4227,-16.5129,0.394095,0
29.5569,-16.4472,0.39389,0
29.6894,-16.3782,0.393665,0
29.8202,-16.306,0.393392,0
29.9512,-16.234,0.39388,0
30.0809,-16.1595,0.394525,0
30.209,-16.082,0.395179,0
30.3353,-16.0016,0.395823,0
32.4095,-13.5888,0.435296,0
32.4809,-13.4568,0.436409,0
32.5491,-13.3229,0.437493,0
32.614,-13.1872,0.438529,0
32.6756,-13.0497,0.439495,0
32.7337,-12.9106,0.440413,0
32.7884,-12.77,0.441273,0
32.8399,-12.628,0.442142,0
32.8884,-12.4847,0.44307,0
32.9331,-12.3401,0.443919,0
32.9742,-12.1943,0.4447,0
33.0116,-12.0473,0.445404,0
33.0453,-11.8994,0.446038,0
33.0752,-11.7504,0.446614,0
33.1012,-11.6007,0.447103,0
33.1234,-11.4503,0.447523,0
33.1436,-11.2993,0.448245,0
33.163,-11.148,0.449564,0
33.1786,-10.996,0.450823,0
33.1902,-10.8435,0.452015,0
33.198,-10.6905,0.453128,0
33.2019,-10.5373,0.454173,0
33.2017,-10.3838,0.45514,0
33.1977,-10.2303,0.456038,0
33.1896,-10.0767,0.456849,0
33.1775,-9.92331,0.457601,0
33.1615,-9.77013,0.458255,0
33.1415,-9.61728,0.458841,0
33.1174,-9.46492,0.459349,0
33.0895,-9.31313,0.459788,0
33.0576,-9.16201,0.46013,0
33.0216,-9.01169,0.460394,0
32.9828,-8.86197,0.460794,0
32.9447,-8.71173,0.462142,0
25.5543,-16.9123,0.418089,0
25.7008,-16.9255,0.415657,0
25.8472,-16.9354,0.413245,0
25.9936,-16.9421,0.410863,0
26.1398,-16.9455,0.408519,0
26.2857,-16.9456,0.406214,0
26.4313,-16.9426,0.403939,0
26.5766,-16.9363,0.401702,0
26.7214,-16.9269,0.399495,0
26.8657,-16.9142,0.397337,0
27.0095,-16.8985,0.395208,0
27.1526,-16.8796,0.393128,0
27.2951,-16.8577,0.391077,0
27.4378,-16.8412,0.390931,0
27.5804,-16.8234,0.391214,0
27.7226,-16.8022,0.391458,0
27.8643,-16.7776,0.391673,0
28.0052,-16.7495,0.391859,0
28.1455,-16.718,0.392005,0
28.2852,-16.6831,0.392112,0
28.4237,-16.6448,0.392191,0
28.5616,-16.6032,0.39223,0
28.6982,-16.5582,0.39223,0
28.8337,-16.5099,0.3922,0
28.9682,-16.4584,0.392142,0
29.1013,-16.4036,0.392044,0
29.233,-16.3456,0.391898,0
29.3635,-16.2849,0.391868,0
29.4941,-16.2239,0.392464,0
29.6232,-16.16,0.393079,0
29.751,-16.0929,0.393695,0
29.8772,-16.023,0.39432,0
30.0019,-15.9501,0.394935,0
30.1249,-15.8743,0.39557,0
30.2463,-15.7956,0.396195,0
30.3663,-15.7147,0.396995,0
30.4886,-15.6361,0.399183,0
30.6091,-15.5544,0.401351,0
30.7279,-15.4697,0.403489,0
30.8448,-15.382,0.405618,0
30.9598,-15.2914,0.407718,0
31.0728,-15.1979,0.409808,0
31.1838,-15.1015,0.411868,0
31.2924,-15.0023,0.4139,0
31.399,-14.9003,0.415902,0
31.5031,-14.7956,0.417884,0
31.6049,-14.6882,0.419827,0
31.7043,-14.5782,0.421751,0
31.801,-14.4656,0.423636,0
31.8952,-14.3505,0.425491,0
31.9866,-14.233,0.427308,0
32.0754,-14.113,0.429095,0
32.1613,-13.9907,0.430833,0
32.2442,-13.8662,0.432542,0
32.323,-13.7388,0.433919,0
32.3981,-13.6091,0.435111,0
32.4701,-13.4774,0.436243,0
32.5387,-13.3437,0.437327,0
32.6042,-13.2083,0.438362,0
32.6662,-13.0711,0.439349,0
32.725,-12.9323,0.440277,0
32.7802,-12.7919,0.441146,0
32.8321,-12.65,0.441995,0
32.8811,-12.507,0.442923,0
32.9265,-12.3626,0.443782,0
32.9681,-12.217,0.444583,0
33.0062,-12.0702,0.445296,0
