63.729,-47.8092,-1.82268,0
63.681,-47.6285,-1.81874,0
63.6289,-47.4488,-1.81426,0
63.5748,-47.2696,-1.80916,0
63.5267,-47.0877,-1.80305,0
63.4747,-46.9064,-1.79638,0
63.4186,-46.7258,-1.78914,0
63.3584,-46.5462,-1.78134,0
63.2943,-46.3674,-1.77298,0
63.2261,-46.1898,-1.76406,0
63.1538,-46.0132,-1.75456,0
63.0979,-45.8262,-1.74337,0
63.0515,-45.631,-1.73073,0
63.0002,-45.4355,-1.71742,0
62.9152,-45.2594,-1.70527,0
62.8223,-45.0873,-1.69278,0
62.7248,-44.9173,-1.67977,0
62.6227,-44.7496,-1.66622,0
62.5161,-44.5844,-1.65218,0
62.406,-44.4208,-1.63755,0
62.2923,-44.2591,-1.62234,0
62.1741,-44.1002,-1.60665,0
62.0517,-43.9441,-1.59044,0
61.925,-43.791,-1.57377,0
61.7941,-43.641,-1.55661,0
60.0591,-45.2808,-1.70693,174
59.9558,-45.1792,-1.69404,174
59.8646,-45.0623,-1.67912,174
59.7985,-44.9106,-1.66026,174
61.1448,-42.855,-1.45556,0
61.0042,-42.7029,-1.43337,0
60.8586,-42.5547,-1.41073,0
60.5211,-42.7016,-1.41686,174
60.3913,-42.5354,-1.39102,174
59.0791,-44.3972,-1.57317,174
58.8631,-44.4833,-1.57454,174
58.6878,-44.5089,-1.56939,174
58.453,-44.6659,-1.57807,174
62.1651,-58.5928,-1.04236,0
62.382,-58.4778,-1.0653,0
62.5793,-58.3357,-1.09085,0
62.7115,-58.1163,-1.12529,0
62.8247,-57.8812,-1.16071,0
62.9362,-57.651,-1.19449,0
63.0402,-57.4189,-1.22752,0
63.1364,-57.1854,-1.25977,0
63.2253,-56.9508,-1.29122,0
63.3068,-56.7154,-1.32187,0
63.3811,-56.4795,-1.35167,0
63.4482,-56.2434,-1.38064,0
63.5084,-56.0075,-1.40876,0
63.5686,-55.7772,-1.43537,0
63.6473,-55.5648,-1.45895,0
61.8888,-54.1196,-1.63723,174
63.7867,-55.1374,-1.50406,0
62.9946,-54.4037,-1.59217,174
63.119,-54.2553,-1.60515,174
63.2667,-54.118,-1.61589,174
63.9948,-54.2785,-1.58603,0
64.0359,-54.0656,-1.60455,0
64.0714,-53.8531,-1.62239,0
64.1016,-53.6409,-1.63952,0
64.1265,-53.4294,-1.65597,0
64.1434,-53.2176,-1.67189,0
64.1537,-53.0063,-1.68719,0
64.159,-52.7963,-1.70179,0
64.1594,-52.5876,-1.71569,0
64.1549,-52.3804,-1.7289,0
64.1459,-52.1748,-1.74143,0
64.1321,-51.971,-1.75327,0
64.1138,-51.7689,-1.76445,0
64.1033,-51.571,-1.7744,0
64.093,-51.3753,-1.78352,0
64.0787,-51.1809,-1.79202,0
64.0603,-50.9879,-1.7999,0
64.055,-50.7979,-1.80645,0
64.0664,-50.6102,-1.81156,0
64.0738,-50.4223,-1.81614,0
64.0771,-50.2344,-1.82016,0
64.0764,-50.0466,-1.82362,0
64.0717,-49.8589,-1.82653,0
64.0629,-49.6713,-1.8289,0
64.0502,-49.4841,-1.83072,0
64.0325,-49.2974,-1.83201,0
64.0041,-49.1118,-1.83302,0
63.9716,-48.9272,-1.83348,0
63.9352,-48.7435,-1.8334,0
63.8947,-48.5609,-1.83276,0
63.8526,-48.379,-1.83151,0
63.8174,-48.1958,-1.82926,0
63.778,-48.0132,-1.82646,0
63.7346,-47.8315,-1.82313,0
63.6871,-47.6507,-1.81926,0
63.6355,-47.471,-1.81486,0
63.5804,-47.2921,-1.80987,0
63.5329,-47.1101,-1.80383,0
63.4813,-46.9287,-1.79723,0
63.4257,-46.7481,-1.79007,0
63.3661,-46.5683,-1.78234,0
63.3024,-46.3895,-1.77405,0
63.2348,-46.2116,-1.76519,0
63.163,-46.0349,-1.75576,0
63.1033,-45.8502,-1.74488,0
63.0574,-45.6551,-1.73233,0
63.0068,-45.4597,-1.71911,0
62.9263,-45.2808,-1.70679,0
62.8341,-45.1085,-1.69435,0
62.7371,-44.9382,-1.6814,0
62.6356,-44.7702,-1.66793,0
62.5295,-44.6046,-1.65395,0
62.4198,-44.4409,-1.63939,0
62.3066,-44.2789,-1.62425,0
62.189,-44.1197,-1.6086,0
62.0671,-43.9632,-1.59247,0
61.9409,-43.8097,-1.57585,0
61.8105,-43.6594,-1.55876,0
60.0777,-45.2867,-1.70786,174
59.9675,-45.193,-1.69578,174
59.8756,-45.0771,-1.68103,174
59.8026,-44.9348,-1.66315,174
61.1618,-42.874,-1.45826,0
61.0218,-42.7215,-1.43614,0
60.8769,-42.5728,-1.41355,0
60.5461,-42.7078,-1.41856,174
60.4011,-42.5663,-1.39531,174
59.1074,-44.3849,-1.57282,174
58.8864,-44.4778,-1.57492,174
58.7083,-44.5074,-1.57022,174
58.4724,-44.6645,-1.57891,174
61.747,-57.9236,-1.05948,0
61.9198,-57.7812,-1.08521,0
62.0859,-57.6309,-1.11112,0
62.2447,-57.4731,-1.13716,0
62.3961,-57.3081,-1.16325,0
62.5218,-57.1173,-1.19195,0
62.6213,-56.9035,-1.22283,0
62.714,-56.6883,-1.25302,0
62.7998,-56.4718,-1.28251,0
62.8787,-56.2545,-1.31124,0
62.9512,-56.0365,-1.33924,0
63.0177,-55.8187,-1.3664,0
63.1048,-55.6216,-1.38997,0
63.1862,-55.4231,-1.41292,0
63.2619,-55.2234,-1.43528,0
61.9031,-54.0746,-1.58921,174
63.3976,-54.8224,-1.47799,0
62.9935,-54.3426,-1.53807,174
63.1186,-54.1953,-1.55051,174
63.5657,-54.2202,-1.5368,0
63.6111,-54.019,-1.55513,0
63.6513,-53.8178,-1.57281,0
63.6863,-53.6169,-1.58984,0
63.7163,-53.4162,-1.60622,0
63.7386,-53.215,-1.62214,0
63.7548,-53.0141,-1.63747,0
63.766,-52.8142,-1.65214,0
63.7726,-52.6153,-1.66615,0
63.7745,-52.4177,-1.6795,0
63.7718,-52.2213,-1.69221,0
63.767,-52.027,-1.70414,0
63.7699,-51.8368,-1.71477,0
63.7687,-51.6476,-1.72479,0
63.7636,-51.4595,-1.73419,0
63.7544,-51.2725,-1.743,0
63.7413,-51.0867,-1.75121,0
63.7245,-50.9022,-1.75883,0
63.7347,-50.7217,-1.76435,0
63.7448,-50.5414,-1.76916,0
63.7511,-50.3611,-1.77342,0
63.7535,-50.1807,-1.77716,0
63.752,-50.0004,-1.78038,0
63.7466,-49.8202,-1.78308,0
63.7374,-49.6403,-1.78523,0
63.7183,-49.461,-1.78713,0
63.6944,-49.2825,-1.78855,0
63.6666,-49.1048,-1.78942,0
63.6348,-48.928,-1.78979,0
63.5992,-48.752,-1.78963,0
63.5598,-48.5772,-1.78894,0
63.5172,-48.4033,-1.78771,0
63.4823,-48.2278,-1.7854,0
63.4434,-48.0531,-1.78258,0
63.4007,-47.8792,-1.77924,0
63.354,-47.7063,-1.77536,0
63.3057,-47.5336,-1.77088,0
63.2623,-47.3587,-1.7654,0
63.2152,-47.1844,-1.75938,0
63.164,-47.0108,-1.75282,0
63.1091,-46.838,-1.74572,0
63.0502,-46.6661,-1.73809,0
62.9876,-46.4951,-1.7299,0
62.921,-46.3251,-1.72118,0
62.8506,-46.1563,-1.71192,0
62.7763,-45.9887,-1.70212,0
62.7204,-45.8089,-1.69029,0
62.6541,-45.6332,-1.67828,0
62.5688,-45.4683,-1.66674,0
62.4791,-45.3053,-1.65468,0
62.3865,-45.1433,-1.64205,0
62.2896,-44.9833,-1.6289,0
62.1885,-44.8256,-1.61526,0
62.0833,-44.6701,-1.60113,0
61.9737,-44.5172,-1.58652,0
61.8601,-44.3669,-1.57143,0
61.7424,-44.2193,-1.55589,0
61.6207,-44.0746,-1.53989,0
60.2324,-45.2861,-1.66326,174
60.0458,-45.2746,-1.66012,174
59.942,-45.174,-1.6472,174
59.8504,-45.0576,-1.63203,174
59.7904,-44.8983,-1.61173,174
60.8335,-43.2429,-1.43165,0
60.6991,-43.1018,-1.41058,0
60.5602,-42.9643,-1.3891,0
60.4166,-42.8307,-1.36721,0
60.2688,-42.7013,-1.34494,0
59.0575,-44.4075,-1.52651,174
58.8405,-44.4973,-1.52957,174
58.5951,-44.6598,-1.54077,174
58.4261,-44.6929,-1.53709,174
61.7252,-57.9406,-1.05632,0
61.8988,-57.7992,-1.08203,0
62.0657,-57.6499,-1.10791,0
62.2255,-57.493,-1.13393,0
62.3778,-57.3288,-1.16003,0
62.509,-57.1436,-1.18808,0
62.6094,-56.93,-1.21906,0
62.7029,-56.7149,-1.24934,0
62.7895,-56.4986,-1.2789,0
62.8695,-56.2814,-1.30773,0
62.9426,-56.0634,-1.33582,0
63.0092,-55.8451,-1.36316,0
63.0944,-55.646,-1.38709,0
63.1765,-55.4477,-1.41012,0
63.2528,-55.2481,-1.43255,0
61.8874,-54.0887,-1.58789,174
63.3896,-54.8471,-1.47544,0
62.9868,-54.3659,-1.53574,174
63.0957,-54.2093,-1.54962,174
63.5598,-54.245,-1.5345,0
63.6059,-54.0438,-1.55291,0
63.6466,-53.8427,-1.57067,0
63.6823,-53.6417,-1.58778,0
63.7129,-53.441,-1.60424,0
63.7362,-53.2399,-1.62019,0
63.753,-53.0389,-1.63561,0
63.7649,-52.8388,-1.65036,0
63.7721,-52.6398,-1.66446,0
63.7745,-52.442,-1.6779,0
63.7724,-52.2455,-1.69068,0
63.7662,-52.0505,-1.70279,0
63.7698,-51.8603,-1.71349,0
63.7691,-51.671,-1.72358,0
63.7644,-51.4827,-1.73306,0
63.7557,-51.2955,-1.74195,0
63.7431,-51.1096,-1.75023,0
63.7267,-50.9249,-1.75793,0
63.7332,-50.7439,-1.76372,0
63.7438,-50.5637,-1.76859,0
63.7506,-50.3834,-1.77292,0
63.7534,-50.203,-1.77674,0
63.7524,-50.0227,-1.78001,0
63.7475,-49.8425,-1.78277,0
63.7387,-49.6625,-1.78499,0
63.7209,-49.4831,-1.78692,0
63.6975,-49.3046,-1.7884,0
63.6702,-49.1267,-1.78935,0
63.6389,-48.9498,-1.78977,0
63.6038,-48.7737,-1.78967,0
63.5648,-48.5987,-1.78905,0
63.5221,-48.4248,-1.78791,0
63.4868,-48.2494,-1.78571,0
63.4484,-48.0747,-1.78295,0
63.4062,-47.9007,-1.77967,0
63.36,-47.7276,-1.77588,0
63.3107,-47.5552,-1.77152,0
63.2678,-47.3803,-1.76611,0
63.2212,-47.2059,-1.76016,0
63.1705,-47.0322,-1.75366,0
63.1161,-46.8593,-1.74662,0
63.0577,-46.6872,-1.73906,0
62.9955,-46.5161,-1.73094,0
62.9295,-46.3461,-1.72229,0
62.8595,-46.1771,-1.71309,0
62.7858,-46.0093,-1.70336,0
62.7264,-45.8318,-1.69186,0
62.6644,-45.6538,-1.67966,0
62.5796,-45.4886,-1.66819,0
62.4904,-45.3253,-1.6562,0
62.3981,-45.1632,-1.64364,0
62.3019,-45.003,-1.63055,0
62.2012,-44.8449,-1.61697,0
62.0965,-44.6892,-1.60289,0
61.9875,-44.536,-1.58835,0
61.8744,-44.3853,-1.57332,0
61.7572,-44.2374,-1.55784,0
61.636,-44.0923,-1.5419,0
61.5109,-43.9503,-1.52551,0
60.0615,-45.2838,-1.66134,174
59.9537,-45.1878,-1.64896,174
59.8615,-45.0724,-1.63399,174
59.7945,-44.9225,-1.61476,174
60.8498,-43.2606,-1.43423,0
60.7159,-43.119,-1.41321,0
60.5776,-42.981,-1.39177,0
60.4346,-42.847,-1.36995,0
60.2873,-42.717,-1.34772,0
59.0857,-44.3953,-1.52599,174
58.8639,-44.4915,-1.5298,174
58.6209,-44.647,-1.54021,174
58.4419,-44.6986,-1.53868,174
61.7033,-57.9575,-1.05317,0
61.8777,-57.8171,-1.07884,0
62.0455,-57.6687,-1.1047,0
62.2061,-57.5127,-1.13071,0
62.3594,-57.3495,-1.1568,0
62.4961,-57.1698,-1.18421,0
62.5973,-56.9565,-1.21527,0
62.6917,-56.7416,-1.24564,0
62.7792,-56.5254,-1.27529,0
62.8599,-56.3082,-1.30421,0
62.9339,-56.0904,-1.3324,0
63.0013,-55.8721,-1.35983,0
63.0838,-55.6704,-1.3842,0
63.1666,-55.4722,-1.40731,0
63.2437,-55.2728,-1.42982,0
61.8717,-54.1028,-1.58657,174
62.0465,-54.0181,-1.59281,174
62.9896,-54.3951,-1.53257,174
63.0728,-54.2233,-1.54872,174
63.5537,-54.2699,-1.53218,0
63.6004,-54.0687,-1.55067,0
63.6419,-53.8675,-1.5685,0
63.6782,-53.6665,-1.5857,0
63.7094,-53.4658,-1.60223,0
63.7338,-53.2648,-1.61825,0
63.7512,-53.0637,-1.63375,0
63.7637,-52.8635,-1.64858,0
63.7714,-52.6644,-1.66275,0
63.7745,-52.4664,-1.67627,0
63.7729,-52.2697,-1.68914,0
63.7668,-52.0744,-1.70136,0
63.7695,-51.8837,-1.7122,0
63.7694,-51.6943,-1.72237,0
63.7652,-51.5059,-1.73192,0
63.757,-51.3186,-1.74088,0
63.7448,-51.1325,-1.74924,0
63.729,-50.9476,-1.757,0
63.7316,-50.7662,-1.76308,0
63.7427,-50.586,-1.76801,0
63.7499,-50.4056,-1.77242,0
63.7533,-50.2253,-1.7763,0
63.7527,-50.0449,-1.77964,0
63.7484,-49.8647,-1.78245,0
63.7401,-49.6847,-1.78474,0
63.7235,-49.5053,-1.7867,0
63.7006,-49.3266,-1.78824,0
63.6737,-49.1487,-1.78926,0
63.643,-48.9716,-1.78975,0
63.6084,-48.7954,-1.78972,0
63.5698,-48.6203,-1.78915,0
63.5276,-48.4462,-1.78808,0
63.4912,-48.2711,-1.78602,0
63.4534,-48.0962,-1.78333,0
63.4116,-47.9221,-1.7801,0
63.3659,-47.7489,-1.77638,0
63.3163,-47.5767,-1.77212,0
63.2734,-47.4018,-1.7668,0
63.2271,-47.2274,-1.76092,0
63.177,-47.0536,-1.75449,0
63.123,-46.8806,-1.74753,0
63.0652,-46.7085,-1.74002,0
63.0034,-46.5372,-1.73197,0
62.9378,-46.367,-1.72339,0
62.8684,-46.1979,-1.71426,0
62.795,-46.03,-1.70459,0
62.7323,-45.8546,-1.69341,0
62.6744,-45.6743,-1.68105,0
62.5903,-45.5089,-1.66964,0
62.5016,-45.3454,-1.65772,0
62.4098,-45.1832,-1.64523,0
62.314,-45.0227,-1.63219,0
62.2139,-44.8643,-1.61867,0
62.1097,-44.7083,-1.60466,0
62.0012,-44.5547,-1.59017,0
61.8886,-44.4038,-1.5752,0
61.7719,-44.2555,-1.55978,0
61.6512,-44.1101,-1.54389,0
61.5266,-43.9677,-1.52757,0
60.0772,-45.293,-1.66256,174
59.9653,-45.2015,-1.65072,174
59.8725,-45.0872,-1.63593,174
59.7986,-44.9467,-1.61776,174
60.866,-43.2784,-1.43679,0
60.7328,-43.1363,-1.41583,0
60.5948,-42.9979,-1.39445,0
60.4524,-42.8633,-1.37266,0
60.3056,-42.7328,-1.35049,0
59.114,-44.383,-1.52546,174
58.8905,-44.4799,-1.52937,174
58.6485,-44.631,-1.53929,174
58.46,-44.6996,-1.53973,174
61.2867,-57.2999,-1.07978,0
61.4464,-57.1693,-1.10346,0
61.6001,-57.0317,-1.1273,0
61.7474,-56.8874,-1.15126,0
61.888,-56.7367,-1.17529,0
62.022,-56.58,-1.19932,0
62.149,-56.4177,-1.22333,0
62.2687,-56.25,-1.24726,0
62.381,-56.0775,-1.27106,0
62.4819,-55.8969,-1.29521,0
62.5692,-55.7075,-1.31985,0
62.6609,-55.5248,-1.34271,0
62.7473,-55.3406,-1.36503,0
62.8287,-55.1549,-1.38679,0
61.8049,-54.2027,-1.52345,174
61.8985,-54.0663,-1.53746,174
63.0411,-54.5914,-1.44863,0
62.9883,-54.334,-1.47871,174
63.0795,-54.1677,-1.49395,174
63.2074,-54.0216,-1.50519,0
63.2528,-53.831,-1.52284,0
63.2933,-53.6403,-1.53988,0
63.3288,-53.4497,-1.55633,0
63.3579,-53.2586,-1.57228,0
63.3803,-53.0672,-1.58777,0
63.398,-52.8765,-1.60262,0
63.4112,-52.6865,-1.61686,0
63.4198,-52.4975,-1.63046,0
63.43,-52.3113,-1.64305,0
63.4423,-52.1278,-1.65461,0
63.4509,-51.9449,-1.66557,0
63.4552,-51.7629,-1.67596,0
63.4555,-51.5816,-1.68576,0
63.4521,-51.4013,-1.69498,0
63.4448,-51.2221,-1.70362,0
63.4338,-51.0438,-1.71169,0
63.4218,-50.8671,-1.71904,0
63.4355,-50.694,-1.72418,0
63.4454,-50.5208,-1.72882,0
63.4515,-50.3474,-1.73294,0
63.4539,-50.174,-1.73656,0
63.4526,-50.0006,-1.73966,0
63.4448,-49.8275,-1.74241,0
63.4298,-49.6548,-1.74483,0
63.4109,-49.4827,-1.74674,0
63.3883,-49.3113,-1.74814,0
63.3619,-49.1406,-1.74903,0
63.3318,-48.9706,-1.74943,0
63.2979,-48.8017,-1.7493,0
63.2604,-48.6336,-1.74869,0
63.2191,-48.4667,-1.74757,0
63.1818,-48.299,-1.74554,0
63.1443,-48.1314,-1.74281,0
63.1032,-47.9645,-1.73958,0
63.0595,-47.7982,-1.73578,0
63.0209,-47.6297,-1.73096,0
62.9787,-47.4618,-1.72562,0
62.9327,-47.2946,-1.71975,0
62.8831,-47.128,-1.71337,0
62.8297,-46.9622,-1.70646,0
62.7727,-46.7973,-1.69904,0
62.7119,-46.6333,-1.69111,0
62.6473,-46.4703,-1.68264,0
62.5791,-46.3085,-1.67366,0
62.5073,-46.1479,-1.66417,0
62.4298,-45.9896,-1.65429,0
62.3479,-45.8334,-1.64396,0
62.2672,-45.6756,-1.63277,0
62.1823,-45.5195,-1.62109,0
62.0933,-45.3654,-1.60892,0
62.0002,-45.2132,-1.5963,0
61.903,-45.0632,-1.5832,0
61.8019,-44.9155,-1.56964,0
61.6969,-44.7701,-1.55564,0
61.5879,-44.6273,-1.54119,0
61.4751,-44.4871,-1.52631,0
61.3585,-44.3496,-1.511,0
60.2344,-45.2896,-1.61687,174
60.0546,-45.2705,-1.61371,174
59.9398,-45.1825,-1.60216,174
59.8474,-45.0677,-1.58696,174
59.7863,-44.9104,-1.56624,174
60.5835,-43.5893,-1.41065,0
60.4425,-43.4744,-1.39262,0
60.3096,-43.3465,-1.3723,0
60.173,-43.2216,-1.35154,0
60.0323,-43.1007,-1.33043,0
59.0641,-44.4056,-1.47937,174
58.8437,-44.5012,-1.48446,174
58.5832,-44.6925,-1.50104,174
58.4222,-44.7112,-1.49638,174
61.2666,-57.3155,-1.07688,0
61.427,-57.1858,-1.10053,0
61.5814,-57.049,-1.12436,0
61.7295,-56.9056,-1.1483,0
61.871,-56.7557,-1.17231,0
62.0059,-56.5997,-1.19635,0
62.1337,-56.438,-1.22037,0
62.2543,-56.271,-1.24431,0
62.3675,-56.099,-1.26814,0
62.4727,-55.9219,-1.29188,0
62.5575,-55.73,-1.31699,0
62.6499,-55.5475,-1.33991,0
62.737,-55.3634,-1.36231,0
62.8188,-55.1779,-1.38413,0
61.8273,-54.2433,-1.51809,174
61.8829,-54.0804,-1.53619,174
62.0518,-53.9918,-1.54222,174
62.9909,-54.3629,-1.47546,174
63.056,-54.1813,-1.49323,174
63.2016,-54.0451,-1.50297,0
63.2476,-53.8545,-1.52069,0
63.2886,-53.6638,-1.53781,0
63.3248,-53.4732,-1.55432,0
63.3548,-53.2822,-1.57033,0
63.3778,-53.0908,-1.58589,0
63.3961,-52.9,-1.60082,0
63.4098,-52.7099,-1.61512,0
63.4189,-52.5208,-1.62881,0
63.4281,-52.334,-1.64157,0
63.4411,-52.1504,-1.6532,0
63.45,-51.9675,-1.66425,0
63.4548,-51.7853,-1.6747,0
63.4557,-51.604,-1.68457,0
63.4528,-51.4235,-1.69387,0
63.4459,-51.2441,-1.70258,0
63.4353,-51.0658,-1.71073,0
63.4209,-50.8886,-1.71831,0
63.4339,-50.7154,-1.72358,0
63.4444,-50.5422,-1.72827,0
63.4509,-50.3688,-1.73246,0
63.4538,-50.1954,-1.73614,0
63.453,-50.022,-1.73931,0
63.4465,-49.8488,-1.74208,0
63.4318,-49.6761,-1.74456,0
63.4135,-49.5039,-1.74653,0
63.3913,-49.3324,-1.74799,0
63.3654,-49.1616,-1.74895,0
63.3357,-48.9916,-1.74941,0
63.3023,-48.8225,-1.74935,0
63.2652,-48.6543,-1.7488,0
63.2244,-48.4872,-1.74774,0
63.1862,-48.3198,-1.74585,0
63.1491,-48.152,-1.74318,0
63.1084,-47.9851,-1.74001,0
63.064,-47.819,-1.73633,0
63.0259,-47.6505,-1.73158,0
62.9841,-47.4825,-1.72631,0
62.9387,-47.3152,-1.7205,0
62.8895,-47.1485,-1.71419,0
62.8366,-46.9826,-1.70735,0
62.7798,-46.8176,-1.69999,0
62.7195,-46.6535,-1.69211,0
62.6555,-46.4904,-1.68371,0
62.5877,-46.3284,-1.6748,0
62.5162,-46.1676,-1.66537,0
62.4398,-46.009,-1.65552,0
62.3577,-45.853,-1.64532,0
62.2774,-45.695,-1.63417,0
62.193,-45.5387,-1.62256,0
62.1045,-45.3843,-1.61045,0
62.0119,-45.2319,-1.59788,0
61.9153,-45.0816,-1.58484,0
61.8146,-44.9336,-1.57134,0
61.7101,-44.788,-1.5574,0
61.6016,-44.6448,-1.543,0
61.4892,-44.5043,-1.52817,0
61.3731,-44.3665,-1.51292,0
60.2728,-45.2752,-1.61532,174
60.0703,-45.2797,-1.61491,174
59.9515,-45.1963,-1.60395,174
59.8584,-45.0825,-1.58894,174
59.7905,-44.9345,-1.56937,174
60.6007,-43.6038,-1.41286,0
60.4601,-43.4884,-1.39487,0
60.3262,-43.3621,-1.37484,0
60.1901,-43.2368,-1.35412,0
60.0499,-43.1154,-1.33305,0
59.0922,-44.3934,-1.47868,174
58.8702,-44.4897,-1.48388,174
58.6066,-44.6841,-1.50085,174
58.4381,-44.7164,-1.4979,174
61.2464,-57.331,-1.07397,0
61.4075,-57.2022,-1.0976,0
61.5627,-57.0663,-1.1214,0
61.7116,-56.9236,-1.14534,0
61.8539,-56.7745,-1.16935,0
61.9895,-56.6193,-1.19339,0
62.1183,-56.4583,-1.2174,0
62.2398,-56.2919,-1.24135,0
62.354,-56.1205,-1.2652,0
62.4607,-55.9446,-1.28887,0
62.5459,-55.7525,-1.31411,0
62.6388,-55.5701,-1.33712,0
62.7266,-55.3862,-1.35957,0
62.8091,-55.2009,-1.38146,0
62.8863,-55.0143,-1.40279,0
61.8682,-54.0952,-1.5348,174
62.0191,-53.9955,-1.54265,174
62.9974,-54.3943,-1.47183,174
63.0334,-54.1952,-1.49242,174
63.1955,-54.0686,-1.50073,0
63.2421,-53.8781,-1.51853,0
63.2837,-53.6874,-1.53573,0
63.3205,-53.4968,-1.55232,0
63.3516,-53.3059,-1.56837,0
63.3752,-53.1144,-1.584,0
63.3941,-52.9235,-1.59901,0
63.4084,-52.7334,-1.6134,0
63.418,-52.5441,-1.62716,0
63.4263,-52.3568,-1.64009,0
63.4398,-52.1731,-1.6518,0
63.4491,-51.99,-1.66291,0
63.4545,-51.8078,-1.67344,0
63.4559,-51.6263,-1.68339,0
63.4533,-51.4458,-1.69275,0
63.447,-51.2662,-1.70154,0
63.4369,-51.0878,-1.70975,0
63.423,-50.9104,-1.7174,0
63.4324,-50.7368,-1.72296,0
63.4433,-50.5636,-1.72772,0
63.4504,-50.3902,-1.73196,0
63.4537,-50.2168,-1.73571,0
63.4532,-50.0434,-1.73895,0
63.448,-49.8702,-1.74173,0
63.4338,-49.6974,-1.74427,0
63.4159,-49.5252,-1.74631,0
63.3943,-49.3536,-1.74784,0
63.3688,-49.1827,-1.74886,0
63.3395,-49.0125,-1.74938,0
63.3066,-48.8433,-1.74938,0
63.2699,-48.675,-1.74889,0
63.2297,-48.5078,-1.7479,0
63.1905,-48.3406,-1.74614,0
63.154,-48.1727,-1.74353,0
63.1138,-48.0057,-1.74043,0
63.0697,-47.8394,-1.73682,0
63.0308,-47.6713,-1.73219,0
62.9895,-47.5033,-1.72698,0
62.9445,-47.3358,-1.72125,0
62.8958,-47.1691,-1.71499,0
62.8433,-47.0031,-1.70821,0
62.7871,-46.8379,-1.70093,0
62.7273,-46.6737,-1.69311,0
62.6636,-46.5105,-1.68478,0
62.5962,-46.3484,-1.67593,0
62.5253,-46.1874,-1.66656,0
62.4497,-46.0283,-1.65674,0
62.3673,-45.8726,-1.64666,0
62.2875,-45.7144,-1.63557,0
62.2036,-45.5579,-1.62401,0
62.1156,-45.4033,-1.61197,0
62.0236,-45.2506,-1.59945,0
61.9274,-45.1001,-1.58648,0
61.8273,-44.9518,-1.57303,0
61.7232,-44.8058,-1.55915,0
61.6152,-44.6623,-1.54481,0
61.5034,-44.5215,-1.53003,0
61.3877,-44.3833,-1.51482,0
61.2683,-44.248,-1.49919,0
60.086,-45.2889,-1.6161,174
59.9631,-45.21,-1.60573,174
59.8694,-45.0973,-1.59091,174
59.7946,-44.9585,-1.57248,174
60.6179,-43.6183,-1.41506,0
60.4777,-43.5024,-1.39711,0
60.3427,-43.3779,-1.37737,0
60.2071,-43.2521,-1.35671,0
60.0674,-43.1302,-1.33568,0
59.1206,-44.3811,-1.47797,174
58.8969,-44.4781,-1.48329,174
58.634,-44.6684,-1.49976,174
58.4552,-44.7193,-1.49913,174
60.9642,-56.8606,-1.08233,0
61.1114,-56.7343,-1.10521,0
61.2543,-56.6034,-1.12795,0
61.3929,-56.4682,-1.15052,0
61.527,-56.3288,-1.1729,0
61.6563,-56.1854,-1.19506,0
61.781,-56.0383,-1.21699,0
61.9009,-55.8875,-1.23865,0
62.0157,-55.7334,-1.26002,0
62.1255,-55.576,-1.2811,0
62.2304,-55.4156,-1.30184,0
62.33,-55.2524,-1.32224,0
62.4244,-55.0866,-1.34228,0
62.5087,-54.9149,-1.36251,0
61.8072,-54.1989,-1.47103,174
61.8948,-54.0586,-1.48569,174
62.0791,-53.9795,-1.48937,174
62.776,-54.2014,-1.44061,0
62.8308,-54.0211,-1.45876,0
62.8807,-53.8404,-1.47635,0
62.9259,-53.6594,-1.49337,0
62.9664,-53.4782,-1.50982,0
63.0012,-53.2965,-1.52578,0
63.0293,-53.1141,-1.54135,0
63.0528,-52.932,-1.55635,0
63.0719,-52.7505,-1.57074,0
63.0972,-52.5735,-1.5837,0
63.1185,-52.3966,-1.59611,0
63.1358,-52.2203,-1.60794,0
63.1491,-52.0444,-1.61922,0
63.1586,-51.8691,-1.62992,0
63.1641,-51.6945,-1.64006,0
63.1659,-51.5206,-1.64966,0
63.1639,-51.3475,-1.65868,0
63.1583,-51.1754,-1.66716,0
63.1489,-51.0042,-1.6751,0
63.1445,-50.835,-1.68194,0
63.1577,-50.6684,-1.68691,0
63.1674,-50.5016,-1.69138,0
63.1734,-50.3346,-1.69537,0
63.1755,-50.1677,-1.69889,0
63.1688,-50.0008,-1.70224,0
63.1584,-49.8343,-1.70509,0
63.1442,-49.6683,-1.70746,0
63.1264,-49.5028,-1.70934,0
63.1049,-49.3378,-1.71073,0
63.0798,-49.1736,-1.71162,0
63.0512,-49.0102,-1.71204,0
63.0188,-48.8476,-1.71196,0
62.983,-48.6859,-1.71141,0
62.9436,-48.5252,-1.71038,0
62.9037,-48.3649,-1.70867,0
62.8677,-48.2038,-1.70603,0
62.8284,-48.0433,-1.70286,0
62.7945,-47.8808,-1.69865,0
62.7569,-47.7189,-1.69393,0
62.7157,-47.5575,-1.68872,0
62.671,-47.3967,-1.68301,0
62.6227,-47.2366,-1.67679,0
62.5709,-47.0773,-1.67008,0
62.5154,-46.9189,-1.66287,0
62.4557,-46.7617,-1.6552,0
62.3903,-46.6067,-1.64721,0
62.3212,-46.453,-1.63874,0
62.2484,-46.3008,-1.62979,0
62.1681,-46.1525,-1.62071,0
62.0781,-46.0099,-1.6117,0
61.9926,-45.8643,-1.60156,0
61.9108,-45.7155,-1.59031,0
61.825,-45.5685,-1.57861,0
61.7354,-45.4235,-1.56646,0
61.6419,-45.2806,-1.55389,0
61.5447,-45.1398,-1.54086,0
61.4437,-45.0014,-1.52741,0
61.3391,-44.8653,-1.51355,0
61.2308,-44.7318,-1.49927,0
61.1189,-44.6009,-1.48458,0
60.2417,-45.2872,-1.56972,174
60.0634,-45.2663,-1.56711,174
59.9377,-45.1911,-1.55719,174
59.8443,-45.0779,-1.54196,174
59.7846,-44.9193,-1.52048,174
60.3762,-43.8772,-1.38848,0
60.2412,-43.7679,-1.37122,0
60.1034,-43.662,-1.35365,0
59.9629,-43.5591,-1.33568,0
59.822,-43.4562,-1.31695,0
59.0707,-44.4037,-1.4321,174
58.85,-44.4994,-1.43857,174
58.5715,-44.7249,-1.4617,174
58.4186,-44.7289,-1.45578,174
60.9458,-56.8759,-1.0795,0
61.0935,-56.7501,-1.10239,0
61.2369,-56.6198,-1.12515,0
61.376,-56.4851,-1.14775,0
61.5105,-56.3462,-1.17015,0
61.6405,-56.2033,-1.19234,0
61.7659,-56.0566,-1.21429,0
61.8862,-55.9063,-1.23598,0
62.0018,-55.7526,-1.25739,0
62.1123,-55.5956,-1.27851,0
62.2177,-55.4356,-1.2993,0
62.318,-55.2727,-1.31973,0
62.413,-55.1072,-1.33982,0
62.4991,-54.9367,-1.35996,0
61.824,-54.2355,-1.46602,174
61.8802,-54.0734,-1.48434,174
62.0447,-53.9822,-1.49015,174
62.7689,-54.2236,-1.43833,0
62.8243,-54.0434,-1.45654,0
62.8748,-53.8627,-1.47421,0
62.9205,-53.6817,-1.4913,0
62.9616,-53.5006,-1.50781,0
62.9975,-53.319,-1.52383,0
63.026,-53.1366,-1.53947,0
63.0501,-52.9545,-1.55452,0
63.0697,-52.7729,-1.569,0
63.0944,-52.5953,-1.58213,0
63.1162,-52.4185,-1.59461,0
63.1339,-52.242,-1.60651,0
63.1477,-52.0661,-1.61785,0
63.1577,-51.8907,-1.62862,0
63.1637,-51.716,-1.63884,0
63.1659,-51.542,-1.6485,0
63.1644,-51.3688,-1.6576,0
63.1592,-51.1966,-1.66615,0
63.1503,-51.0253,-1.67415,0
63.1426,-50.8556,-1.68129,0
63.1563,-50.689,-1.68632,0
63.1664,-50.5222,-1.69086,0
63.1729,-50.3553,-1.6949,0
63.1758,-50.1883,-1.69847,0
63.1698,-50.0214,-1.70185,0
63.1598,-49.8549,-1.70477,0
63.1462,-49.6888,-1.70719,0
63.1288,-49.5232,-1.70913,0
63.1077,-49.3582,-1.71058,0
63.0831,-49.1939,-1.71154,0
63.0548,-49.0303,-1.71201,0
63.023,-48.8676,-1.712,0
62.9876,-48.7058,-1.7115,0
62.9487,-48.545,-1.71053,0
62.908,-48.3849,-1.70896,0
62.8723,-48.2237,-1.70637,0
62.833,-48.0632,-1.70331,0
62.7988,-47.9009,-1.6992,0
62.7617,-47.7389,-1.69454,0
62.721,-47.5774,-1.68939,0
62.6767,-47.4165,-1.68374,0
62.6288,-47.2563,-1.67759,0
62.5774,-47.0969,-1.67094,0
62.5225,-46.9384,-1.66379,0
62.4636,-46.7809,-1.65615,0
62.3986,-46.6258,-1.64822,0
62.3299,-46.4719,-1.63981,0
62.2577,-46.3195,-1.63092,0
62.1791,-46.1702,-1.62179,0
62.0895,-46.0274,-1.61283,0
62.0024,-45.8828,-1.60292,0
61.9211,-45.7338,-1.59173,0
61.8359,-45.5866,-1.58008,0
61.7466,-45.4413,-1.56799,0
61.6537,-45.2981,-1.55546,0
61.557,-45.1571,-1.5425,0
61.4564,-45.0183,-1.5291,0
61.3522,-44.882,-1.51529,0
61.2444,-44.7481,-1.50106,0
61.1329,-44.6169,-1.48642,0
60.2802,-45.2728,-1.56791,174
60.0799,-45.2747,-1.56818,174
59.9526,-45.201,-1.55852,174
59.8553,-45.0926,-1.54397,174
59.7864,-44.9464,-1.5241,174
60.3927,-43.891,-1.39059,0
60.2581,-43.7812,-1.37338,0
60.1205,-43.6749,-1.35584,0
59.9802,-43.5718,-1.33795,0
59.8385,-43.4704,-1.31949,0
59.0988,-44.3915,-1.43123,174
58.8766,-44.4879,-1.43782,174
58.593,-44.7198,-1.46181,174
58.4347,-44.7336,-1.45722,174
60.9273,-56.8911,-1.07666,0
61.0755,-56.7659,-1.09957,0
61.2194,-56.6361,-1.12235,0
61.3591,-56.502,-1.14496,0
61.4942,-56.3636,-1.16739,0
61.6248,-56.2212,-1.18961,0
61.7506,-56.075,-1.21159,0
61.8716,-55.9251,-1.23333,0
61.9878,-55.7717,-1.25477,0
62.099,-55.6151,-1.27592,0
62.205,-55.4555,-1.29674,0
62.3059,-55.293,-1.31723,0
62.4016,-55.1278,-1.33736,0
62.4896,-54.9584,-1.35741,0
61.9575,-54.3544,-1.44758,174
61.8657,-54.0882,-1.48297,174
62.0105,-53.9849,-1.49092,174
62.7618,-54.2458,-1.43604,0
62.8177,-54.0657,-1.45433,0
62.8687,-53.885,-1.47206,0
62.9152,-53.7041,-1.48922,0
62.9568,-53.5229,-1.50581,0
62.9936,-53.3416,-1.52185,0
63.0228,-53.1591,-1.53757,0
63.0473,-52.9769,-1.55271,0
63.0675,-52.7953,-1.56725,0
63.0913,-52.6172,-1.58056,0
63.1137,-52.4403,-1.5931,0
63.1319,-52.2638,-1.60507,0
63.1462,-52.0878,-1.61648,0
63.1566,-51.9123,-1.62733,0
63.1632,-51.7375,-1.63761,0
63.1659,-51.5634,-1.64734,0
63.1648,-51.3902,-1.65651,0
63.16,-51.2178,-1.66512,0
63.1516,-51.0464,-1.67319,0
63.1406,-50.8761,-1.68064,0
63.1548,-50.7096,-1.68573,0
63.1654,-50.5428,-1.69033,0
63.1723,-50.3759,-1.69444,0
63.1756,-50.2089,-1.69805,0
63.1708,-50.042,-1.70146,0
63.1613,-49.8754,-1.70444,0
63.148,-49.7092,-1.70692,0
63.1312,-49.5436,-1.70892,0
63.1105,-49.3785,-1.71043,0
63.0863,-49.2141,-1.71144,0
63.0585,-49.0505,-1.71198,0
63.0272,-48.8877,-1.71203,0
62.9922,-48.7258,-1.71158,0
62.9537,-48.5649,-1.71067,0
62.9121,-48.4049,-1.70924,0
62.8769,-48.2435,-1.70672,0
62.838,-48.083,-1.70371,0
62.8032,-47.9209,-1.69973,0
62.7665,-47.7589,-1.69514,0
62.7262,-47.5973,-1.69006,0
62.6823,-47.4363,-1.68446,0
62.6349,-47.2761,-1.67837,0
62.584,-47.1166,-1.67179,0
62.5294,-46.9579,-1.66469,0
62.4712,-46.8002,-1.65711,0
62.4068,-46.6449,-1.64923,0
62.3386,-46.4909,-1.64087,0
62.2668,-46.3382,-1.63205,0
62.1898,-46.188,-1.62287,0
62.1007,-46.0449,-1.61396,0
62.0123,-45.9013,-1.60427,0
61.9313,-45.7521,-1.59314,0
61.8466,-45.6047,-1.58155,0
61.7579,-45.4592,-1.56951,0
61.6654,-45.3157,-1.55703,0
61.5691,-45.1744,-1.54412,0
61.4691,-45.0353,-1.53078,0
61.3653,-44.8987,-1.51701,0
61.2578,-44.7645,-1.50284,0
61.1469,-44.633,-1.48825,0
61.0323,-44.5042,-1.47327,0
60.0966,-45.2829,-1.56921,174
59.9682,-45.2102,-1.55976,174
59.8664,-45.1072,-1.54595,174
59.7905,-44.9703,-1.52731,174
60.4091,-43.9048,-1.39269,0
60.2749,-43.7946,-1.37552,0
60.1377,-43.6878,-1.35801,0
59.9976,-43.5846,-1.3402,0
59.8562,-43.4827,-1.32178,0
59.1273,-44.3792,-1.43034,174
58.9033,-44.4763,-1.43706,174
58.6196,-44.7053,-1.46069,174
58.4517,-44.7364,-1.4584,174
60.7055,-56.507,-1.07851,0
60.8454,-56.3877,-1.10022,0
60.9813,-56.2641,-1.12179,0
61.1133,-56.1364,-1.1432,0
61.241,-56.0048,-1.16446,0
61.3644,-55.8695,-1.1855,0
61.4834,-55.7306,-1.20633,0
61.5979,-55.5883,-1.22692,0
61.7077,-55.4427,-1.24724,0
61.8129,-55.2942,-1.26728,0
61.9134,-55.1427,-1.28702,0
62.009,-54.9886,-1.30644,0
62.0997,-54.8321,-1.32552,0
62.1856,-54.6731,-1.34426,0
61.8279,-54.2077,-1.4163,174
61.8925,-54.0518,-1.43379,174
62.0719,-53.9699,-1.4372,174
62.478,-54.0178,-1.41547,0
62.532,-53.8464,-1.43297,0
62.5813,-53.6744,-1.44992,0
62.6262,-53.5021,-1.46636,0
62.6662,-53.3293,-1.48229,0
62.6993,-53.1553,-1.49792,0
62.7349,-52.9845,-1.51234,0
62.7685,-52.8145,-1.52605,0
62.798,-52.6446,-1.53921,0
62.8237,-52.4747,-1.55182,0
62.8455,-52.3052,-1.56389,0
62.8634,-52.1359,-1.57542,0
62.8774,-51.9671,-1.58642,0
62.8877,-51.7988,-1.59686,0
62.8943,-51.631,-1.60678,0
62.8973,-51.4639,-1.61615,0
62.8965,-51.2976,-1.625,0
62.8922,-51.132,-1.63332,0
62.8845,-50.9673,-1.64111,0
62.8865,-50.8051,-1.64742,0
62.8994,-50.6445,-1.65222,0
62.9088,-50.4837,-1.65655,0
62.911,-50.3227,-1.66067,0
62.9084,-50.1617,-1.6644,0
62.9022,-50.001,-1.66766,0
62.8923,-49.8407,-1.67045,0
62.879,-49.6808,-1.67276,0
62.8621,-49.5214,-1.67461,0
62.8417,-49.3625,-1.67598,0
62.8178,-49.2044,-1.67687,0
62.7904,-49.0469,-1.67731,0
62.7596,-48.8903,-1.67728,0
62.7254,-48.7345,-1.67677,0
62.6877,-48.5797,-1.67581,0
62.6466,-48.4259,-1.67438,0
62.6109,-48.271,-1.67188,0
62.5811,-48.1142,-1.66823,0
62.548,-47.9578,-1.66411,0
62.5113,-47.8018,-1.6595,0
62.4712,-47.6464,-1.65442,0
62.4256,-47.4924,-1.64899,0
62.3766,-47.3393,-1.64311,0
62.3239,-47.1871,-1.63676,0
62.2677,-47.0359,-1.62994,0
62.2078,-46.8858,-1.62267,0
62.1445,-46.737,-1.61492,0
62.0777,-46.5894,-1.60674,0
62.0073,-46.4432,-1.59808,0
61.9259,-46.3032,-1.58969,0
61.8394,-46.1662,-1.58103,0
61.7498,-46.0313,-1.57196,0
61.6612,-45.8955,-1.56204,0
61.5786,-45.7551,-1.55077,0
61.4922,-45.6167,-1.53908,0
61.4022,-45.4802,-1.52696,0
61.3086,-45.3458,-1.51445,0
61.2114,-45.2136,-1.50151,0
61.1108,-45.0837,-1.48818,0
61.0066,-44.9563,-1.47445,0
60.8991,-44.8314,-1.46036,0
60.2492,-45.2849,-1.52242,174
60.0766,-45.2574,-1.51969,174
59.9458,-45.1877,-1.51067,174
59.8413,-45.088,-1.49704,174
59.7834,-44.9278,-1.47471,174
60.1863,-44.1411,-1.36817,0
60.0569,-44.0368,-1.35162,0
59.9255,-43.9347,-1.33462,0
59.7918,-43.8351,-1.31719,0
59.6555,-43.7388,-1.29946,0
59.0773,-44.4019,-1.38467,174
58.8564,-44.4976,-1.39253,174
58.5739,-44.73,-1.41901,174
58.2983,-44.9828,-1.44837,174
60.6879,-56.5215,-1.07582,0
60.8283,-56.4026,-1.09754,0
60.9648,-56.2796,-1.11913,0
61.0973,-56.1524,-1.14058,0
61.2254,-56.0213,-1.16184,0
61.3494,-55.8864,-1.18292,0
61.469,-55.7479,-1.20377,0
61.584,-55.606,-1.22439,0
61.6945,-55.4609,-1.24474,0
61.8002,-55.3127,-1.26482,0
61.9012,-55.1616,-1.2846,0
61.9974,-55.0078,-1.30405,0
62.0887,-54.8515,-1.32319,0
62.1752,-54.6929,-1.34196,0
61.8425,-54.2429,-1.4113,174
61.8829,-54.0699,-1.43187,174
62.0376,-53.9726,-1.43818,174
62.4711,-54.039,-1.41327,0
62.5255,-53.8676,-1.43083,0
62.5755,-53.6957,-1.44786,0
62.6209,-53.5234,-1.46435,0
62.6618,-53.3508,-1.48032,0
62.6954,-53.1768,-1.49602,0
62.7305,-53.0055,-1.51061,0
62.7645,-52.8355,-1.52439,0
62.7946,-52.6655,-1.53761,0
62.8207,-52.4957,-1.55029,0
62.843,-52.3261,-1.56243,0
62.8613,-52.1568,-1.57403,0
62.8759,-51.9879,-1.58508,0
62.8866,-51.8195,-1.59561,0
62.8937,-51.6517,-1.60559,0
62.897,-51.4845,-1.61503,0
62.8968,-51.3181,-1.62394,0
62.893,-51.1524,-1.63233,0
62.8855,-50.9876,-1.64018,0
62.8846,-50.8249,-1.64679,0
62.898,-50.6643,-1.65166,0
62.9078,-50.5036,-1.65605,0
62.9111,-50.3425,-1.66018,0
62.9089,-50.1816,-1.66397,0
62.9031,-50.0209,-1.66728,0
62.8938,-49.8605,-1.67013,0
62.8809,-49.7005,-1.6725,0
62.8644,-49.541,-1.67441,0
62.8444,-49.3821,-1.67583,0
62.8209,-49.2239,-1.67679,0
62.7941,-49.0663,-1.67729,0
62.7636,-48.9096,-1.6773,0
62.7298,-48.7537,-1.67686,0
62.6925,-48.5988,-1.67595,0
62.6519,-48.4448,-1.67458,0
62.6154,-48.2901,-1.67221,0
62.585,-48.1335,-1.66871,0
62.5522,-47.9771,-1.66464,0
62.516,-47.8211,-1.66009,0
62.4763,-47.6656,-1.65507,0
62.4315,-47.5114,-1.64969,0
62.3828,-47.3581,-1.64386,0
62.3305,-47.2058,-1.63757,0
62.2747,-47.0545,-1.63081,0
62.2154,-46.9043,-1.62359,0
62.1525,-46.7553,-1.61591,0
62.0862,-46.6075,-1.60778,0
62.0162,-46.4612,-1.59918,0
61.9363,-46.3203,-1.59073,0
61.8502,-46.183,-1.58212,0
61.7609,-46.0479,-1.5731,0
61.6712,-45.913,-1.56341,0
61.589,-45.7724,-1.55218,0
61.5031,-45.6337,-1.54054,0
61.4135,-45.4969,-1.52849,0
61.3203,-45.3623,-1.51601,0
61.2236,-45.2298,-1.50313,0
61.1234,-45.0996,-1.48985,0
61.0197,-44.9719,-1.47618,0
60.9125,-44.8467,-1.46212,0
60.2877,-45.2705,-1.52034,174
60.0933,-45.2656,-1.52069,174
59.9613,-45.1968,-1.5119,174
59.8527,-45.1022,-1.49901,174
59.7828,-44.9578,-1.47886,174
59.8917,-44.569,-1.42546,174
60.073,-44.0495,-1.35368,0
59.9417,-43.9473,-1.33675,0
59.8084,-43.8472,-1.31936,0
59.6725,-43.7505,-1.30168,0
59.1055,-44.3896,-1.38362,174
58.883,-44.4861,-1.39162,174
58.5812,-44.752,-1.42276,174
58.3262,-44.962,-1.44619,174
60.6703,-56.5358,-1.07313,0
60.8112,-56.4175,-1.09486,0
60.9481,-56.295,-1.11647,0
61.0811,-56.1683,-1.13793,0
61.2098,-56.0377,-1.15923,0
61.3343,-55.9033,-1.18033,0
61.4544,-55.7652,-1.20121,0
61.57,-55.6237,-1.22185,0
61.681,-55.479,-1.24224,0
61.7874,-55.3311,-1.26236,0
61.889,-55.1804,-1.28217,0
61.9858,-55.0269,-1.30167,0
62.0778,-54.871,-1.32085,0
62.1648,-54.7126,-1.33967,0
62.2469,-54.5521,-1.35812,0
61.8734,-54.0881,-1.42993,174
62.0035,-53.9753,-1.43914,174
62.4633,-54.0596,-1.41116,0
62.5191,-53.8888,-1.42869,0
62.5696,-53.7169,-1.44579,0
62.6155,-53.5447,-1.46235,0
62.657,-53.3722,-1.47837,0
62.6915,-53.1983,-1.49411,0
62.726,-53.0265,-1.50887,0
62.7605,-52.8565,-1.52271,0
62.7911,-52.6865,-1.536,0
62.8177,-52.5167,-1.54875,0
62.8404,-52.347,-1.56096,0
62.8593,-52.1777,-1.57263,0
62.8743,-52.0088,-1.58375,0
62.8855,-51.8403,-1.59433,0
62.893,-51.6724,-1.60438,0
62.8969,-51.5051,-1.61389,0
62.897,-51.3386,-1.62287,0
62.8937,-51.1728,-1.63132,0
62.8866,-51.0079,-1.63924,0
62.8827,-50.8447,-1.64616,0
62.8965,-50.6842,-1.65109,0
62.9068,-50.5234,-1.65553,0
62.9112,-50.3624,-1.65967,0
62.9094,-50.2015,-1.66352,0
62.9041,-50.0407,-1.6669,0
62.8952,-49.8803,-1.66981,0
62.8827,-49.7202,-1.67224,0
62.8666,-49.5607,-1.67419,0
62.8471,-49.4017,-1.67568,0
62.8241,-49.2434,-1.6767,0
62.7975,-49.0857,-1.67725,0
62.7675,-48.9289,-1.67733,0
62.7341,-48.7729,-1.67694,0
62.6973,-48.6179,-1.67609,0
62.657,-48.4638,-1.67477,0
62.6198,-48.3093,-1.67255,0
62.5888,-48.1529,-1.66918,0
62.5565,-47.9964,-1.66517,0
62.5206,-47.8403,-1.66069,0
62.4814,-47.6848,-1.65571,0
62.4373,-47.5304,-1.65038,0
62.389,-47.377,-1.64461,0
62.3372,-47.2246,-1.63837,0
62.2818,-47.0731,-1.63168,0
62.2229,-46.9228,-1.62451,0
62.1605,-46.7736,-1.61688,0
62.0945,-46.6257,-1.60881,0
62.0251,-46.4792,-1.60027,0
61.9467,-46.3374,-1.59176,0
61.8611,-46.1999,-1.58321,0
61.7722,-46.0644,-1.57424,0
61.6812,-45.9305,-1.56476,0
61.5994,-45.7897,-1.5536,0
61.5139,-45.6507,-1.542,0
61.4248,-45.5137,-1.53,0
61.332,-45.3788,-1.51758,0
61.2358,-45.246,-1.50475,0
61.1359,-45.1156,-1.49151,0
61.0327,-44.9875,-1.47789,0
60.9259,-44.862,-1.46389,0
60.8159,-44.7391,-1.44949,0
60.1101,-45.2737,-1.52169,174
59.9769,-45.206,-1.51311,174
59.8644,-45.1159,-1.50091,174
59.7865,-44.9821,-1.48225,174
59.8842,-44.6108,-1.43126,174
60.0891,-44.0623,-1.35572,0
59.958,-43.9598,-1.33887,0
59.8251,-43.8594,-1.32153,0
59.6894,-43.7623,-1.30387,0
59.1339,-44.3773,-1.38255,174
58.9097,-44.4745,-1.3907,174
58.6054,-44.7418,-1.42205,174
58.4483,-44.7534,-1.41783,174
60.4715,-56.1873,-1.07505,0
60.6048,-56.0742,-1.0957,0
60.7345,-55.9572,-1.11622,0
60.8604,-55.8363,-1.1366,0
60.9823,-55.7117,-1.15682,0
61.1002,-55.5836,-1.17685,0
61.214,-55.4521,-1.19669,0
61.3235,-55.3173,-1.21629,0
61.4287,-55.1795,-1.23566,0
61.5296,-55.0389,-1.25476,0
61.6261,-54.8955,-1.27358,0
61.718,-54.7495,-1.29212,0
61.8053,-54.6012,-1.31033,0
61.888,-54.4506,-1.32822,0
61.8702,-54.2315,-1.35834,174
61.9107,-54.0586,-1.37929,174
62.0787,-53.969,-1.38339,174
62.1721,-53.83,-1.39622,0
62.2312,-53.671,-1.41227,0
62.2862,-53.5112,-1.42786,0
62.338,-53.3511,-1.44287,0
62.3908,-53.1927,-1.45688,0
62.4389,-53.0334,-1.47048,0
62.4809,-52.8725,-1.48382,0
62.5143,-52.7093,-1.49715,0
62.5439,-52.5462,-1.50994,0
62.5698,-52.3831,-1.52222,0
62.5918,-52.2202,-1.53397,0
62.6102,-52.0576,-1.54521,0
62.6248,-51.8953,-1.55593,0
62.6359,-51.7334,-1.56613,0
62.6434,-51.572,-1.57582,0
62.6473,-51.4112,-1.58499,0
62.6477,-51.2511,-1.59366,0
62.6445,-51.0917,-1.6018,0
62.638,-50.933,-1.60946,0
62.6457,-50.7772,-1.61522,0
62.6561,-50.622,-1.62004,0
62.6608,-50.4666,-1.62458,0
62.662,-50.3113,-1.62866,0
62.6597,-50.1561,-1.6323,0
62.6539,-50.0012,-1.63548,0
62.6448,-49.8466,-1.6382,0
62.6321,-49.6924,-1.64046,0
62.6161,-49.5387,-1.64226,0
62.5966,-49.3856,-1.64362,0
62.5738,-49.233,-1.64451,0
62.5477,-49.0811,-1.64497,0
62.5182,-48.93,-1.64497,0
62.4853,-48.7798,-1.64451,0
62.4486,-48.6306,-1.64366,0
62.408,-48.4825,-1.6424,0
62.3754,-48.3326,-1.63982,0
62.345,-48.1819,-1.63635,0
62.3111,-48.0316,-1.63244,0
62.2738,-47.882,-1.62808,0
62.233,-47.733,-1.62325,0
62.1888,-47.5848,-1.618,0
62.1411,-47.4374,-1.61228,0
62.0901,-47.2909,-1.60612,0
62.0355,-47.1455,-1.59951,0
61.9776,-47.0011,-1.59245,0
61.9162,-46.858,-1.58496,0
61.8516,-46.716,-1.57702,0
61.7813,-46.5768,-1.56886,0
61.7012,-46.443,-1.56093,0
61.618,-46.3112,-1.5526,0
61.5317,-46.1814,-1.54387,0
61.4425,-46.0536,-1.53476,0
61.3515,-45.9272,-1.52511,0
61.2681,-45.7946,-1.51384,0
61.1812,-45.6641,-1.50216,0
61.091,-45.5355,-1.4901,0
60.9974,-45.4091,-1.47765,0
60.9005,-45.2849,-1.46482,0
60.8002,-45.163,-1.45162,0
60.6967,-45.0436,-1.43805,0
60.2644,-45.2742,-1.47376,174
60.09,-45.2482,-1.47193,174
59.9553,-45.1827,-1.46375,174
59.839,-45.0972,-1.45206,174
59.7821,-44.9362,-1.42896,174
59.8756,-44.5664,-1.37543,174
59.8884,-44.2826,-1.33336,0
59.7627,-44.1842,-1.31692,0
59.6342,-44.0891,-1.30018,0
59.5034,-43.9972,-1.28315,0
59.0839,-44.4,-1.3371,174
58.7585,-44.6845,-1.37388,174
58.5576,-44.7708,-1.38154,174
58.288,-45.0133,-1.41195,174
60.4547,-56.201,-1.07249,0
60.5885,-56.0884,-1.09314,0
60.7187,-55.9718,-1.11369,0
60.845,-55.8514,-1.13409,0
60.9674,-55.7273,-1.15433,0
61.0859,-55.5996,-1.17439,0
61.2002,-55.4685,-1.19425,0
61.3102,-55.3341,-1.21388,0
61.416,-55.1967,-1.23327,0
61.5174,-55.0564,-1.25241,0
61.6144,-54.9133,-1.27128,0
61.7068,-54.7677,-1.28984,0
61.7948,-54.6196,-1.30811,0
61.878,-54.4693,-1.32603,0
61.8716,-54.2576,-1.35483,174
61.9023,-54.0775,-1.37719,174
62.0366,-53.9668,-1.38553,174
62.1644,-53.8495,-1.39422,0
62.2243,-53.6907,-1.41031,0
62.2796,-53.5309,-1.42597,0
62.3319,-53.3709,-1.44104,0
62.3845,-53.2123,-1.45517,0
62.4332,-53.0531,-1.46882,0
62.4765,-52.8926,-1.48215,0
62.5104,-52.7295,-1.49552,0
62.5405,-52.5663,-1.50839,0
62.5667,-52.4032,-1.52072,0
62.5893,-52.2403,-1.53255,0
62.6081,-52.0776,-1.54385,0
62.6232,-51.9153,-1.55464,0
62.6348,-51.7534,-1.5649,0
62.6426,-51.5919,-1.57466,0
62.647,-51.431,-1.58389,0
62.6478,-51.2708,-1.59261,0
62.6452,-51.1113,-1.60084,0
62.6391,-50.9526,-1.60854,0
62.6439,-50.7963,-1.61461,0
62.6552,-50.6412,-1.61945,0
62.6604,-50.4858,-1.62404,0
62.662,-50.3305,-1.62819,0
62.6602,-50.1753,-1.63187,0
62.6548,-50.0203,-1.6351,0
62.646,-49.8657,-1.63788,0
62.6338,-49.7115,-1.6402,0
62.6182,-49.5577,-1.64206,0
62.5992,-49.4044,-1.64347,0
62.5768,-49.2518,-1.64444,0
62.551,-49.0998,-1.64494,0
62.522,-48.9487,-1.64499,0
62.4895,-48.7983,-1.6446,0
62.4534,-48.6489,-1.64379,0
62.4131,-48.5007,-1.64258,0
62.3789,-48.3513,-1.64022,0
62.349,-48.2005,-1.63681,0
62.3155,-48.0501,-1.63295,0
62.2787,-47.9004,-1.62863,0
62.2382,-47.7513,-1.62388,0
62.1945,-47.603,-1.61867,0
62.1472,-47.4555,-1.613,0
62.0966,-47.309,-1.6069,0
62.0424,-47.1634,-1.60035,0
61.9849,-47.0189,-1.59335,0
61.9241,-46.8756,-1.58591,0
61.8598,-46.7335,-1.57802,0
61.791,-46.5934,-1.56982,0
61.7113,-46.4594,-1.56194,0
61.6285,-46.3273,-1.55365,0
61.5426,-46.1973,-1.54497,0
61.4537,-46.0693,-1.5359,0
61.3617,-45.9435,-1.52645,0
61.2786,-45.8109,-1.51525,0
61.1922,-45.6801,-1.50363,0
61.1023,-45.5513,-1.49161,0
61.0091,-45.4246,-1.47921,0
60.9126,-45.3001,-1.46643,0
60.8128,-45.178,-1.45327,0
60.7096,-45.0583,-1.43975,0
60.2955,-45.2677,-1.47255,174
60.1068,-45.2564,-1.4729,174
59.9718,-45.1907,-1.46479,174
59.8507,-45.1109,-1.45399,174
59.7815,-44.9662,-1.43329,174
59.8681,-44.6081,-1.38152,174
59.9037,-44.2949,-1.33536,0
59.7784,-44.1962,-1.31896,0
59.6503,-44.1006,-1.30227,0
59.5197,-44.0083,-1.28528,0
59.1121,-44.3877,-1.33587,174
58.7868,-44.6687,-1.37216,174
58.5836,-44.7571,-1.38016,174
58.3078,-45.0086,-1.41192,174
60.438,-56.2146,-1.06993,0
60.5722,-56.1025,-1.0906,0
60.7028,-55.9865,-1.11116,0
60.8296,-55.8665,-1.13158,0
60.9526,-55.7428,-1.15184,0
61.0715,-55.6155,-1.17192,0
61.1863,-55.4849,-1.1918,0
61.2969,-55.3509,-1.21147,0
61.4032,-55.2139,-1.2309,0
61.5052,-55.0739,-1.25007,0
61.6027,-54.9311,-1.26896,0
61.6957,-54.7858,-1.28757,0
61.7841,-54.638,-1.30586,0
61.868,-54.488,-1.32383,0
61.9472,-54.3359,-1.34147,0
61.8944,-54.0968,-1.37503,174
61.9965,-53.9657,-1.38743,174
62.1567,-53.869,-1.3922,0
62.2171,-53.7104,-1.40834,0
62.2728,-53.5506,-1.42409,0
62.3257,-53.3907,-1.43921,0
62.3781,-53.2319,-1.45345,0
62.4275,-53.0728,-1.46715,0
62.472,-52.9128,-1.48045,0
62.5064,-52.7496,-1.4939,0
62.537,-52.5865,-1.50683,0
62.5637,-52.4234,-1.51923,0
62.5867,-52.2604,-1.53112,0
62.6059,-52.0977,-1.54249,0
62.6216,-51.9353,-1.55333,0
62.6334,-51.7733,-1.56366,0
62.6418,-51.6118,-1.57347,0
62.6466,-51.4509,-1.58278,0
62.6478,-51.2906,-1.59156,0
62.6456,-51.131,-1.59985,0
62.6399,-50.9721,-1.60761,0
62.6421,-50.8155,-1.614,0
62.6543,-50.6604,-1.61885,0
62.6599,-50.505,-1.6235,0
62.662,-50.3497,-1.62769,0
62.6605,-50.1945,-1.63144,0
62.6557,-50.0395,-1.63473,0
62.6473,-49.8848,-1.63756,0
62.6355,-49.7305,-1.63994,0
62.6203,-49.5767,-1.64186,0
62.6018,-49.4233,-1.64332,0
62.5798,-49.2706,-1.64434,0
62.5545,-49.1186,-1.64489,0
62.5257,-48.9673,-1.64501,0
62.4937,-48.8168,-1.64466,0
62.458,-48.6673,-1.6439,0
62.4184,-48.519,-1.64275,0
62.3823,-48.3699,-1.64061,0
62.3528,-48.2191,-1.63725,0
62.3198,-48.0687,-1.63345,0
62.2834,-47.9189,-1.6292,0
62.2434,-47.7697,-1.62449,0
62.2001,-47.6213,-1.61933,0
62.1533,-47.4737,-1.61374,0
62.103,-47.327,-1.60768,0
62.0493,-47.1813,-1.60118,0
61.9922,-47.0367,-1.59424,0
61.9317,-46.8932,-1.58685,0
61.8679,-46.751,-1.57902,0
61.8006,-46.6101,-1.57076,0
61.7213,-46.4758,-1.56293,0
61.6389,-46.3435,-1.55469,0
61.5534,-46.2132,-1.54607,0
61.4648,-46.085,-1.53704,0
61.3733,-45.9589,-1.52764,0
61.289,-45.8272,-1.51666,0
61.203,-45.6961,-1.50508,0
61.1136,-45.5671,-1.49312,0
61.0208,-45.4401,-1.48076,0
60.9247,-45.3153,-1.46802,0
60.8252,-45.1929,-1.45491,0
60.7226,-45.0729,-1.44144,0
60.6166,-44.9554,-1.4276,0
60.1236,-45.2645,-1.47386,174
59.9884,-45.1988,-1.46583,174
59.8624,-45.1247,-1.45592,174
59.7825,-44.9939,-1.43728,174
59.8111,-44.7152,-1.39691,174
59.9191,-44.3074,-1.33736,0
59.794,-44.2082,-1.321,0
59.6662,-44.1123,-1.30434,0
59.5359,-44.0196,-1.28739,0
59.1414,-44.374,-1.33441,174
58.9162,-44.4727,-1.34418,174
58.5914,-44.7779,-1.38384,174
58.3276,-45.0039,-1.41189,174
60.2588,-55.8968,-1.0719,0
60.3862,-55.7894,-1.09159,0
60.5101,-55.6782,-1.11115,0
60.6304,-55.5634,-1.13059,0
60.747,-55.4452,-1.14987,0
60.8599,-55.3235,-1.16899,0
60.9689,-55.1987,-1.1879,0
61.074,-55.0708,-1.20662,0
61.1749,-54.94,-1.22511,0
61.2718,-54.8064,-1.24337,0
61.3645,-54.6703,-1.26135,0
61.4529,-54.5317,-1.27906,0
61.537,-54.3908,-1.29649,0
61.6168,-54.2478,-1.31361,0
61.6927,-54.1032,-1.33035,0
61.7648,-53.9572,-1.34665,0
61.8327,-53.8097,-1.36259,0
61.8964,-53.6606,-1.37819,0
61.9555,-53.5102,-1.39341,0
62.0105,-53.3586,-1.40823,0
62.0658,-53.2085,-1.42212,0
62.117,-53.0573,-1.4356,0
62.1641,-52.9052,-1.44868,0
62.207,-52.7522,-1.46137,0
62.2455,-52.5986,-1.47366,0
62.2798,-52.4444,-1.48553,0
62.31,-52.2897,-1.49699,0
62.336,-52.1348,-1.50804,0
62.3578,-51.9797,-1.51865,0
62.3755,-51.8245,-1.52885,0
62.3891,-51.6695,-1.5386,0
62.3988,-51.5146,-1.54792,0
62.4042,-51.3601,-1.55681,0
62.4059,-51.206,-1.56526,0
62.4035,-51.0525,-1.57326,0
62.4024,-50.9003,-1.58039,0
62.4135,-50.7504,-1.58571,0
62.4219,-50.6004,-1.59053,0
62.4268,-50.4505,-1.59493,0
62.4282,-50.3006,-1.5989,0
62.4262,-50.1509,-1.60244,0
62.4208,-50.0014,-1.60555,0
62.4119,-49.8522,-1.60822,0
62.3995,-49.7034,-1.61047,0
62.3838,-49.5551,-1.61229,0
62.3647,-49.4073,-1.61366,0
62.3422,-49.2602,-1.61462,0
62.3164,-49.1137,-1.61514,0
62.2873,-48.968,-1.61523,0
62.2549,-48.8232,-1.6149,0
62.2192,-48.6793,-1.61414,0
62.1852,-48.5353,-1.61255,0
62.1497,-48.3917,-1.61038,0
62.1201,-48.2463,-1.60699,0
62.087,-48.1015,-1.60317,0
62.0507,-47.9572,-1.59891,0
62.011,-47.8136,-1.59423,0
61.968,-47.6708,-1.58911,0
61.9218,-47.5288,-1.58356,0
61.8723,-47.3877,-1.57757,0
61.8193,-47.2476,-1.57115,0
61.7631,-47.1085,-1.56431,0
61.7037,-46.9706,-1.55704,0
61.6411,-46.834,-1.54935,0
61.5695,-46.7018,-1.54183,0
61.4924,-46.5729,-1.53419,0
61.4123,-46.4459,-1.52616,0
61.3291,-46.3209,-1.51776,0
61.243,-46.1978,-1.50897,0
61.1541,-46.0768,-1.49982,0
61.0624,-45.958,-1.4903,0
60.977,-45.8341,-1.47924,0
60.8899,-45.7109,-1.4676,0
60.7996,-45.5898,-1.4556,0
60.7061,-45.4708,-1.44323,0
60.6095,-45.3541,-1.43051,0
60.5098,-45.2397,-1.41745,0
60.3005,-45.2414,-1.42138,174
60.1151,-45.226,-1.4219,174
59.9685,-45.1733,-1.41596,174
59.8377,-45.1052,-1.40695,174
59.7809,-44.9446,-1.38325,174
59.8517,-44.6059,-1.33189,0
59.7334,-44.5088,-1.31637,0
59.6123,-44.4147,-1.30056,0
59.4888,-44.3237,-1.28446,0
59.3629,-44.2357,-1.26809,0
59.0996,-44.3825,-1.28697,174
58.7519,-44.7059,-1.33269,174
58.5523,-44.7907,-1.34137,174
58.2853,-45.0284,-1.37351,174
60.2429,-55.9098,-1.06946,0
60.3706,-55.8028,-1.08917,0
60.495,-55.6921,-1.10875,0
60.6158,-55.5778,-1.1282,0
60.7329,-55.46,-1.1475,0
60.8462,-55.3387,-1.16663,0
60.9556,-55.2143,-1.18558,0
61.0612,-55.0868,-1.20433,0
61.1627,-54.9563,-1.22284,0
61.26,-54.8231,-1.24112,0
61.3532,-54.6872,-1.25914,0
61.4422,-54.5489,-1.2769,0
61.5269,-54.4083,-1.29435,0
61.6072,-54.2656,-1.31151,0
61.6834,-54.1211,-1.32831,0
61.7562,-53.9753,-1.34466,0
61.8246,-53.828,-1.36065,0
61.8887,-53.6791,-1.37629,0
61.9484,-53.5288,-1.39154,0
62.0039,-53.3774,-1.40643,0
62.0591,-53.2271,-1.42043,0
62.1109,-53.076,-1.43395,0
62.1585,-52.924,-1.44709,0
62.2019,-52.7711,-1.45983,0
62.2409,-52.6176,-1.47216,0
62.2759,-52.4634,-1.48409,0
62.3066,-52.3088,-1.4956,0
62.333,-52.1539,-1.5067,0
62.3554,-51.9988,-1.51737,0
62.3736,-51.8437,-1.52761,0
62.3877,-51.6886,-1.53742,0
62.3977,-51.5337,-1.54679,0
62.4038,-51.3792,-1.55573,0
62.4059,-51.225,-1.56424,0
62.404,-51.0714,-1.5723,0
62.4016,-50.9189,-1.57964,0
62.4123,-50.7689,-1.58508,0
62.4211,-50.619,-1.58995,0
62.4263,-50.469,-1.59441,0
62.4282,-50.3191,-1.59843,0
62.4266,-50.1694,-1.60203,0
62.4216,-50.0199,-1.60518,0
62.4131,-49.8706,-1.60792,0
62.4012,-49.7218,-1.61021,0
62.3859,-49.5734,-1.61208,0
62.3672,-49.4255,-1.61352,0
62.3452,-49.2783,-1.61452,0
62.3198,-49.1318,-1.6151,0
62.2911,-48.986,-1.61524,0
62.2591,-48.8411,-1.61496,0
62.2238,-48.697,-1.61425,0
62.1895,-48.5531,-1.61278,0
62.1532,-48.4096,-1.61076,0
62.1239,-48.2642,-1.60743,0
62.0913,-48.1193,-1.60367,0
62.0554,-47.975,-1.59946,0
62.0162,-47.8313,-1.59483,0
61.9736,-47.6884,-1.58977,0
61.9277,-47.5463,-1.58426,0
61.8785,-47.4051,-1.57833,0
61.826,-47.2648,-1.57197,0
61.7702,-47.1257,-1.56518,0
61.7112,-46.9876,-1.55797,0
61.649,-46.8508,-1.55032,0
61.5789,-46.7179,-1.54275,0
61.502,-46.5888,-1.53515,0
61.4223,-46.4615,-1.52717,0
61.3395,-46.3362,-1.51882,0
61.2538,-46.2129,-1.51008,0
61.1652,-46.0917,-1.50097,0
61.0739,-45.9726,-1.4915,0
60.9876,-45.8494,-1.48065,0
60.9009,-45.726,-1.46906,0
