91.074,-60.6661,-5.7826,174
97.1766,-56.233,-6.70535,174
96.1454,-55.3773,-6.63293,174
95.2308,-54.6001,-6.56887,174
94.6285,-53.9229,-6.53371,174
94.0708,-53.2852,-6.50098,174
93.5409,-52.6809,-6.46918,174
93.0361,-52.107,-6.4382,174
92.5544,-51.5607,-6.40796,174
92.0935,-51.0396,-6.37839,174
91.6517,-50.5415,-6.3494,174
91.2274,-50.0647,-6.32095,174
90.8191,-49.6072,-6.29296,174
90.4255,-49.1676,-6.26539,174
89.875,-48.7577,-6.21924,0
89.2953,-48.3755,-6.16848,0
88.921,-47.9931,-6.13955,0
88.5517,-47.6254,-6.11023,0
88.1873,-47.2719,-6.08052,0
83.8714,-47.7188,-5.59597,174
87.4726,-46.6046,-6.02011,0
87.1089,-46.2931,-5.98794,0
86.8002,-45.9801,-5.96138,0
86.9296,-45.5465,-5.98554,0
87.105,-45.0854,-6.01492,0
87.2567,-44.6172,-6.04137,0
84.1223,-45.3808,-5.67665,174
85.1232,-44.626,-5.80255,174
85.1518,-44.2313,-5.81251,174
85.0764,-43.8753,-5.80967,174
94.3601,-38.9051,-6.93741,0
96.408,-37.1516,-7.19511,174
90.5041,-62.6261,-5.59394,174
90.4682,-61.9747,-5.63145,174
90.5176,-61.3936,-5.67378,174
90.7933,-60.9516,-5.73295,174
91.2246,-60.5898,-5.80446,174
96.8715,-55.9947,-6.68328,174
95.8976,-55.1666,-6.61564,174
95.0592,-54.4164,-6.55849,174
94.4791,-53.7519,-6.52501,174
93.929,-53.1233,-6.49254,174
93.4059,-52.5272,-6.46096,174
92.9074,-51.9608,-6.43019,174
92.4313,-51.4213,-6.40013,174
91.9756,-50.9065,-6.37071,174
91.5386,-50.4143,-6.34188,174
91.1186,-49.9427,-6.31355,174
90.7143,-49.49,-6.28568,174
90.3244,-49.0549,-6.25821,174
89.7037,-48.6564,-6.20392,0
89.1964,-48.2735,-6.16092,0
88.8234,-47.895,-6.13188,0
88.4554,-47.5312,-6.10245,0
88.0923,-47.1812,-6.07265,0
83.7701,-47.6589,-5.58645,174
87.38,-46.5207,-6.01208,0
86.9959,-46.2179,-5.97732,0
84.5118,-46.5199,-5.69619,174
86.976,-45.4267,-5.99331,0
87.1505,-44.9619,-6.02257,0
84.2374,-45.5917,-5.68547,174
85.3114,-44.8304,-5.81997,174
85.2201,-44.4862,-5.81588,174
85.1464,-44.1318,-5.81352,174
85.0552,-43.7817,-5.80869,174
96.5107,-37.6511,-7.20002,174
96.3707,-36.9726,-7.19319,174
90.7419,-63.1002,-5.42345,174
90.3998,-62.2369,-5.44463,174
90.4358,-61.6427,-5.48858,174
90.5683,-61.1182,-5.53774,174
90.8858,-60.7013,-5.59931,174
91.4396,-60.4006,-5.6783,174
97.3425,-56.4278,-6.52172,174
96.123,-55.5203,-6.44131,174
95.2104,-54.7379,-6.38547,174
94.3689,-54.0172,-6.33319,174
93.7808,-53.3778,-6.30227,174
93.2656,-52.7789,-6.27624,174
87.5437,-51.7143,-5.74003,174
92.3054,-51.6679,-6.22546,174
91.8562,-51.1508,-6.2006,174
90.0948,-50.6254,-6.04237,0
89.4243,-50.1835,-5.99091,0
88.8802,-49.7703,-5.95062,0
88.3742,-49.3805,-5.9128,0
87.9146,-49.0105,-5.87845,0
87.4699,-48.6595,-5.84447,0
87.0473,-48.3255,-5.81168,0
86.6798,-48.0017,-5.78367,0
86.318,-47.6922,-5.75537,0
85.962,-47.3964,-5.72676,0
85.713,-47.0915,-5.70888,0
85.5236,-46.781,-5.69677,0
85.3308,-46.4768,-5.68371,0
85.1348,-46.1788,-5.66971,0
81.6988,-46.9199,-5.29814,174
85.1394,-45.4614,-5.68388,0
84.1706,-45.4553,-5.58251,174
85.6327,-44.5245,-5.75113,0
85.8902,-44.0206,-5.78572,0
85.1714,-43.9388,-5.71041,174
87.1699,-42.5732,-5.94045,0
83.6282,-43.9285,-5.54525,174
90.592,-62.8296,-5.42544,174
90.4094,-62.0793,-5.45636,174
90.4496,-61.4915,-5.50015,174
90.626,-60.9946,-5.55211,174
91.0162,-60.6161,-5.6189,174
91.7506,-60.4016,-5.7117,174
96.9073,-56.1559,-6.49053,174
95.8757,-55.3082,-6.42626,174
94.9827,-54.5428,-6.3714,174
94.1774,-53.84,-6.32177,174
93.6429,-53.2173,-6.29538,174
87.7566,-52.0223,-5.74855,174
87.5511,-51.614,-5.74499,174
92.1855,-51.5297,-6.2189,174
91.348,-51.0027,-6.15489,0
89.8523,-50.505,-6.02236,0
89.2791,-50.0724,-5.98024,0
88.7409,-49.6658,-5.94017,0
88.252,-49.2813,-5.90373,0
87.7963,-48.9165,-5.86949,0
87.3555,-48.5703,-5.83559,0
86.9502,-48.239,-5.80436,0
86.5841,-47.919,-5.77627,0
86.2239,-47.6132,-5.74787,0
85.8692,-47.3208,-5.71921,0
85.6635,-47.0093,-5.70579,0
85.4732,-46.7004,-5.69343,0
85.2796,-46.3979,-5.68011,0
85.0828,-46.1016,-5.66588,0
81.6718,-46.8581,-5.29649,174
85.2026,-45.3434,-5.69257,0
85.4476,-44.8804,-5.72606,0
85.6996,-44.3945,-5.76015,0
85.1974,-44.215,-5.70953,174
85.0432,-43.8946,-5.69729,174
87.4935,-42.2926,-5.97833,0
83.5313,-43.8829,-5.53526,174
90.429,-62.5545,-5.42623,174
90.4188,-61.9227,-5.46796,174
90.4775,-61.3497,-5.5126,174
90.7168,-60.8894,-5.56882,174
91.1659,-60.5399,-5.63995,174
98.1703,-56.9451,-6.58087,174
96.5838,-55.9156,-6.4692,174
95.6338,-55.1008,-6.41148,174
94.7598,-54.3518,-6.35757,174
94.0342,-53.6731,-6.31479,174
93.5069,-53.0591,-6.28853,174
87.6211,-51.9052,-5.7398,174
92.5253,-51.9218,-6.23737,174
92.0669,-51.3932,-6.21235,174
90.7986,-50.8596,-6.10475,0
89.6934,-50.3886,-6.0106,0
89.1354,-49.9632,-5.96963,0
88.6032,-49.5629,-5.92977,0
88.1307,-49.1836,-5.89469,0
87.6791,-48.8237,-5.86055,0
87.242,-48.4823,-5.82675,0
86.8534,-48.1535,-5.797,0
86.4889,-47.8373,-5.76883,0
86.1302,-47.5351,-5.74036,0
85.8016,-47.2411,-5.71427,0
85.6138,-46.9275,-5.70263,0
85.4226,-46.6203,-5.69002,0
85.2281,-46.3194,-5.67646,0
85.0306,-46.0247,-5.66198,0
81.6906,-46.7811,-5.29989,174
85.2664,-45.2238,-5.70132,0
85.513,-44.755,-5.73495,0
85.767,-44.2628,-5.76922,0
85.1885,-44.1168,-5.70991,174
85.0127,-43.8058,-5.69513,174
87.8322,-41.9987,-6.01792,0
89.7039,-40.5154,-6.23475,0
90.6119,-62.9898,-5.25036,174
90.3521,-62.1847,-5.2814,174
90.387,-61.5924,-5.3271,174
90.5279,-61.0752,-5.37768,174
90.8113,-60.6418,-5.43632,174
91.3797,-60.3512,-5.51356,174
97.0692,-56.3479,-6.30744,174
95.8536,-55.4494,-6.23695,174
94.9625,-54.679,-6.19013,174
94.1401,-53.9686,-6.14604,174
93.3778,-53.3109,-6.10433,174
92.8692,-52.7233,-6.08264,174
87.5572,-51.7096,-5.62481,174
89.2437,-51.4448,-5.79507,0
88.3745,-50.9815,-5.73189,0
87.8366,-50.5679,-5.69733,0
87.415,-50.18,-5.67215,0
87.0548,-49.8105,-5.65148,0
86.7523,-49.4549,-5.63518,0
86.4437,-49.1131,-5.61729,0
85.8458,-48.8125,-5.57027,0
85.2838,-48.5345,-5.52541,0
84.8784,-48.2592,-5.49478,0
84.7222,-47.9593,-5.48795,0
84.6063,-47.6567,-5.48452,0
84.4918,-47.3566,-5.48067,0
84.3737,-47.0597,-5.47592,0
84.2523,-46.7658,-5.47031,0
84.1329,-46.4734,-5.46439,0
81.6596,-46.9334,-5.21642,174
81.1405,-46.8439,-5.1673,174
84.2069,-45.444,-5.48825,0
84.3784,-45.0282,-5.51067,0
84.5525,-44.5952,-5.53305,0
83.8859,-44.5279,-5.46731,174
84.9413,-43.6573,-5.58106,0
83.6166,-43.9389,-5.44515,174
90.4467,-62.7107,-5.25332,174
90.3603,-62.0269,-5.29353,174
90.4097,-61.4472,-5.33964,174
90.5797,-60.9488,-5.39171,174
90.9589,-60.5664,-5.45645,174
91.5797,-60.297,-5.53738,174
96.6439,-56.0806,-6.28047,174
95.6122,-55.2407,-6.22436,174
94.7401,-54.4868,-6.17829,174
93.9342,-53.7909,-6.13486,174
93.2315,-53.152,-6.09771,174
87.7375,-52.0137,-5.62867,174
87.5844,-51.611,-5.63158,174
88.9946,-51.3176,-5.77681,0
88.1743,-50.8679,-5.71752,0
87.7183,-50.4639,-5.69014,0
87.3105,-50.0814,-5.6659,0
86.9748,-49.7158,-5.64725,0
86.6736,-49.3636,-5.63081,0
86.2829,-49.0318,-5.60471,0
85.6948,-48.7373,-5.55827,0
85.1416,-48.465,-5.51396,0
84.8341,-48.1804,-5.49272,0
84.6886,-47.8801,-5.4868,0
84.5766,-47.5775,-5.4836,0
84.4611,-47.2783,-5.47951,0
84.3421,-46.9821,-5.47453,0
84.2198,-46.6891,-5.46869,0
84.113,-46.3934,-5.46392,0
81.6374,-46.8704,-5.21532,174
84.082,-45.7401,-5.4717,0
84.2517,-45.3363,-5.49415,0
84.4239,-44.9161,-5.51656,0
84.5987,-44.4784,-5.53894,0
83.7998,-44.474,-5.45921,174
84.9969,-43.526,-5.58771,0
83.5073,-43.8999,-5.43432,174
90.3816,-62.501,-5.26169,174
90.3699,-61.8711,-5.30562,174
90.4376,-61.3059,-5.35239,174
90.641,-60.8278,-5.40627,174
91.1077,-60.4903,-5.4767,174
97.8776,-56.8561,-6.35852,174
96.3031,-55.8384,-6.26023,174
95.3761,-55.0365,-6.21197,174
94.5222,-54.2986,-6.16664,174
93.7324,-53.6167,-6.12384,174
93.1009,-52.9974,-6.09233,174
87.5828,-51.8949,-5.61925,174
89.8425,-51.6947,-5.84115,0
88.7689,-51.195,-5.7605,0
88.0529,-50.7595,-5.71032,0
87.6057,-50.3614,-5.68339,0
87.2068,-49.984,-5.65964,0
86.8952,-49.6219,-5.64298,0
86.5952,-49.2732,-5.62639,0
86.1248,-48.9521,-5.59229,0
85.5462,-48.6637,-5.54643,0
85.0155,-48.3949,-5.50401,0
84.7944,-48.1012,-5.49108,0
84.6595,-47.8002,-5.48605,0
84.5466,-47.4986,-5.48261,0
84.4301,-47.2001,-5.4783,0
84.3103,-46.9048,-5.47309,0
84.187,-46.6126,-5.467,0
84.093,-46.3134,-5.4634,0
81.2592,-46.926,-5.17758,174
84.1264,-45.6355,-5.47761,0
84.2967,-45.2275,-5.50004,0
84.4696,-44.8029,-5.52244,0
84.6452,-44.3603,-5.5448,0
84.8419,-43.8901,-5.56905,0
85.1453,-43.3468,-5.60411,0
83.4997,-43.8082,-5.43414,174
90.6154,-62.9687,-5.08617,174
90.307,-62.1342,-5.11937,174
90.342,-61.5446,-5.1669,174
90.4877,-61.0324,-5.21857,174
90.7552,-60.5925,-5.27586,174
91.3203,-60.3023,-5.35007,174
96.802,-56.2698,-6.09793,174
95.5903,-55.3802,-6.03727,174
94.7201,-54.6214,-5.99908,174
92.2869,-53.6504,-5.83278,0
89.819,-52.7965,-5.65687,0
88.7145,-52.225,-5.58646,0
87.8895,-51.7349,-5.53611,0
87.1713,-51.2933,-5.49229,0
86.6722,-50.8971,-5.46503,0
86.3962,-50.5304,-5.45538,0
86.1309,-50.177,-5.44554,0
85.8685,-49.836,-5.4349,0
85.3854,-49.5176,-5.40372,0
84.8748,-49.2234,-5.36878,0
84.5059,-48.9387,-5.34532,0
84.2266,-48.6594,-5.32903,0
83.991,-48.3855,-5.31585,0
83.8937,-48.0977,-5.31465,0
83.7927,-47.8129,-5.31255,0
83.6882,-47.531,-5.30956,0
83.5802,-47.252,-5.3057,0
83.4928,-46.9694,-5.30323,0
83.4235,-46.6822,-5.30196,0
81.636,-46.942,-5.1369,174
81.0995,-46.8594,-5.08945,174
83.2834,-45.7896,-5.30169,0
83.4227,-45.4122,-5.31851,0
82.1082,-45.6415,-5.19498,174
83.7039,-44.6142,-5.35124,0
83.8461,-44.1916,-5.3671,0
83.9893,-43.7519,-5.3826,0
90.3863,-62.6481,-5.08809,174
90.3115,-61.9748,-5.13182,174
90.3701,-61.4032,-5.18007,174
90.5394,-60.9065,-5.23266,174
90.902,-60.5172,-5.29521,174
91.4719,-60.2243,-5.36984,174
98.0525,-57.0609,-6.1665,174
96.3863,-56.0069,-6.075,174
95.3547,-55.1747,-6.02704,174
94.173,-54.3713,-5.96337,0
91.5318,-53.3971,-5.77865,0
89.467,-52.6325,-5.63367,0
88.4601,-52.088,-5.57038,0
87.6949,-51.6149,-5.52431,0
87.0271,-51.1859,-5.48419,0
86.5941,-50.7992,-5.46213,0
86.3262,-50.4363,-5.45287,0
86.0616,-50.0862,-5.44281,0
85.7806,-49.749,-5.43029,0
85.2484,-49.4382,-5.39442,0
84.7452,-49.1495,-5.35981,0
84.4268,-48.8647,-5.34062,0
84.1608,-48.587,-5.32527,0
83.9658,-48.3096,-5.31562,0
83.8674,-48.0225,-5.31418,0
83.7655,-47.7385,-5.31185,0
83.6602,-47.4574,-5.30863,0
83.5512,-47.1791,-5.30454,0
83.475,-46.8939,-5.30298,0
83.4047,-46.6067,-5.30148,0
81.6144,-46.8791,-5.13586,174
81.1299,-46.7814,-5.09322,174
83.3198,-45.6917,-5.30614,0
83.4594,-45.3107,-5.32288,0
83.5998,-44.9154,-5.33932,0
83.7412,-44.5047,-5.35545,0
83.8836,-44.0777,-5.37122,0
84.0271,-43.6334,-5.38661,0
90.3345,-62.448,-5.09827,174
90.3212,-61.8198,-5.14439,174
90.398,-61.2625,-5.19311,174
90.591,-60.7807,-5.24668,174
91.0499,-60.4412,-5.31467,174
92.0709,-60.3657,-5.41672,174
97.5916,-56.7693,-6.14129,174
96.0289,-55.763,-6.05615,174
95.1241,-54.9736,-6.01694,174
93.4206,-54.092,-5.91092,0
90.8449,-53.1641,-5.7295,0
89.1919,-52.4832,-5.61648,0
88.2515,-51.9592,-5.55787,0
87.5043,-51.4977,-5.5127,0
86.892,-51.081,-5.47672,0
86.5233,-50.7025,-5.45977,0
86.2564,-50.3431,-5.45031,0
85.9926,-49.9963,-5.44004,0
85.6379,-49.665,-5.42074,0
85.1135,-49.3603,-5.3852,0
84.65,-49.0743,-5.35383,0
84.3482,-48.7916,-5.33588,0
84.0951,-48.5153,-5.32149,0
83.9403,-48.2338,-5.31533,0
83.841,-47.9476,-5.31365,0
83.7382,-47.6643,-5.31109,0
83.6319,-47.384,-5.30764,0
83.5243,-47.1059,-5.30353,0
83.4569,-46.8184,-5.30266,0
81.8485,-47.0025,-5.15515,174
81.229,-46.9372,-5.10015,174
83.2312,-45.9589,-5.29492,0
83.3564,-45.593,-5.31056,0
82.0667,-45.7995,-5.18977,174
83.6369,-44.809,-5.34359,0
83.7785,-44.3941,-5.35963,0
83.9212,-43.9627,-5.3753,0
84.0649,-43.5136,-5.39059,0
77.7969,-70.2096,-2.76266,174
90.3909,-62.7959,-4.91325,174
90.2622,-62.0841,-4.95838,174
90.3027,-61.5002,-5.00795,174
90.4478,-60.9899,-5.06037,174
90.7511,-60.5711,-5.1191,174
91.2954,-60.271,-5.18956,174
98.2294,-57.2683,-5.97144,174
94.0559,-55.5988,-5.7223,0
91.4921,-54.4887,-5.57307,0
89.19,-53.5596,-5.4346,0
88.1563,-52.9568,-5.3814,0
87.3847,-52.4442,-5.34414,0
86.8151,-51.995,-5.31939,0
86.3275,-51.5826,-5.29886,0
85.9127,-51.2,-5.28217,0
85.5348,-50.8398,-5.26685,0
85.3054,-50.5015,-5.26185,0
84.9233,-50.1745,-5.24364,0
84.551,-49.8653,-5.22498,0
84.267,-49.5689,-5.21231,0
83.9894,-49.2848,-5.19921,0
83.7469,-49.0095,-5.18805,0
83.5193,-48.7426,-5.17731,0
83.2947,-48.4845,-5.16603,0
83.167,-48.219,-5.1622,0
83.0746,-47.9506,-5.16077,0
82.9787,-47.6849,-5.15849,0
82.9184,-47.4124,-5.15871,0
82.8562,-47.1402,-5.15823,0
82.7902,-46.8685,-5.15692,0
81.6385,-46.9423,-5.06011,174
81.0977,-46.8614,-5.01578,174
82.5691,-46.057,-5.14788,0
82.5995,-45.743,-5.15302,0
82.7132,-45.386,-5.16506,0
82.8266,-45.0165,-5.17658,0
82.9397,-44.6338,-5.18758,0
83.0523,-44.2371,-5.19801,0
73.6283,-62.644,-3.04307,174
90.339,-62.5943,-4.9247,174
90.2636,-61.9234,-4.97123,174
90.3307,-61.3594,-5.02142,174
90.4994,-60.8644,-5.07453,174
90.8762,-60.4845,-5.13669,174
91.4492,-60.1944,-5.20869,174
97.7622,-56.9708,-5.94987,174
93.2717,-55.2685,-5.67626,0
90.803,-54.2157,-5.53144,0
88.8544,-53.3842,-5.41637,0
87.9242,-52.8136,-5.36973,0
87.2071,-52.3195,-5.33577,0
86.6813,-51.8836,-5.31375,0
86.2167,-51.4799,-5.29449,0
85.8066,-51.1031,-5.27776,0
85.4744,-50.7498,-5.26562,0
85.2453,-50.4145,-5.26038,0
84.7998,-50.0918,-5.2368,0
84.4756,-49.7861,-5.22169,0
84.1934,-49.4931,-5.2089,0
83.9177,-49.2121,-5.19569,0
83.6867,-48.9385,-5.18528,0
83.46,-48.6739,-5.1744,0
83.2362,-48.4181,-5.16299,0
83.143,-48.1482,-5.16191,0
83.0498,-47.8805,-5.16027,0
82.9619,-47.6135,-5.1585,0
82.9024,-47.3408,-5.15867,0
82.8392,-47.0687,-5.15798,0
82.7722,-46.7972,-5.15643,0
81.6224,-46.8777,-5.05956,174
81.0853,-46.7985,-5.01539,174
82.548,-45.9862,-5.14672,0
82.6294,-45.6503,-5.15623,0
82.743,-45.2901,-5.16813,0
82.8563,-44.9172,-5.17953,0
82.9693,-44.5309,-5.19037,0
83.0819,-44.1304,-5.20065,0
73.4471,-62.8927,-2.98733,174
73.7066,-62.6408,-3.05495,174
90.8774,-63.4334,-4.90685,174
90.2877,-62.3953,-4.93592,174
90.2729,-61.7688,-4.98425,174
90.3586,-61.2192,-5.03476,174
90.5508,-60.7391,-5.08861,174
91.0213,-60.4074,-5.15529,174
91.8457,-60.2359,-5.24061,174
95.9648,-56.346,-5.83733,0
92.5876,-54.9715,-5.6365,0
90.0173,-53.9324,-5.48243,0
88.5907,-53.2261,-5.40304,0
87.7145,-52.6768,-5.35948,0
87.0616,-52.2014,-5.32962,0
86.5495,-51.7741,-5.30812,0
86.1073,-51.3787,-5.29011,0
85.7017,-51.0076,-5.27333,0
85.4141,-50.6606,-5.26434,0
85.1506,-50.3279,-5.2561,0
84.6883,-50.0104,-5.23082,0
84.4009,-49.7079,-5.21838,0
84.1203,-49.4181,-5.20548,0
83.856,-49.1393,-5.19296,0
83.6269,-48.8681,-5.18246,0
83.4009,-48.6059,-5.17144,0
83.2095,-48.3473,-5.16257,0
83.1189,-48.0776,-5.16156,0
83.0246,-47.8106,-5.15968,0
82.9466,-47.5418,-5.15863,0
82.8862,-47.2692,-5.15857,0
82.822,-46.9973,-5.15765,0
82.754,-46.726,-5.15591,0
81.1991,-46.9483,-5.0233,174
81.0851,-46.7312,-5.01605,174
82.5455,-45.9081,-5.14715,0
82.6593,-45.5569,-5.15941,0
82.7729,-45.1934,-5.17118,0
82.886,-44.8171,-5.18243,0
82.9989,-44.4271,-5.19314,0
83.1113,-44.0227,-5.20325,0
77.7852,-70.0927,-2.62234,174
93.1629,-66.1264,-4.70556,174
93.2264,-65.4025,-4.77452,174
90.3434,-62.7413,-4.74986,174
90.2177,-62.0342,-4.79841,174
90.2635,-61.4561,-4.84991,174
90.4081,-60.9476,-4.90306,174
90.8343,-60.5967,-4.96624,174
91.3174,-60.2635,-5.0317,174
94.6524,-57.4923,-5.48698,0
92.5421,-56.2869,-5.40052,0
90.5949,-55.2392,-5.31581,0
88.8439,-54.3422,-5.23606,0
87.6981,-53.6666,-5.1882,0
86.9221,-53.1213,-5.15991,0
86.4375,-52.6653,-5.14774,0
85.9773,-52.2389,-5.13511,0
85.5847,-51.8448,-5.12517,0
85.2175,-51.4736,-5.11532,0
84.8637,-51.1221,-5.1049,0
84.5485,-50.7902,-5.09582,0
84.2805,-50.4748,-5.08884,0
84.0183,-50.1723,-5.08118,0
83.7615,-49.8819,-5.07286,0
83.5102,-49.6031,-5.06395,0
83.3002,-49.3324,-5.05718,0
83.0923,-49.0705,-5.04973,0
82.8867,-48.817,-5.04166,0
82.6833,-48.5714,-5.03298,0
82.5212,-48.3268,-5.02674,0
82.4511,-48.0702,-5.02701,0
82.3991,-47.8107,-5.02817,0
82.3435,-47.5518,-5.02848,0
82.2841,-47.2936,-5.02796,0
82.2182,-47.0368,-5.02638,0
82.1379,-46.7843,-5.02312,0
81.1082,-46.8591,-4.9432,174
81.9643,-46.2836,-5.01395,0
81.9187,-46.0166,-5.01187,0
81.9759,-45.703,-5.01754,0
82.0675,-45.3647,-5.02546,0
82.1578,-45.0153,-5.03273,0
82.2467,-44.6543,-5.03929,0
73.3668,-62.7905,-2.89412,174
73.631,-62.5744,-2.9597,174
93.4009,-66.8908,-4.65901,174
93.16,-65.92,-4.72349,174
93.3596,-65.296,-4.79546,174
90.292,-62.5408,-4.76237,174
90.2192,-61.8744,-4.8118,174
90.2915,-61.3159,-4.86367,174
90.4859,-60.8374,-4.91833,174
90.96,-60.51,-4.98338,174
91.4465,-60.1746,-5.049,174
93.9852,-57.1295,-5.45861,0
92.1012,-56.0214,-5.38313,0
89.9455,-54.9458,-5.28405,0
88.528,-54.1553,-5.22298,0
87.4208,-53.504,-5.17643,0
86.7923,-52.9984,-5.15676,0
86.3142,-52.5505,-5.14445,0
85.8648,-52.132,-5.13203,0
85.4869,-51.7452,-5.12264,0
85.1233,-51.3794,-5.11264,0
84.7729,-51.0329,-5.10208,0
84.4775,-50.706,-5.09406,0
84.2111,-50.3941,-5.0869,0
83.9502,-50.0948,-5.07905,0
83.6949,-49.8076,-5.07057,0
83.4548,-49.5311,-5.06223,0
83.2453,-49.2628,-5.05529,0
83.0381,-49.0031,-5.04767,0
82.8331,-48.7517,-5.03943,0
82.6302,-48.5082,-5.03059,0
82.4992,-48.2599,-5.02659,0
82.4378,-48.002,-5.02739,0
82.3849,-47.7426,-5.02832,0
82.3283,-47.4839,-5.02841,0
82.268,-47.2258,-5.02769,0
82.1975,-46.9703,-5.02561,0
82.116,-46.7181,-5.02212,0
81.0748,-46.8036,-4.94107,174
81.9434,-46.2171,-5.01273,0
81.9095,-45.9449,-5.01145,0
82.0001,-45.6151,-5.01968,0
82.0913,-45.2739,-5.02743,0
82.1813,-44.9216,-5.03451,0
82.2698,-44.5574,-5.0409,0
73.1902,-63.1246,-2.82645,174
73.4293,-62.6849,-2.91643,174
73.707,-62.561,-2.97244,174
77.5701,-70.1789,-2.5829,174
93.2602,-66.5731,-4.67468,174
93.1571,-65.7153,-4.74116,174
90.5453,-63.1832,-4.72982,174
90.2412,-62.3429,-4.77463,174
90.2249,-61.7182,-4.82517,174
90.3194,-61.1763,-4.87729,174
90.6094,-60.752,-4.93538,174
91.0867,-60.4226,-5.00057,174
93.4023,-56.8018,-5.43445,0
91.619,-55.7508,-5.36284,0
89.4438,-54.6983,-5.26067,0
88.2229,-53.9752,-5.21027,0
87.1612,-53.3488,-5.16552,0
86.6641,-52.8777,-5.15357,0
86.1927,-52.4377,-5.14114,0
85.764,-52.0283,-5.12963,0
85.3899,-51.6471,-5.12007,0
85.0299,-51.2865,-5.10991,0
84.6777,-50.9445,-5.09886,0
84.4069,-50.6227,-5.09224,0
84.142,-50.3142,-5.0849,0
83.8827,-50.0182,-5.07688,0
83.6286,-49.734,-5.06824,0
83.3995,-49.4597,-5.06048,0
83.1906,-49.1937,-5.05335,0
82.984,-48.9363,-5.04557,0
82.7796,-48.6869,-5.03716,0
82.5772,-48.4454,-5.02817,0
82.477,-48.1932,-5.02637,0
82.4242,-47.9337,-5.02772,0
82.3704,-47.6745,-5.02842,0
82.3128,-47.416,-5.02831,0
82.2515,-47.1581,-5.02736,0
82.1765,-46.9039,-5.02478,0
82.0939,-46.6521,-5.02106,0
81.0459,-46.7467,-4.93926,174
81.9349,-46.1457,-5.01248,0
81.932,-45.8598,-5.01356,0
82.0242,-45.5265,-5.02178,0
82.1151,-45.1825,-5.02936,0
82.2047,-44.8271,-5.03626,0
82.2929,-44.4597,-5.04245,0
77.7737,-69.9769,-2.4834,174
93.0985,-66.8407,-4.43935,174
92.9244,-65.9223,-4.51048,174
93.0736,-65.2681,-4.58283,174
90.2962,-62.687,-4.58754,174
90.1734,-61.9847,-4.63941,174
90.2246,-61.4122,-4.69273,174
90.4447,-60.9486,-4.74895,174
91.5302,-60.9506,-4.83247,174
91.3603,-60.2666,-4.87443,174
92.4727,-57.8943,-5.13186,0
91.3096,-56.9436,-5.11424,0
89.626,-55.8986,-5.06525,0
88.4277,-55.0872,-5.0339,0
87.3589,-54.3765,-5.00426,0
86.4955,-53.7734,-4.98129,0
86.0377,-53.3037,-4.97725,0
85.6166,-52.8671,-4.97305,0
85.2394,-52.4612,-4.96938,0
84.9028,-52.0816,-4.96631,0
84.548,-51.7182,-4.96052,0
84.1773,-51.3719,-4.95218,0
83.9759,-51.0562,-4.95293,0
83.7588,-50.7501,-4.95156,0
83.5226,-50.4545,-4.94788,0
83.2905,-50.1702,-4.9434,0
83.0735,-49.8964,-4.93889,0
82.8823,-49.6313,-4.93519,0
82.6927,-49.3744,-4.93072,0
82.5044,-49.1253,-4.92552,0
82.3178,-48.8839,-4.91964,0
82.1081,-48.6532,-4.91139,0
81.9273,-48.426,-4.90442,0
81.8657,-48.1826,-4.90516,0
81.8069,-47.9392,-4.90554,0
81.7438,-47.6972,-4.90506,0
81.6766,-47.4564,-4.90374,0
81.6053,-47.217,-4.90155,0
81.5298,-46.9791,-4.89851,0
81.4502,-46.7425,-4.89463,0
81.4173,-46.4885,-4.89358,0
81.3831,-46.2322,-4.8919,0
81.3448,-45.9744,-4.88938,0
81.4041,-45.6689,-4.89339,0
81.4762,-45.3478,-4.89776,0
81.5466,-45.0169,-4.90135,0
71.7899,-79.1235,-0.40175,0
73.1109,-63.018,-2.73301,174
73.3588,-62.6408,-2.81927,174
73.6337,-62.5056,-2.87709,174
77.435,-70.0899,-2.42387,174
77.9425,-70.0839,-2.49204,174
92.994,-66.5509,-4.45775,174
92.9347,-65.728,-4.52927,174
90.9349,-63.5997,-4.55792,174
90.2453,-62.4876,-4.60108,174
90.1751,-61.8256,-4.65335,174
90.2526,-61.2726,-4.70678,174
90.5679,-60.8637,-4.76555,174
91.2982,-60.6695,-4.8375,174
91.5165,-60.191,-4.89218,174
93.9706,-58.888,-5.16941,0
92.069,-57.6023,-5.12326,0
90.9593,-56.6905,-5.1065,0
89.3091,-55.6782,-5.05742,0
88.1337,-54.891,-5.02589,0
87.0941,-54.2037,-4.99657,0
86.3723,-53.6467,-4.9803,0
85.9251,-53.1863,-4.97624,0
85.5091,-52.7568,-4.97178,0
85.1498,-52.3594,-4.96866,0
84.8162,-51.9852,-4.96534,0
84.4456,-51.6248,-4.95817,0
84.1243,-51.2879,-4.95248,0
83.9234,-50.9749,-4.95296,0
83.6963,-50.6713,-4.95068,0
83.4613,-50.3787,-4.94678,0
83.2302,-50.0973,-4.9421,0
83.023,-49.8259,-4.938,0
82.8323,-49.563,-4.93408,0
82.643,-49.3082,-4.92942,0
82.4553,-49.0612,-4.92404,0
82.269,-48.8217,-4.91798,0
82.0488,-48.5946,-4.9088,0
81.9063,-48.3628,-4.90432,0
81.8506,-48.1185,-4.90534,0
81.7907,-47.8755,-4.90549,0
81.7266,-47.6337,-4.9048,0
81.6583,-47.3934,-4.90325,0
81.5859,-47.1544,-4.90083,0
81.5093,-46.9167,-4.89757,0
81.4398,-46.6766,-4.89428,0
81.4087,-46.4213,-4.89322,0
81.3734,-46.1646,-4.89132,0
81.3496,-45.8996,-4.88971,0
81.4233,-45.5854,-4.89462,0
81.495,-45.2618,-4.89878,0
81.5646,-44.9283,-4.90216,0
71.2931,-78.54,-0.398508,0
71.9723,-79.3502,-0.401076,0
73.175,-62.8992,-2.75816,174
73.4311,-62.6026,-2.83487,174
73.7078,-62.4843,-2.8906,174
77.551,-70.0341,-2.44651,174
92.9392,-66.3021,-4.47641,174
92.9603,-65.5462,-4.5481,174
90.4455,-63.0916,-4.56356,174
90.195,-62.2909,-4.61437,174
90.1772,-61.6679,-4.66712,174
90.2804,-61.1335,-4.72069,174
91.9661,-61.4793,-4.82278,174
91.1116,-60.4168,-4.84362,174
91.6742,-60.1146,-4.91002,174
93.4291,-58.5235,-5.15629,0
91.7922,-57.3615,-5.1201,0
90.4602,-56.3941,-5.09112,0
88.9849,-55.4603,-5.04886,0
87.8493,-54.7017,-5.01802,0
86.8262,-54.0338,-4.98844,0
86.2509,-53.5223,-4.97924,0
85.8138,-53.0708,-4.97516,0
85.4033,-52.6485,-4.97049,0
85.061,-52.2591,-4.96788,0
84.7304,-51.8901,-4.9643,0
84.3443,-51.5329,-4.95579,0
84.0713,-51.2046,-4.9527,0
83.8708,-50.8944,-4.95292,0
83.6342,-50.5933,-4.94973,0
83.4002,-50.3037,-4.94562,0
83.1702,-50.0252,-4.94074,0
82.9727,-49.756,-4.93704,0
82.7823,-49.4952,-4.93293,0
82.5936,-49.2425,-4.92807,0
82.4062,-48.9975,-4.92252,0
82.2166,-48.7604,-4.91602,0
82.0055,-48.5341,-4.90727,0
81.8921,-48.2984,-4.90467,0
81.8353,-48.0545,-4.90546,0
81.7742,-47.8118,-4.9054,0
81.7091,-47.5704,-4.90448,0
81.6397,-47.3304,-4.90269,0
81.5662,-47.0918,-4.90006,0
81.4885,-46.8545,-4.89658,0
81.4321,-46.6096,-4.89408,0
81.3998,-46.354,-4.8928,0
81.3635,-46.0969,-4.89069,0
81.3691,-45.818,-4.89106,0
81.4423,-45.5013,-4.89578,0
81.5134,-45.1751,-4.89975,0
81.5827,-44.8389,-4.90291,0
77.3041,-70.0107,-2.2656,174
77.772,-69.8924,-2.343,174
92.8727,-66.6364,-4.24486,174
92.7245,-65.7471,-4.32015,174
92.9232,-65.1357,-4.39407,174
90.268,-62.6455,-4.4265,174
91.0652,-62.5239,-4.49703,174
90.3994,-61.496,-4.54061,174
90.4498,-60.9318,-4.59373,174
90.8205,-60.5512,-4.65258,174
91.3607,-60.2482,-4.71551,174
92.0754,-60.0102,-4.78389,174
92.0622,-59.4182,-4.82992,0
91.0775,-58.431,-4.84044,0
90.1269,-57.5219,-4.84608,0
88.8071,-56.5384,-4.83203,0
87.9419,-55.7871,-4.82958,0
86.9424,-55.0457,-4.81693,0
86.0526,-54.3931,-4.80431,0
85.6356,-53.9148,-4.80893,0
85.2374,-53.4662,-4.81203,0
84.8763,-53.0489,-4.8147,0
84.5394,-52.6572,-4.8166,0
84.1776,-52.2805,-4.81543,0
83.8297,-51.9255,-4.8132,0
83.612,-51.6042,-4.81627,0
83.4341,-51.2985,-4.82025,0
83.257,-51.0024,-4.82313,0
83.0596,-50.7147,-4.82382,0
82.8499,-50.4365,-4.82275,0
82.6637,-50.1683,-4.82201,0
82.4898,-49.9086,-4.82106,0
82.3169,-49.6566,-4.81928,0
82.1234,-49.4137,-4.81539,0
81.9127,-49.1807,-4.80961,0
81.7045,-48.9563,-4.80317,0
81.553,-48.7323,-4.79947,0
81.4027,-48.5136,-4.79515,0
81.3037,-48.2904,-4.79342,0
81.2486,-48.0604,-4.79387,0
81.1894,-47.8315,-4.79349,0
81.1262,-47.604,-4.79229,0
81.059,-47.3777,-4.79028,0
80.9935,-47.1509,-4.78781,0
80.9662,-46.9106,-4.78726,0
80.9351,-46.6692,-4.78591,0
80.9,-46.4266,-4.78374,0
80.8609,-46.1827,-4.78074,0
80.8194,-45.9371,-4.77698,0
80.8771,-45.6402,-4.77907,0
80.9323,-45.3349,-4.78035,0
71.793,-76.7918,-0.51424,0
72.4466,-77.6089,-0.504645,0
73.1378,-78.4019,-0.50279,0
73.8637,-79.1464,-0.511481,0
73.0987,-62.8081,-2.66538,174
73.3623,-62.5666,-2.73767,174
73.6369,-62.4408,-2.79487,174
77.4196,-69.9553,-2.28836,174
77.9242,-69.95,-2.35504,174
92.8116,-66.3823,-4.26505,174
92.7677,-65.5789,-4.33975,174
90.8603,-63.5238,-4.3891,174
90.2109,-62.4426,-4.44099,174
90.8681,-62.2342,-4.50875,174
90.2916,-61.2753,-4.55234,174
90.5354,-60.826,-4.60898,174
90.9498,-60.4666,-4.66876,174
91.5167,-60.1726,-4.73248,174
93.7032,-60.6178,-4.84584,0
91.7343,-59.1219,-4.83104,0
90.8627,-58.2006,-4.8437,0
89.6831,-57.2184,-4.83948,0
88.5746,-56.334,-4.83165,0
87.6716,-55.5841,-4.82642,0
86.6869,-54.8626,-4.8131,0
85.941,-54.2644,-4.80568,0
85.5292,-53.7941,-4.80988,0
85.1357,-53.3529,-4.81261,0
84.795,-52.9456,-4.81573,0
84.4429,-52.556,-4.8164,0
84.0848,-52.1851,-4.81494,0
83.7433,-51.836,-4.81261,0
83.5652,-51.5229,-4.81742,0
83.3876,-51.2197,-4.82111,0
83.2105,-50.9262,-4.82373,0
83.0042,-50.6405,-4.82362,0
82.7952,-50.3651,-4.82233,0
82.618,-50.0993,-4.82184,0
82.4443,-49.8416,-4.82067,0
82.2716,-49.5917,-4.81867,0
82.0677,-49.3516,-4.81395,0
81.8577,-49.1209,-4.80799,0
81.6634,-48.897,-4.80219,0
81.5134,-48.6743,-4.79841,0
81.363,-48.4571,-4.7939,0
81.2896,-48.2298,-4.79361,0
81.2334,-48.0001,-4.79385,0
81.1732,-47.7716,-4.79325,0
81.1089,-47.5443,-4.79185,0
81.0406,-47.3184,-4.78961,0
80.9867,-47.0878,-4.78774,0
80.9584,-46.8473,-4.78699,0
80.9262,-46.6055,-4.78542,0
80.8902,-46.3626,-4.78302,0
80.8501,-46.1185,-4.77981,0
80.8348,-45.8598,-4.7776,0
80.8919,-45.5607,-4.77949,0
80.9465,-45.2533,-4.78055,0
71.3355,-76.2593,-0.514479,0
71.9611,-77.0093,-0.5109,0
72.6235,-77.793,-0.506955,0
73.3245,-78.5897,-0.505695,0
74.068,-79.4253,-0.504006,0
73.1602,-62.6812,-2.69209,174
73.4341,-62.5288,-2.75337,174
73.7137,-62.4357,-2.80659,174
77.5349,-69.8999,-2.311,174
92.7328,-66.1179,-4.28475,174
92.8165,-65.4155,-4.35921,174
90.4053,-63.0407,-4.39998,174
90.198,-62.2706,-4.45586,174
90.6984,-61.9658,-4.52046,174
90.2955,-61.1223,-4.56608,174
90.6212,-60.7198,-4.62417,174
91.0828,-60.383,-4.68505,174
91.6763,-60.0972,-4.74959,174
92.8963,-60.0791,-4.83406,0
91.445,-58.848,-4.83293,0
90.6273,-57.9656,-4.84587,0
89.3489,-56.9632,-4.8364,0
88.3479,-56.1354,-4.83116,0
87.4096,-55.3879,-4.82325,0
86.4392,-54.6857,-4.80931,0
85.8309,-54.1378,-4.80694,0
85.4241,-53.6755,-4.81074,0
85.0391,-53.2423,-4.81328,0
84.7143,-52.8436,-4.81667,0
84.3473,-52.4564,-4.81612,0
83.993,-52.0913,-4.81439,0
83.6965,-51.7527,-4.81399,0
83.5184,-51.4423,-4.8185,0
83.341,-51.1417,-4.8219,0
83.16,-50.8503,-4.82402,0
82.949,-50.5671,-4.82337,0
82.7465,-50.2944,-4.82216,0
82.5722,-50.0308,-4.82161,0
82.3988,-49.7752,-4.82022,0
82.2243,-49.5274,-4.81789,0
82.0123,-49.2902,-4.81244,0
81.8029,-49.0617,-4.80631,0
81.6241,-48.8379,-4.80127,0
81.474,-48.6166,-4.79729,0
81.3285,-48.4,-4.79292,0
81.2753,-48.1693,-4.79377,0
81.218,-47.9399,-4.79378,0
81.1566,-47.7117,-4.79297,0
81.0913,-47.4849,-4.79133,0
81.022,-47.2593,-4.78887,0
80.9796,-47.0247,-4.78762,0
80.9504,-46.7839,-4.78665,0
80.9172,-46.5418,-4.78487,0
80.8801,-46.2986,-4.78227,0
80.8389,-46.0541,-4.77883,0
80.85,-45.782,-4.77818,0
80.9065,-45.4808,-4.77986,0
80.9604,-45.1711,-4.78069,0
77.2982,-69.906,-2.12866,174
77.7862,-69.8581,-2.19856,174
92.6893,-66.4653,-4.05445,174
92.5772,-65.6109,-4.13351,174
92.8264,-65.0409,-4.20827,174
90.1913,-62.572,-4.26589,174
90.0863,-61.8869,-4.32429,174
90.0805,-61.2854,-4.38017,174
90.3738,-60.8693,-4.43746,174
90.8446,-60.545,-4.49671,174
90.3987,-59.7445,-4.53803,0
89.7587,-58.8909,-4.57046,0
88.963,-58.016,-4.59386,0
87.9626,-57.1099,-4.60625,0
87.2169,-56.3676,-4.61983,0
86.4493,-55.6652,-4.62805,0
85.5995,-54.9825,-4.62914,0
85.2102,-54.4939,-4.64156,0
84.8513,-54.0391,-4.65248,0
84.5064,-53.6107,-4.66157,0
84.1123,-53.1919,-4.66657,0
83.7892,-52.8111,-4.67226,0
83.477,-52.4511,-4.67654,0
83.2433,-52.1217,-4.68251,0
83.087,-51.8164,-4.6905,0
82.9305,-51.5204,-4.6973,0
82.7735,-51.2332,-4.70297,0
82.6165,-50.9545,-4.70753,0
82.436,-50.683,-4.7099,0
82.2777,-50.421,-4.71237,0
82.0926,-50.1667,-4.71252,0
81.899,-49.9212,-4.71127,0
81.707,-49.6844,-4.70919,0
81.5167,-49.456,-4.70632,0
81.339,-49.2346,-4.70328,0
81.203,-49.0154,-4.70174,0
81.0661,-48.8015,-4.69944,0
80.9283,-48.5928,-4.69639,0
80.7998,-48.3872,-4.6932,0
80.7478,-48.169,-4.6937,0
80.692,-47.9521,-4.69341,0
80.6323,-47.7363,-4.69232,0
80.582,-47.5179,-4.69119,0
80.5577,-47.2906,-4.691,0
80.5297,-47.0623,-4.69002,0
80.4979,-46.833,-4.68826,0
80.4622,-46.6028,-4.68569,0
80.4227,-46.3715,-4.68232,0
80.3793,-46.1393,-4.67812,0
80.346,-45.8993,-4.67389,0
80.3892,-45.6162,-4.67333,0
71.7928,-74.6019,-0.639382,0
72.3898,-75.2502,-0.639484,0
73.0175,-75.8918,-0.643893,0
73.6728,-76.4887,-0.657585,0
74.3877,-77.356,-0.639157,0
73.0952,-62.6684,-2.59172,174
73.3656,-62.4931,-2.65689,174
73.6438,-62.3966,-2.71096,174
77.0979,-70.5049,-2.01698,174
77.4234,-69.8847,-2.14798,174
77.9349,-69.9052,-2.2109,174
92.6816,-66.2539,-4.07563,174
92.631,-65.452,-4.15338,174
90.7869,-63.449,-4.22179,174
90.1417,-62.3751,-4.28147,174
90.0849,-61.7273,-4.33926,174
90.1358,-61.1635,-4.39507,174
90.4881,-60.7801,-4.4529,174
90.974,-60.4604,-4.51236,174
90.227,-59.5137,-4.54701,0
89.6103,-58.6839,-4.57853,0
88.6729,-57.7595,-4.59706,0
87.7603,-56.9075,-4.61011,0
87.0226,-56.1812,-4.62265,0
86.2166,-55.4775,-4.6285,0
85.4845,-54.8473,-4.63224,0
85.1145,-54.3717,-4.64462,0
84.7594,-53.9241,-4.65504,0
84.3956,-53.4966,-4.66282,0
84.0263,-53.0897,-4.6682,0
83.7061,-52.7145,-4.67352,0
83.3966,-52.3598,-4.67744,0
83.2023,-52.0405,-4.68473,0
83.0459,-51.7377,-4.6924,0
82.8892,-51.4441,-4.69889,0
82.7323,-51.1591,-4.70426,0
82.5752,-50.8827,-4.70856,0
82.3943,-50.6134,-4.71065,0
82.2363,-50.3534,-4.71287,0
82.0416,-50.1013,-4.71228,0
81.8483,-49.8581,-4.71081,0
81.6568,-49.6236,-4.7085,0
81.467,-49.3973,-4.70543,0
81.3034,-49.1764,-4.70296,0
81.1671,-48.9587,-4.70121,0
81.03,-48.7462,-4.69871,0
80.892,-48.5388,-4.69548,0
80.7865,-48.3297,-4.69341,0
80.7335,-48.1119,-4.69371,0
80.6767,-47.8953,-4.6932,0
80.616,-47.6798,-4.69191,0
80.5759,-47.4583,-4.69121,0
80.5507,-47.2307,-4.69082,0
80.5217,-47.0021,-4.68964,0
80.4889,-46.7726,-4.68766,0
80.4523,-46.5421,-4.68488,0
80.4117,-46.3106,-4.6813,0
80.3672,-46.0781,-4.67688,0
80.3577,-45.8256,-4.67382,0
80.4002,-45.5406,-4.67304,0
71.3723,-74.119,-0.642179,0
71.9469,-74.7762,-0.638517,0
72.5481,-75.3372,-0.65174,0
73.1867,-76.0477,-0.647331,0
73.8521,-76.6681,-0.658698,0
72.9248,-63.0872,-2.5052,174
73.1637,-62.5987,-2.61198,174
73.4372,-62.4569,-2.67253,174
73.7208,-62.3946,-2.72222,174
77.0817,-69.9762,-2.09027,174
77.5487,-69.8634,-2.16726,174
92.5299,-65.9368,-4.09699,174
92.685,-65.2939,-4.17308,174
90.417,-63.025,-4.23749,174
90.0927,-62.1808,-4.29676,174
90.0835,-61.5687,-4.35403,174
90.2205,-61.0588,-4.41023,174
90.6133,-60.6962,-4.46849,174
90.8275,-60.2319,-4.523,0
90.0577,-59.2875,-4.55566,0
89.494,-58.4947,-4.58703,0
88.392,-57.5121,-4.6,0
87.5627,-56.7105,-4.61376,0
86.8304,-55.9988,-4.62523,0
85.9909,-55.2959,-4.62883,0
85.3856,-54.7195,-4.63569,0
85.0198,-54.2514,-4.64754,0
84.6684,-53.8108,-4.65747,0
84.2773,-53.3822,-4.66363,0
83.9412,-52.9891,-4.66974,0
83.6238,-52.6194,-4.67468,0
83.3173,-52.2698,-4.67828,0
83.1612,-51.96,-4.68686,0
83.0047,-51.6597,-4.69423,0
82.848,-51.3683,-4.70042,0
82.6911,-51.0857,-4.70549,0
82.5255,-50.8109,-4.7091,0
82.3527,-50.5443,-4.71133,0
82.1851,-50.2863,-4.71281,0
81.9906,-50.0366,-4.71197,0
81.7978,-49.7957,-4.71028,0
81.6068,-49.5634,-4.70778,0
81.4174,-49.3392,-4.7045,0
81.2676,-49.1187,-4.70257,0
81.1311,-48.9023,-4.70062,0
80.9938,-48.6912,-4.69793,0
80.8555,-48.4851,-4.69451,0
80.7729,-48.2724,-4.69357,0
80.719,-48.0548,-4.69365,0
80.6612,-47.8385,-4.69294,0
80.5994,-47.6234,-4.69143,0
80.5697,-47.3986,-4.69119,0
80.5434,-47.1707,-4.69058,0
80.5134,-46.9419,-4.68919,0
80.4796,-46.7121,-4.687,0
80.442,-46.4813,-4.68402,0
80.4004,-46.2496,-4.68021,0
80.3549,-46.0168,-4.67558,0
80.3691,-45.7514,-4.6737,0
80.4108,-45.4645,-4.6727,0
76.8477,-69.9849,-1.90777,174
77.3171,-69.8853,-1.98366,174
77.8112,-69.857,-2.05076,174
92.5092,-66.2974,-3.86751,174
92.5176,-65.539,-3.94877,174
92.7326,-64.9486,-4.02436,0
90.0798,-62.4757,-4.1069,174
89.8745,-61.7328,-4.16811,174
89.4959,-60.9176,-4.22439,0
89.166,-60.1693,-4.2758,0
88.7875,-59.4296,-4.32225,0
87.8984,-58.4685,-4.35832,0
87.0866,-57.6072,-4.38867,0
86.4101,-56.8625,-4.41528,0
85.7848,-56.1858,-4.43788,0
85.1309,-55.5399,-4.45549,0
84.7602,-55.0391,-4.47536,0
84.4407,-54.5811,-4.49366,0
84.132,-54.1485,-4.50975,0
83.7592,-53.7179,-4.5217,0
83.3835,-53.3096,-4.53116,0
83.1064,-52.9471,-4.5415,0
82.8694,-52.6098,-4.55136,0
82.7341,-52.306,-4.56316,0
82.5976,-52.0108,-4.57366,0
82.4602,-51.7241,-4.58294,0
82.3217,-51.4455,-4.59103,0
82.1771,-51.1743,-4.59778,0
82.0137,-50.9096,-4.60271,0
81.8385,-50.6529,-4.60609,0
81.6641,-50.405,-4.60847,0
81.4908,-50.1654,-4.60991,0
81.3182,-49.9338,-4.61046,0
81.1465,-49.7101,-4.61016,0
80.9979,-49.4921,-4.61007,0
80.8746,-49.278,-4.61038,0
80.7501,-49.0688,-4.60991,0
80.6244,-48.8644,-4.60866,0
80.4975,-48.6648,-4.60669,0
80.3695,-48.4697,-4.604,0
80.2961,-48.2671,-4.60334,0
80.2434,-48.0608,-4.60312,0
80.2066,-47.8504,-4.6031,0
80.1852,-47.6346,-4.60328,0
80.1602,-47.418,-4.60272,0
80.1317,-47.2006,-4.60138,0
80.0994,-46.9823,-4.59929,0
80.0635,-46.7632,-4.59641,0
80.0238,-46.5433,-4.59274,0
79.9803,-46.3227,-4.58826,0
79.9329,-46.1012,-4.58298,0
79.9054,-45.8668,-4.57801,0
71.7873,-72.3922,-0.798722,0
72.3356,-73.0987,-0.777277,0
72.8914,-73.3833,-0.820568,0
73.4598,-73.6442,-0.867951,0
74.0412,-73.8931,-0.917599,0
73.1,-62.5927,-2.51135,174
73.369,-62.4204,-2.57689,174
73.6506,-62.3526,-2.62747,174
73.9933,-62.5871,-2.63983,174
77.5248,-76.647,-0.994445,0
78.3149,-77.1849,-1.01966,0
76.9806,-69.9933,-1.9239,174
77.4425,-69.8649,-2.00278,174
78.011,-70.0584,-2.04596,174
92.4012,-66.0123,-3.89076,174
92.5769,-65.385,-3.96886,174
90.7478,-63.3979,-4.05574,174
90.0054,-62.2641,-4.12348,174
89.874,-61.5758,-4.18349,174
89.452,-60.7425,-4.23853,0
89.0655,-59.9708,-4.28845,0
88.6834,-59.2388,-4.33364,0
87.641,-58.2147,-4.36635,0
86.9035,-57.4044,-4.39608,0
86.241,-56.6785,-4.42158,0
85.628,-56.0182,-4.44323,0
85.003,-55.394,-4.46035,0
84.6752,-54.9161,-4.4804,0
84.3586,-54.465,-4.49809,0
84.0527,-54.0387,-4.51363,0
83.6555,-53.6071,-4.52426,0
83.3099,-53.2125,-4.53404,0
83.0348,-52.8549,-4.54396,0
82.834,-52.5291,-4.55459,0
82.6983,-52.2276,-4.56604,0
82.5616,-51.9347,-4.57622,0
82.4238,-51.6501,-4.58518,0
82.2852,-51.3736,-4.59297,0
82.1367,-51.1041,-4.59929,0
81.9676,-50.8413,-4.6037,0
81.7927,-50.5869,-4.6068,0
81.6186,-50.3412,-4.60894,0
81.4453,-50.1038,-4.61014,0
81.273,-49.8743,-4.61047,0
81.1015,-49.6525,-4.60994,0
80.9656,-49.4354,-4.61023,0
80.842,-49.2225,-4.61032,0
80.7172,-49.0146,-4.60965,0
80.5911,-48.8115,-4.60821,0
80.4639,-48.6131,-4.60605,0
80.3358,-48.4192,-4.60318,0
80.2826,-48.2128,-4.60336,0
80.2288,-48.0068,-4.60293,0
80.2013,-47.7938,-4.60323,0
80.179,-47.5778,-4.6032,0
80.153,-47.3609,-4.60244,0
80.1236,-47.1433,-4.60091,0
80.0904,-46.9248,-4.59861,0
80.0535,-46.7055,-4.59552,0
80.0127,-46.4854,-4.59164,0
79.9682,-46.2645,-4.58696,0
79.9198,-46.0428,-4.58145,0
79.9136,-45.7964,-4.57735,0
71.4044,-71.8841,-0.815041,0
71.9281,-72.5759,-0.79301,0
72.4808,-73.1838,-0.787067,0
73.0396,-73.453,-0.832804,0
73.6114,-73.7108,-0.880778,0
72.9264,-62.9694,-2.42789,174
73.1682,-62.5249,-2.53173,174
73.4409,-62.3893,-2.592,174
73.7286,-62.3569,-2.63782,174
76.9246,-76.0665,-1.00014,0
77.7318,-76.7996,-0.999479,0
76.7571,-70.5363,-1.81297,174
77.0919,-69.9241,-1.94874,174
77.568,-69.8444,-2.02184,174
92.4246,-65.8292,-3.91187,174
92.638,-65.2328,-3.98875,174
90.4286,-63.0093,-4.07499,174
89.9339,-62.0569,-4.1397,174
89.7327,-61.3341,-4.19846,0
89.3493,-60.5354,-4.25212,0
88.9658,-59.7753,-4.30078,0
88.3953,-58.9552,-4.34285,0
87.4132,-57.98,-4.37429,0
86.7242,-57.2067,-4.40319,0
86.0755,-56.499,-4.42761,0
85.4744,-55.8545,-4.44835,0
84.9157,-55.2658,-4.46585,0
84.5909,-54.7951,-4.48526,0
84.2772,-54.3507,-4.50238,0
83.95,-53.9234,-4.51673,0
83.5533,-53.4982,-4.52671,0
83.2369,-53.1167,-4.5368,0
82.9638,-52.764,-4.5463,0
82.7984,-52.449,-4.55773,0
82.6624,-52.1498,-4.56884,0
82.5254,-51.8591,-4.57869,0
82.3874,-51.5767,-4.58734,0
82.2486,-51.3023,-4.59483,0
82.0962,-51.0345,-4.60071,0
81.9215,-50.7736,-4.60461,0
81.7468,-50.5215,-4.60746,0
81.573,-50.278,-4.60935,0
81.3999,-50.0427,-4.61031,0
81.2278,-49.8153,-4.6104,0
81.0566,-49.5955,-4.60967,0
80.9333,-49.3789,-4.61034,0
80.8093,-49.1674,-4.61022,0
80.6841,-48.9607,-4.60935,0
80.5578,-48.7589,-4.60772,0
80.4304,-48.5617,-4.60537,0
80.3198,-48.3653,-4.60319,0
80.2688,-48.1585,-4.60333,0
80.2155,-47.9525,-4.60276,0
80.1959,-47.7371,-4.60329,0
80.1725,-47.5209,-4.60309,0
80.1457,-47.3038,-4.60211,0
80.1152,-47.0859,-4.60038,0
80.0811,-46.8672,-4.59787,0
80.0431,-46.6477,-4.59459,0
80.0015,-46.4274,-4.59049,0
79.9559,-46.2064,-4.58558,0
79.9065,-45.9845,-4.57986,0
79.923,-45.725,-4.57667,0
76.8681,-69.9681,-1.7625,174
77.3388,-69.8738,-1.83755,174
77.8437,-69.8788,-1.89999,174
79.9866,-74.5323,-1.44102,0
80.6368,-74.5547,-1.51534,0
81.4552,-74.9626,-1.54854,0
82.3183,-75.3942,-1.58144,0
82.9663,-75.2754,-1.6715,0
83.6071,-75.1248,-1.76361,0
84.2298,-74.9247,-1.85924,0
84.857,-74.7226,-1.95372,0
81.4825,-67.5749,-2.65271,174
86.1413,-74.3333,-2.13776,0
86.687,-73.9675,-2.24204,0
87.2272,-73.5946,-2.34487,0
87.8712,-73.3689,-2.43471,0
88.4987,-73.1063,-2.52622,0
88.827,-72.448,-2.64373,0
89.1002,-71.7455,-2.7606,0
89.3185,-71.0056,-2.87601,0
89.5619,-70.3225,-2.98411,0
89.8423,-69.7021,-3.08516,0
90.0831,-69.0586,-3.18431,0
90.2788,-68.3899,-3.28146,0
90.1103,-67.4057,-3.38953,0
89.9852,-66.5085,-3.48838,0
89.748,-65.5588,-3.58419,0
88.9202,-64.1832,-3.6891,0
88.8499,-63.4738,-3.76485,0
88.6306,-62.684,-3.83884,0
88.3485,-61.8869,-3.90841,0
88.2721,-61.2633,-3.97005,0
88.1467,-60.6313,-4.02842,0
87.7241,-59.8466,-4.08455,0
86.7009,-58.765,-4.13662,0
86.1469,-58.0079,-4.18056,0
85.5798,-57.2884,-4.21918,0
85.05,-56.6291,-4.253,0
84.5672,-56.0295,-4.28273,0
84.2862,-55.5488,-4.31074,0
84.0062,-55.0906,-4.33593,0
83.7341,-54.6564,-4.35861,0
83.4178,-54.2272,-4.37806,0
83.0677,-53.8088,-4.39439,0
82.7334,-53.417,-4.4086,0
82.4898,-53.0696,-4.42263,0
82.3748,-52.7681,-4.43801,0
82.258,-52.4747,-4.45203,0
82.1298,-52.1875,-4.46446,0
81.998,-51.9081,-4.47556,0
81.8647,-51.6367,-4.48543,0
81.7295,-51.3731,-4.49409,0
81.5742,-51.1152,-4.50102,0
81.419,-50.8657,-4.50686,0
81.2637,-50.6243,-4.51166,0
81.1086,-50.3905,-4.51547,0
80.9536,-50.1642,-4.51834,0
80.7988,-49.9451,-4.52032,0
80.6769,-49.7314,-4.52269,0
80.5653,-49.5221,-4.52468,0
80.4522,-49.3175,-4.52586,0
80.3377,-49.1174,-4.52627,0
80.2216,-48.9217,-4.52592,0
80.1044,-48.7304,-4.52484,0
79.9858,-48.5433,-4.52304,0
79.8865,-48.356,-4.52142,0
79.862,-48.1532,-4.52232,0
79.8436,-47.9478,-4.5229,0
79.8217,-47.7416,-4.52276,0
79.7963,-47.5347,-4.52188,0
79.7674,-47.3271,-4.52025,0
79.7364,-47.1183,-4.51795,0
79.7021,-46.9086,-4.51488,0
79.6644,-46.6982,-4.51106,0
79.623,-46.4869,-4.50647,0
79.5781,-46.2748,-4.50107,0
79.5159,-46.0688,-4.49433,0
71.7723,-69.9065,-1.03352,0
72.2618,-70.5778,-1.00314,0
72.7636,-70.9381,-1.02354,0
73.2778,-71.232,-1.05512,0
72.8669,-63.014,-2.31689,174
73.1057,-62.5249,-2.43076,174
73.373,-62.3528,-2.49706,174
73.6574,-62.3089,-2.5444,174
73.998,-62.5363,-2.55546,174
76.7291,-73.0585,-1.2564,0
76.5779,-70.2562,-1.67925,174
76.9987,-69.9686,-1.77929,174
77.4625,-69.8483,-1.85717,174
78.1594,-70.4284,-1.85359,174
80.1571,-74.5405,-1.46033,0
80.812,-74.5665,-1.53418,0
81.6888,-75.1011,-1.55433,0
82.4842,-75.3546,-1.60607,0
83.1362,-75.2406,-1.69534,0
83.7727,-75.077,-1.78841,0
84.39,-74.8638,-1.88492,0
85.0438,-74.7072,-1.97497,0
81.5766,-67.493,-2.67387,174
86.2861,-74.2393,-2.16518,0
86.8279,-73.8678,-2.2694,0
87.3975,-73.5382,-2.36836,0
88.0386,-73.3045,-2.45853,0
88.5904,-72.9379,-2.55712,0
88.9042,-72.2674,-2.67454,0
89.1628,-71.5544,-2.7911,0
89.3668,-70.8057,-2.90601,0
89.6364,-70.1587,-3.01101,0
89.9101,-69.5358,-3.11138,0
90.139,-68.8851,-3.21005,0
90.3227,-68.2106,-3.30661,0
90.0807,-67.1687,-3.41605,0
89.9469,-66.275,-3.51343,0
89.5554,-65.2091,-3.61217,0
88.8387,-63.944,-3.71113,0
88.8516,-63.3074,-3.78353,0
88.5376,-62.4572,-3.85802,0
88.3295,-61.7214,-3.92497,0
88.2504,-61.1021,-3.98565,0
88.0663,-60.4399,-4.04348,0
87.4795,-59.5691,-4.09899,0
86.5603,-58.5644,-4.1487,0
85.9941,-57.8126,-4.19121,0
85.4373,-57.1096,-4.2285,0
84.9165,-56.465,-4.26117,0
84.4902,-55.8996,-4.29034,0
84.2119,-55.426,-4.31761,0
83.934,-54.9742,-4.34213,0
83.6637,-54.546,-4.36417,0
83.3242,-54.1145,-4.38258,0
82.9784,-53.7033,-4.39832,0
82.6559,-53.3204,-4.41217,0
82.4598,-52.9896,-4.4268,0
82.3443,-52.6902,-4.44182,0
82.2262,-52.3988,-4.45547,0
82.0953,-52.1133,-4.4675,0
81.963,-51.836,-4.47826,0
81.8295,-51.5667,-4.48782,0
81.6887,-51.3045,-4.49603,0
81.5334,-51.0489,-4.50266,0
81.3782,-50.8015,-4.50822,0
81.223,-50.5621,-4.51276,0
81.0679,-50.3303,-4.51631,0
80.9129,-50.1059,-4.51895,0
80.7582,-49.8887,-4.52069,0
80.6477,-49.6759,-4.52329,0
80.5357,-49.4679,-4.52507,0
80.4223,-49.2644,-4.52604,0
80.3073,-49.0655,-4.52625,0
80.1909,-48.871,-4.5257,0
80.0733,-48.6808,-4.52443,0
79.9544,-48.4949,-4.52246,0
79.8737,-48.3042,-4.52144,0
79.8575,-48.0993,-4.52254,0
79.8381,-47.8937,-4.52293,0
79.8154,-47.6873,-4.52259,0
79.7891,-47.4802,-4.52152,0
79.7595,-47.2724,-4.51971,0
79.7277,-47.0633,-4.51722,0
79.6926,-46.8534,-4.51395,0
79.6539,-46.6427,-4.50993,0
79.6116,-46.4312,-4.50512,0
79.5657,-46.2189,-4.49952,0
79.4942,-46.0171,-4.49224,0
71.4316,-69.4234,-1.05637,0
71.8978,-70.0811,-1.02546,0
72.3938,-70.7135,-1.00203,0
72.8973,-71.0166,-1.03156,0
73.4153,-71.307,-1.06389,0
72.928,-62.8535,-2.3518,174
73.1727,-62.4519,-2.45225,174
73.4473,-62.3383,-2.50999,174
73.7379,-62.328,-2.55263,174
76.2656,-72.8206,-1.23132,0
76.8987,-73.1501,-1.26465,0
76.6716,-70.1127,-1.71416,174
77.1163,-69.922,-1.80168,174
77.588,-69.8278,-1.87611,174
79.6727,-74.4938,-1.4088,0
80.328,-74.5471,-1.47981,0
81.0392,-74.7089,-1.53898,0
81.9245,-75.2379,-1.56049,0
82.657,-75.3295,-1.62913,0
83.3052,-75.2024,-1.71944,0
83.9369,-75.0258,-1.81346,0
84.5488,-74.7997,-1.91078,0
85.2295,-74.6878,-1.99655,0
81.6852,-67.4358,-2.69279,174
86.43,-74.1438,-2.1926,0
86.9678,-73.7664,-2.29675,0
87.5671,-73.4797,-2.39194,0
88.2052,-73.238,-2.48243,0
88.6782,-72.7663,-2.58801,0
88.9776,-72.084,-2.70529,0
89.2216,-71.3609,-2.82149,0
89.4198,-70.6132,-2.93529,0
89.7121,-69.9973,-3.03757,0
89.9746,-69.3674,-3.13749,0
90.1916,-68.7101,-3.23565,0
90.2259,-67.8999,-3.33768,0
90.0487,-66.9326,-3.44218,0
89.9064,-66.0427,-3.53809,0
89.3256,-64.8349,-3.64046,0
88.8438,-63.7759,-3.7305,0
88.7991,-63.1019,-3.80308,0
88.4448,-62.2336,-3.87676,0
88.3096,-61.5571,-3.94127,0
88.2281,-60.942,-4.001,0
87.9863,-60.2511,-4.0582,0
87.2418,-59.3006,-4.11281,0
86.4217,-58.368,-4.16039,0
85.844,-57.6218,-4.2015,0
85.297,-56.9348,-4.23752,0
84.7851,-56.3044,-4.26905,0
84.422,-55.7751,-4.29784,0
84.138,-55.3049,-4.32431,0
83.8622,-54.8595,-4.34815,0
83.5897,-54.4358,-4.36951,0
83.2318,-54.0038,-4.38692,0
82.8901,-53.5997,-4.40211,0
82.5934,-53.2292,-4.41594,0
82.4296,-52.9101,-4.43089,0
82.3137,-52.6129,-4.44554,0
82.1919,-52.3229,-4.45875,0
82.0607,-52.0396,-4.47045,0
81.928,-51.7645,-4.4809,0
81.7941,-51.4972,-4.49014,0
81.6479,-51.2365,-4.49787,0
81.4927,-50.9831,-4.50422,0
81.3373,-50.7378,-4.5095,0
81.1822,-50.5004,-4.51378,0
81.0271,-50.2707,-4.5171,0
80.8722,-50.0482,-4.51949,0
80.7293,-49.8323,-4.52146,0
80.6185,-49.6208,-4.52383,0
80.5061,-49.414,-4.52539,0
80.3922,-49.2117,-4.52617,0
80.2768,-49.014,-4.52618,0
80.1602,-48.8206,-4.52544,0
80.0422,-48.6315,-4.52398,0
79.923,-48.4467,-4.52182,0
79.8697,-48.2505,-4.52179,0
79.8527,-48.0453,-4.52271,0
79.8325,-47.8395,-4.52291,0
79.8088,-47.6329,-4.52237,0
79.7816,-47.4257,-4.52111,0
79.7515,-47.2175,-4.51913,0
79.7189,-47.0082,-4.51643,0
79.6827,-46.7981,-4.51298,0
79.6431,-46.5872,-4.50874,0
79.5999,-46.3755,-4.50373,0
79.553,-46.1629,-4.49792,0
79.4723,-45.9655,-4.49009,0
76.8892,-69.9539,-1.6168,174
77.3633,-69.8717,-1.6901,174
77.9708,-70.1905,-1.71295,174
78.8394,-71.1828,-1.65661,0
79.4689,-71.3827,-1.69822,0
80.116,-71.5754,-1.74135,0
80.7046,-71.5841,-1.8055,0
81.2877,-71.5545,-1.87342,0
81.8362,-71.4311,-1.95061,0
82.357,-71.2415,-2.03347,0
82.8208,-70.9411,-2.1259,0
81.4175,-67.4177,-2.52408,174
81.8481,-67.2355,-2.59216,174
84.078,-69.8485,-2.40888,0
84.4514,-69.4316,-2.50343,0
84.8223,-69.0222,-2.595,0
85.221,-68.6592,-2.68056,0
85.5946,-68.2681,-2.76637,0
85.8401,-67.7267,-2.86135,0
86.0191,-67.1266,-2.95763,0
86.1821,-66.5322,-3.05031,0
86.3413,-65.9561,-3.13866,0
86.5156,-65.4157,-3.2218,0
86.697,-64.899,-3.30079,0
86.853,-64.3731,-3.37773,0
86.9837,-63.8399,-3.45245,0
87.0898,-63.3014,-3.52481,0
87.0976,-62.6998,-3.5974,0
87.0718,-62.0942,-3.66707,0
87.0241,-61.4948,-3.73338,0
86.9687,-60.912,-3.79598,0
86.2134,-59.8903,-3.86911,0
85.6134,-59.0308,-3.93128,0
85.1964,-58.3318,-3.98424,0
84.7357,-57.6463,-4.03258,0
84.3323,-57.03,-4.07549,0
83.9727,-56.4693,-4.11388,0
83.7716,-56.0129,-4.14818,0
83.5489,-55.566,-4.17971,0
83.313,-55.133,-4.20851,0
83.045,-54.7066,-4.23455,0
82.7327,-54.2842,-4.25766,0
82.4327,-53.8874,-4.27829,0
82.13,-53.5097,-4.29648,0
81.9867,-53.197,-4.31462,0
81.8798,-52.9045,-4.33175,0
81.7703,-52.6198,-4.34749,0
81.6587,-52.3428,-4.36188,0
81.545,-52.0732,-4.37498,0
81.4293,-51.8109,-4.38686,0
81.2997,-51.5541,-4.39725,0
81.1631,-51.304,-4.40635,0
81.0259,-51.0616,-4.41434,0
80.888,-50.8265,-4.42127,0
80.7495,-50.5986,-4.42717,0
80.6105,-50.3775,-4.43211,0
80.4727,-50.1632,-4.43616,0
80.3737,-49.9542,-4.44051,0
80.273,-49.7496,-4.44403,0
80.1704,-49.5495,-4.44673,0
80.0662,-49.3535,-4.44863,0
79.9604,-49.1618,-4.44977,0
79.853,-48.9742,-4.45017,0
79.7416,-48.791,-4.44975,0
79.6181,-48.6139,-4.44826,0
79.5577,-48.4273,-4.44831,0
79.5401,-48.2313,-4.44922,0
79.5221,-48.034,-4.44954,0
79.5009,-47.836,-4.44916,0
