24.4063,-9.75972,0.408861,0
24.473,-9.70587,0.406409,0
24.5384,-9.65025,0.403997,0
24.6024,-9.59287,0.401605,0
24.6649,-9.53381,0.399261,0
24.7259,-9.47305,0.396946,0
24.7852,-9.41068,0.394681,0
24.843,-9.34672,0.392445,0
24.8991,-9.28122,0.390257,0
24.9535,-9.21421,0.388109,0
25.0062,-9.14577,0.386019,0
25.057,-9.07594,0.383978,0
25.106,-9.00473,0.381966,0
25.1531,-8.93225,0.380023,0
25.1997,-8.8593,0.378597,0
25.2474,-8.78671,0.378236,0
25.2933,-8.71283,0.377952,0
25.3372,-8.63771,0.377737,0
25.3794,-8.56139,0.37762,0
25.4199,-8.48407,0.377679,0
25.4599,-8.40622,0.378294,0
25.498,-8.32721,0.378939,0
25.5339,-8.24707,0.379622,0
25.5677,-8.16592,0.380384,0
25.5993,-8.08377,0.381175,0
25.6287,-8.00071,0.382034,0
25.6559,-7.91681,0.382943,0
25.6808,-7.83208,0.38388,0
25.7035,-7.74664,0.384866,0
25.7237,-7.66054,0.385902,0
25.7418,-7.57386,0.386995,0
25.7574,-7.48665,0.388128,0
25.7706,-7.39898,0.3893,0
25.7815,-7.31094,0.390511,0
25.7899,-7.22262,0.39178,0
25.7959,-7.13404,0.393089,0
25.7995,-7.04532,0.394437,0
25.8006,-6.95648,0.395814,0
25.7994,-6.86765,0.397239,0
25.7957,-6.77888,0.398704,0
25.7895,-6.69025,0.400218,0
25.7809,-6.6018,0.401741,0
25.77,-6.51365,0.403304,0
25.7566,-6.42585,0.404915,0
25.7363,-6.33922,0.405228,0
25.713,-6.25343,0.405325,0
25.6875,-6.16841,0.405452,0
25.6597,-6.08425,0.405628,0
25.6297,-6.00103,0.405843,0
25.5976,-5.91877,0.406097,0
25.5633,-5.83752,0.406361,0
25.527,-5.75739,0.406693,0
25.4886,-5.6784,0.407044,0
25.4483,-5.60062,0.407445,0
25.4062,-5.52397,0.407923,0
25.3635,-5.44805,0.4089,0
25.3191,-5.37339,0.409935,0
21.8755,-10.4961,0.517142,0
21.957,-10.5019,0.512796,0
22.0387,-10.5058,0.508421,0
22.1206,-10.5077,0.504027,0
22.2026,-10.5076,0.499622,0
22.2846,-10.5055,0.495208,0
22.3666,-10.5013,0.490765,0
22.4487,-10.4951,0.486321,0
22.5305,-10.4869,0.481859,0
22.6123,-10.4766,0.477405,0
22.6938,-10.4643,0.472952,0
22.775,-10.45,0.468489,0
22.856,-10.4337,0.464036,0
22.9366,-10.4153,0.459583,0
23.0182,-10.3996,0.45681,0
23.0998,-10.3822,0.454124,0
23.1809,-10.3626,0.451429,0
23.2618,-10.3409,0.448734,0
23.3422,-10.3172,0.446038,0
23.4221,-10.2914,0.443353,0
23.5016,-10.2635,0.440657,0
23.5803,-10.2336,0.437982,0
23.6585,-10.2015,0.435306,0
23.7359,-10.1675,0.43265,0
23.8125,-10.1314,0.429993,0
23.8884,-10.0933,0.427357,0
23.9633,-10.0532,0.42473,0
24.0372,-10.0112,0.422122,0
24.1102,-9.96714,0.419534,0
24.182,-9.92117,0.416976,0
24.2529,-9.87331,0.414437,0
24.3223,-9.82356,0.411927,0
24.3907,-9.77195,0.409437,0
24.4578,-9.71852,0.406986,0
24.5234,-9.66332,0.404554,0
24.5877,-9.60634,0.402152,0
24.6505,-9.54766,0.399808,0
24.7119,-9.4873,0.397484,0
24.7716,-9.42528,0.395198,0
24.8298,-9.3617,0.392962,0
24.8862,-9.29654,0.390765,0
24.9411,-9.22989,0.388607,0
24.9941,-9.16178,0.386497,0
25.0453,-9.09226,0.384437,0
25.0948,-9.02137,0.382425,0
25.1423,-8.94915,0.380452,0
25.1884,-8.87594,0.378685,0
25.2365,-8.80366,0.378304,0
25.2827,-8.73008,0.378001,0
25.3272,-8.65524,0.377786,0
25.3698,-8.5792,0.37764,0
25.4104,-8.50199,0.377571,0
25.4509,-8.42439,0.378148,0
25.4894,-8.34564,0.378782,0
25.5258,-8.26576,0.379466,0
25.56,-8.18484,0.380198,0
25.5921,-8.1029,0.38098,0
25.622,-8.02005,0.38182,0
25.6498,-7.93634,0.382718,0
25.6752,-7.85181,0.383655,0
25.6984,-7.76652,0.384632,0
25.7193,-7.68056,0.385648,0
25.7378,-7.594,0.386732,0
25.754,-7.50691,0.387855,0
25.7678,-7.41936,0.389017,0
25.7791,-7.33143,0.390237,0
25.7881,-7.24312,0.391478,0
25.7948,-7.15461,0.392777,0
25.7989,-7.06591,0.394114,0
25.8006,-6.97711,0.395501,0
25.7999,-6.88826,0.396907,0
25.7967,-6.79946,0.398362,0
25.7912,-6.71078,0.399847,0
25.7832,-6.62229,0.40139,0
25.7727,-6.53407,0.402943,0
25.7598,-6.44617,0.404525,0
25.7414,-6.35922,0.405208,0
25.7186,-6.27326,0.405296,0
25.6936,-6.18806,0.405413,0
25.6663,-6.1037,0.405589,0
25.6368,-6.02024,0.405784,0
25.6052,-5.93775,0.406029,0
25.5714,-5.85628,0.406302,0
25.5355,-5.77588,0.406614,0
25.4977,-5.69662,0.406956,0
25.4577,-5.61854,0.407347,0
25.416,-5.54172,0.407767,0
25.3736,-5.46557,0.408685,0
25.3295,-5.39061,0.4097,0
25.2837,-5.31691,0.410765,0
21.8566,-10.4944,0.518138,0
21.9381,-10.5007,0.513802,0
22.0198,-10.5051,0.509437,0
22.1016,-10.5075,0.505062,0
22.1836,-10.5078,0.500648,0
22.2656,-10.5061,0.496234,0
22.3477,-10.5024,0.49179,0
22.4297,-10.4967,0.487357,0
22.5116,-10.489,0.482904,0
22.5933,-10.4792,0.478441,0
22.6748,-10.4674,0.473987,0
22.7563,-10.4535,0.469525,0
22.8372,-10.4377,0.465071,0
22.9179,-10.4198,0.460618,0
22.9993,-10.4034,0.457425,0
23.0808,-10.3864,0.454739,0
23.1622,-10.3673,0.452044,0
23.243,-10.3461,0.449359,0
23.3236,-10.3229,0.446663,0
23.4037,-10.2975,0.443968,0
23.4832,-10.2701,0.441282,0
23.5621,-10.2407,0.438607,0
23.6404,-10.2092,0.435921,0
23.718,-10.1756,0.433265,0
23.7948,-10.14,0.430609,0
23.8708,-10.1023,0.427962,0
23.946,-10.0627,0.425335,0
24.0202,-10.0211,0.422728,0
24.0934,-9.97753,0.42014,0
24.1655,-9.93201,0.417571,0
24.2365,-9.88458,0.415023,0
24.3064,-9.83526,0.412503,0
24.375,-9.78409,0.410013,0
24.4423,-9.73108,0.407542,0
24.5083,-9.67628,0.405111,0
24.5729,-9.61971,0.402708,0
24.6361,-9.56142,0.400345,0
24.6977,-9.50144,0.398011,0
24.7579,-9.43981,0.395716,0
24.8164,-9.37658,0.39347,0
24.8733,-9.31178,0.391263,0
24.9285,-9.24548,0.389105,0
24.982,-9.1777,0.386976,0
25.0337,-9.10851,0.384915,0
25.0835,-9.03792,0.382884,0
25.1315,-8.96603,0.380921,0
25.6927,-6.6779,0.401937,0
25.6838,-6.59175,0.403441,0
25.6726,-6.50586,0.404974,0
25.659,-6.42033,0.406536,0
25.6387,-6.33602,0.406761,0
25.6155,-6.25247,0.406849,0
25.5902,-6.16971,0.406986,0
25.5628,-6.08778,0.407161,0
25.5332,-6.00678,0.407376,0
25.5016,-5.92671,0.40763,0
25.468,-5.84765,0.407913,0
25.4322,-5.76964,0.408226,0
25.3951,-5.69256,0.408792,0
25.3569,-5.61631,0.409632,0
25.3168,-5.54116,0.41053,0
25.2749,-5.46723,0.411497,0
25.2312,-5.3945,0.412503,0
21.8966,-10.4191,0.515521,0
21.9763,-10.4243,0.511263,0
22.0562,-10.4275,0.506986,0
22.1363,-10.4289,0.502689,0
22.2165,-10.4282,0.498382,0
22.2966,-10.4256,0.494056,0
22.3768,-10.4209,0.48971,0
22.4569,-10.4144,0.485364,0
22.5369,-10.4058,0.481019,0
22.6166,-10.3952,0.476654,0
22.6963,-10.3827,0.472288,0
22.7756,-10.3682,0.467943,0
22.8546,-10.3517,0.463587,0
22.9333,-10.3333,0.459241,0
23.0129,-10.3171,0.456458,0
23.0924,-10.2994,0.453831,0
23.1716,-10.2796,0.451204,0
23.2504,-10.2578,0.448568,0
23.3288,-10.234,0.445941,0
23.4066,-10.2082,0.443314,0
23.4841,-10.1804,0.440687,0
23.5607,-10.1505,0.43807,0
23.6368,-10.1187,0.435472,0
23.7122,-10.0848,0.432874,0
23.7867,-10.049,0.430286,0
23.8605,-10.0112,0.427718,0
23.9334,-9.97152,0.425159,0
24.0052,-9.92989,0.42262,0
24.0762,-9.88637,0.420101,0
24.146,-9.84097,0.417601,0
24.2148,-9.79371,0.41513,0
24.2823,-9.74464,0.412689,0
24.3487,-9.69378,0.410277,0
24.4137,-9.64114,0.407884,0
24.4774,-9.58677,0.405521,0
24.5398,-9.5307,0.403187,0
24.6007,-9.47298,0.400902,0
24.6602,-9.41364,0.398655,0
24.718,-9.35271,0.396429,0
24.7745,-9.29024,0.394261,0
24.8291,-9.22628,0.392122,0
24.8822,-9.16085,0.390023,0
24.9335,-9.09403,0.387991,0
24.983,-9.02584,0.385989,0
25.0309,-8.95635,0.384036,0
25.0769,-8.88557,0.382122,0
25.1248,-8.81582,0.381654,0
25.1712,-8.74487,0.381302,0
25.2159,-8.67265,0.381019,0
25.2588,-8.59924,0.380833,0
25.2998,-8.52465,0.380706,0
25.3389,-8.44897,0.380667,0
25.3762,-8.37222,0.380706,0
25.4116,-8.29445,0.380823,0
25.4464,-8.21626,0.381507,0
25.4792,-8.13706,0.382239,0
25.5099,-8.05689,0.383021,0
25.5385,-7.97585,0.383841,0
25.5649,-7.89399,0.38473,0
25.5891,-7.81136,0.385657,0
25.6111,-7.72802,0.386624,0
25.6308,-7.64404,0.38764,0
25.6483,-7.55949,0.388695,0
25.6634,-7.47445,0.389808,0
25.6762,-7.38896,0.390941,0
25.6868,-7.30313,0.392152,0
25.6949,-7.21699,0.393372,0
25.7008,-7.13063,0.394642,0
25.7042,-7.0441,0.39595,0
25.7054,-6.95752,0.397318,0
25.7041,-6.87091,0.398704,0
25.7005,-6.78436,0.40013,0
25.6945,-6.69792,0.401585,0
25.6861,-6.6117,0.403079,0
25.6754,-6.52574,0.404612,0
25.6623,-6.44015,0.406165,0
25.6436,-6.35551,0.406741,0
25.6211,-6.27179,0.406829,0
25.5963,-6.18885,0.406956,0
25.5694,-6.10673,0.407132,0
25.5403,-6.02547,0.407318,0
25.5091,-5.94519,0.407562,0
25.4759,-5.86591,0.407855,0
25.4406,-5.78765,0.408148,0
25.4037,-5.7104,0.408587,0
25.3659,-5.63387,0.409417,0
25.3263,-5.5585,0.410316,0
25.2848,-5.48426,0.411253,0
25.2416,-5.41125,0.412259,0
21.8782,-10.4176,0.516507,0
21.9578,-10.4233,0.512259,0
22.0377,-10.427,0.507982,0
22.1177,-10.4287,0.503695,0
22.1978,-10.4285,0.499388,0
22.278,-10.4264,0.495062,0
22.3582,-10.4222,0.490726,0
22.4383,-10.4161,0.48637,0
22.5184,-10.4079,0.482025,0
22.5982,-10.3979,0.477669,0
22.6779,-10.3858,0.473314,0
22.7573,-10.3717,0.468958,0
22.8364,-10.3557,0.464603,0
22.9151,-10.3377,0.460257,0
22.9944,-10.3209,0.457064,0
23.074,-10.3037,0.454437,0
23.1533,-10.2844,0.45181,0
23.2321,-10.2631,0.449173,0
23.3106,-10.2397,0.446546,0
23.3887,-10.2144,0.443919,0
23.4661,-10.187,0.441292,0
23.543,-10.1576,0.438675,0
23.6192,-10.1262,0.436068,0
23.6948,-10.0928,0.43347,0
23.7695,-10.0575,0.430882,0
23.8434,-10.0202,0.428314,0
23.9166,-9.98092,0.425755,0
23.9887,-9.93973,0.423216,0
24.0598,-9.89663,0.420687,0
24.1299,-9.85168,0.418187,0
24.1989,-9.80483,0.415706,0
24.2668,-9.75619,0.413255,0
24.3334,-9.70574,0.410833,0
24.3988,-9.65351,0.408441,0
24.4628,-9.59954,0.406068,0
24.5255,-9.54387,0.403734,0
24.5867,-9.48652,0.401429,0
24.6465,-9.42755,0.399173,0
24.7048,-9.36698,0.396937,0
24.7615,-9.30486,0.394749,0
24.8166,-9.24124,0.392611,0
24.8701,-9.17615,0.390511,0
24.9218,-9.10967,0.38846,0
24.9717,-9.04177,0.386439,0
25.0199,-8.97258,0.384476,0
25.0663,-8.90213,0.382581,0
25.1138,-8.83209,0.381732,0
25.1606,-8.76145,0.38138,0
25.2057,-8.68953,0.381087,0
25.249,-8.61639,0.380872,0
25.2905,-8.54207,0.380736,0
25.3301,-8.46664,0.380677,0
25.3677,-8.39012,0.380687,0
25.4034,-8.31259,0.380794,0
25.4384,-8.23448,0.381341,0
25.4718,-8.15553,0.382073,0
25.503,-8.07559,0.382835,0
25.532,-7.99473,0.383646,0
25.5589,-7.91306,0.384525,0
25.5837,-7.8306,0.385433,0
25.6062,-7.7474,0.38639,0
25.6264,-7.66357,0.387396,0
25.6445,-7.57915,0.388441,0
25.6602,-7.49421,0.389525,0
25.6734,-7.40884,0.390677,0
25.6845,-7.32307,0.391859,0
25.6933,-7.23699,0.393079,0
25.6996,-7.15067,0.394349,0
25.7036,-7.06421,0.395657,0
25.7053,-6.97761,0.396995,0
25.7046,-6.89099,0.398362,0
25.7015,-6.80443,0.399798,0
25.6961,-6.71796,0.401243,0
25.6883,-6.63169,0.402737,0
25.678,-6.54566,0.404261,0
25.6655,-6.45996,0.405804,0
25.6486,-6.37503,0.406732,0
25.6265,-6.29115,0.40681,0
25.6022,-6.20802,0.406927,0
25.5759,-6.1257,0.407083,0
25.5473,-6.04426,0.407279,0
25.5166,-5.96374,0.407513,0
25.4837,-5.88421,0.407786,0
25.449,-5.80572,0.408089,0
25.4122,-5.7283,0.408411,0
25.3749,-5.65154,0.409232,0
25.3356,-5.57589,0.410111,0
25.2946,-5.50138,0.411038,0
25.2517,-5.42809,0.412025,0
25.2071,-5.35603,0.41306,0
21.8597,-10.416,0.517484,0
21.9393,-10.4221,0.513245,0
22.0191,-10.4263,0.508978,0
22.0991,-10.4285,0.504691,0
22.1792,-10.4287,0.500384,0
22.2595,-10.427,0.496068,0
22.3396,-10.4233,0.491741,0
22.4198,-10.4177,0.487386,0
22.4998,-10.41,0.48304,0
22.5797,-10.4004,0.478675,0
22.6595,-10.3888,0.47432,0
22.7389,-10.3752,0.469964,0
22.818,-10.3596,0.465609,0
22.8969,-10.3421,0.461253,0
22.9759,-10.3246,0.457669,0
23.0555,-10.3078,0.455042,0
23.1348,-10.289,0.452415,0
23.2139,-10.2682,0.449788,0
23.2924,-10.2453,0.447161,0
23.3705,-10.2204,0.444525,0
23.4482,-10.1935,0.441907,0
23.5252,-10.1646,0.43929,0
23.6016,-10.1337,0.436683,0
23.6773,-10.1008,0.434075,0
23.7522,-10.0659,0.431488,0
23.8264,-10.029,0.4289,0
23.8997,-9.99019,0.426341,0
23.972,-9.94944,0.423792,0
24.0434,-9.90681,0.421273,0
24.1137,-9.86226,0.418763,0
24.183,-9.81586,0.416273,0
24.2511,-9.76764,0.413821,0
24.318,-9.7176,0.41139,0
24.3837,-9.66579,0.408987,0
24.448,-9.61221,0.406605,0
24.5111,-9.55693,0.404271,0
24.5727,-9.49998,0.401966,0
24.6328,-9.44138,0.399691,0
24.6914,-9.38117,0.397454,0
24.7485,-9.31941,0.395257,0
24.8039,-9.25615,0.393109,0
24.8577,-9.19139,0.390989,0
24.9099,-9.12521,0.388919,0
24.9603,-9.05765,0.386907,0
25.0089,-8.98876,0.384935,0
25.0558,-8.91856,0.383001,0
25.6019,-6.68574,0.403255,0
25.5932,-6.60169,0.40471,0
25.5823,-6.51791,0.406204,0
25.569,-6.43447,0.407728,0
25.5501,-6.35206,0.408206,0
25.5277,-6.27053,0.408304,0
25.5032,-6.18975,0.408441,0
25.4766,-6.10976,0.408607,0
25.4479,-6.03062,0.408802,0
25.4172,-5.95244,0.409046,0
25.3855,-5.87491,0.409632,0
25.352,-5.79829,0.410345,0
25.3166,-5.72268,0.411107,0
25.2794,-5.64813,0.411937,0
25.2404,-5.57467,0.412816,0
25.1996,-5.50234,0.413743,0
25.1571,-5.43121,0.41473,0
21.8987,-10.3436,0.514925,0
21.9766,-10.3486,0.510765,0
22.0548,-10.3517,0.506595,0
22.133,-10.3529,0.502386,0
22.2114,-10.3522,0.498167,0
22.2898,-10.3495,0.493939,0
22.3683,-10.345,0.489691,0
22.4466,-10.3384,0.485443,0
22.5248,-10.33,0.481185,0
22.6028,-10.3196,0.476927,0
22.6806,-10.3073,0.472669,0
22.7581,-10.293,0.468411,0
22.8354,-10.2769,0.464153,0
22.9123,-10.2588,0.459905,0
22.9896,-10.2416,0.456712,0
23.0673,-10.2241,0.454154,0
23.1446,-10.2046,0.451585,0
23.2215,-10.1832,0.449007,0
23.298,-10.1598,0.446448,0
23.3741,-10.1344,0.44387,0
23.4496,-10.1071,0.441312,0
23.5245,-10.0778,0.438763,0
23.5987,-10.0465,0.436214,0
23.6723,-10.0134,0.433675,0
23.7452,-9.97826,0.431155,0
23.817,-9.94126,0.428646,0
23.8881,-9.90236,0.426146,0
23.9584,-9.8616,0.423675,0
24.0275,-9.81899,0.421214,0
24.0956,-9.77457,0.418782,0
24.1627,-9.72834,0.41637,0
24.2287,-9.68033,0.413987,0
24.2934,-9.63057,0.411624,0
24.3568,-9.5791,0.40929,0
24.4191,-9.52595,0.406986,0
24.4798,-9.47114,0.40472,0
24.5393,-9.41471,0.402474,0
24.5973,-9.35671,0.400277,0
24.6537,-9.29719,0.398118,0
24.7087,-9.23613,0.395989,0
24.7621,-9.17364,0.393909,0
24.8138,-9.10973,0.391868,0
24.8638,-9.04444,0.389857,0
24.9123,-8.97786,0.387923,0
24.9588,-8.90999,0.386019,0
25.006,-8.84224,0.384993,0
25.0529,-8.77411,0.384583,0
25.0982,-8.70473,0.384251,0
25.1417,-8.63412,0.383978,0
25.1834,-8.56235,0.383802,0
25.2235,-8.48944,0.383685,0
25.2616,-8.41546,0.383655,0
25.2979,-8.34044,0.383695,0
25.3323,-8.26442,0.383802,0
25.3648,-8.18749,0.383997,0
25.3953,-8.10967,0.384261,0
25.4245,-8.03118,0.384788,0
25.4522,-7.95206,0.385589,0
25.4779,-7.87216,0.386439,0
25.5013,-7.79152,0.387357,0
25.5227,-7.7102,0.388304,0
25.5419,-7.62824,0.38928,0
25.5589,-7.54576,0.390325,0
25.5736,-7.46279,0.391409,0
25.586,-7.3794,0.392532,0
25.5962,-7.29565,0.393695,0
25.6042,-7.21161,0.394886,0
25.6098,-7.12737,0.396136,0
25.6131,-7.04297,0.397415,0
25.6142,-6.9585,0.398734,0
25.6129,-6.87402,0.400101,0
25.6094,-6.78958,0.401478,0
25.6035,-6.70527,0.402903,0
25.5954,-6.62115,0.404359,0
25.5849,-6.53731,0.405853,0
25.5723,-6.45382,0.407386,0
25.5549,-6.37107,0.408187,0
25.533,-6.28937,0.408265,0
25.5091,-6.2084,0.408402,0
25.483,-6.12823,0.408568,0
25.4548,-6.04891,0.408763,0
25.4245,-5.9705,0.408987,0
25.3929,-5.89284,0.409486,0
25.3599,-5.816,0.410179,0
25.325,-5.74014,0.410921,0
25.2882,-5.66533,0.411741,0
25.2496,-5.59159,0.412591,0
25.2092,-5.51901,0.413519,0
25.1671,-5.44761,0.414495,0
21.8806,-10.3422,0.515892,0
21.9585,-10.3476,0.511741,0
22.0366,-10.3512,0.507562,0
22.1149,-10.3528,0.503362,0
22.1933,-10.3525,0.499153,0
22.2716,-10.3503,0.494925,0
22.3501,-10.3462,0.490687,0
22.4284,-10.3401,0.486429,0
22.5066,-10.3321,0.482171,0
22.5847,-10.3222,0.477923,0
22.6626,-10.3103,0.473655,0
22.7402,-10.2965,0.469398,0
22.8174,-10.2808,0.46514,0
22.8945,-10.2631,0.460892,0
22.9716,-10.2453,0.457308,0
23.0493,-10.2283,0.454739,0
23.1266,-10.2093,0.452171,0
23.2037,-10.1883,0.449603,0
23.2803,-10.1654,0.447034,0
23.3566,-10.1405,0.444466,0
23.4322,-10.1136,0.441907,0
23.5072,-10.0847,0.439349,0
23.5816,-10.054,0.4368,0
23.6553,-10.0212,0.434271,0
23.7283,-9.98658,0.431741,0
23.8005,-9.95001,0.429222,0
23.8717,-9.91155,0.426722,0
23.9421,-9.87123,0.424251,0
24.0116,-9.82905,0.42178,0
24.08,-9.78505,0.419349,0
24.1473,-9.73922,0.416927,0
24.2134,-9.69162,0.414534,0
24.2785,-9.64226,0.412161,0
24.3422,-9.59119,0.409827,0
24.4047,-9.53843,0.407523,0
24.4659,-9.48398,0.405237,0
24.5256,-9.42795,0.403001,0
24.5839,-9.3703,0.400784,0
24.6408,-9.31112,0.398616,0
24.6961,-9.25042,0.396468,0
24.7498,-9.18826,0.394388,0
24.802,-9.12468,0.392337,0
24.8524,-9.05974,0.390345,0
24.9012,-8.99343,0.388372,0
24.9482,-8.92585,0.386458,0
24.9948,-8.85785,0.385091,0
25.0422,-8.79003,0.384671,0
25.0878,-8.72094,0.38432,0
25.1317,-8.65061,0.384036,0
25.174,-8.57909,0.383821,0
25.2144,-8.50645,0.383704,0
25.2529,-8.4327,0.383646,0
25.2897,-8.35793,0.383675,0
25.3245,-8.28215,0.383773,0
25.3575,-8.20542,0.383939,0
25.3884,-8.1278,0.384193,0
25.4177,-8.04941,0.384593,0
25.4459,-7.9705,0.385394,0
25.4721,-7.89078,0.386253,0
25.4962,-7.81029,0.387132,0
25.5179,-7.7291,0.38806,0
25.5376,-7.64731,0.389056,0
25.5551,-7.56494,0.390081,0
25.5703,-7.48208,0.391155,0
25.5833,-7.39878,0.392269,0
25.5941,-7.31511,0.393411,0
25.6025,-7.23113,0.394612,0
25.6087,-7.14693,0.395853,0
25.6126,-7.06257,0.397122,0
25.6141,-6.97811,0.398431,0
25.6134,-6.89361,0.399779,0
25.6105,-6.80917,0.401165,0
25.6051,-6.72482,0.402581,0
25.5975,-6.64063,0.404017,0
25.5876,-6.55675,0.405521,0
25.5754,-6.47314,0.407025,0
25.5597,-6.39015,0.408177,0
25.5384,-6.30827,0.408255,0
25.5148,-6.22714,0.408382,0
25.4892,-6.14677,0.408529,0
25.4615,-6.06723,0.408704,0
25.4316,-5.98859,0.408929,0
25.4003,-5.9108,0.409329,0
25.3677,-5.83373,0.410013,0
25.3333,-5.75764,0.410745,0
25.2969,-5.68259,0.411556,0
25.2587,-5.60861,0.412405,0
25.2188,-5.53574,0.413304,0
25.177,-5.46406,0.414261,0
25.1336,-5.39358,0.415277,0
21.8626,-10.3406,0.516849,0
21.9405,-10.3465,0.512708,0
22.0186,-10.3505,0.508529,0
22.0967,-10.3526,0.504329,0
22.1751,-10.3528,0.50013,0
22.2535,-10.351,0.495902,0
22.3319,-10.3473,0.491663,0
22.4102,-10.3417,0.487425,0
22.4885,-10.3342,0.483157,0
22.5666,-10.3247,0.478909,0
22.6445,-10.3132,0.474642,0
22.7222,-10.2999,0.470384,0
22.7996,-10.2846,0.466136,0
22.8766,-10.2674,0.461878,0
22.9534,-10.249,0.457894,0
23.0312,-10.2324,0.455335,0
23.1087,-10.2139,0.452767,0
23.1859,-10.1934,0.450198,0
23.2626,-10.1709,0.44763,0
23.3389,-10.1464,0.445071,0
23.4147,-10.12,0.442503,0
23.4898,-10.0916,0.439945,0
23.5644,-10.0613,0.437396,0
23.6383,-10.029,0.434857,0
23.7114,-9.99479,0.432327,0
23.7838,-9.95866,0.429808,0
23.8553,-9.92065,0.427308,0
23.9259,-9.88075,0.424818,0
23.9955,-9.839,0.422357,0
24.0642,-9.79541,0.419915,0
24.1318,-9.75,0.417484,0
24.1982,-9.70281,0.415081,0
24.2635,-9.65387,0.412708,0
24.3276,-9.60319,0.410374,0
24.3903,-9.55082,0.40805,0
24.4517,-9.49677,0.405765,0
24.5119,-9.44108,0.403509,0
24.5705,-9.38381,0.401282,0
24.6277,-9.32499,0.399114,0
24.6834,-9.26465,0.396976,0
24.7375,-9.20281,0.394866,0
24.79,-9.13956,0.392806,0
24.8409,-9.07491,0.390794,0
24.89,-9.00892,0.388812,0
24.9374,-8.94164,0.386907,0
24.9837,-8.8734,0.385198,0
25.5148,-6.69326,0.404505,0
25.5064,-6.61122,0.405931,0
25.4957,-6.52947,0.407396,0
25.4829,-6.44803,0.40888,0
25.4653,-6.36745,0.409603,0
25.4436,-6.28781,0.409681,0
25.4198,-6.20891,0.409808,0
25.3946,-6.13063,0.410179,0
25.3677,-6.05308,0.410706,0
25.3389,-5.97632,0.411263,0
25.3082,-5.90048,0.411907,0
25.2756,-5.82555,0.412591,0
25.2412,-5.75161,0.413343,0
25.205,-5.67867,0.414144,0
25.167,-5.60682,0.415003,0
25.1273,-5.53607,0.415911,0
25.0859,-5.46645,0.416859,0
21.9007,-10.271,0.514359,0
21.977,-10.2758,0.510296,0
22.0534,-10.2788,0.506195,0
22.13,-10.2799,0.502093,0
22.2066,-10.2791,0.497972,0
22.2834,-10.2764,0.493831,0
22.36,-10.2719,0.489671,0
22.4366,-10.2654,0.485521,0
22.513,-10.2571,0.481361,0
22.5894,-10.2469,0.477191,0
22.6655,-10.2348,0.473021,0
22.7413,-10.2208,0.468851,0
22.8169,-10.2049,0.464691,0
22.892,-10.1871,0.46054,0
22.9673,-10.169,0.456956,0
23.0431,-10.1518,0.454456,0
23.1187,-10.1326,0.451937,0
23.1938,-10.1115,0.449427,0
23.2685,-10.0885,0.446927,0
23.3428,-10.0636,0.444417,0
23.4166,-10.0367,0.441907,0
23.4897,-10.008,0.439417,0
23.5622,-9.97731,0.436937,0
23.634,-9.94477,0.434446,0
23.7051,-9.91037,0.431995,0
23.7754,-9.87411,0.429544,0
23.8448,-9.836,0.427103,0
23.9133,-9.79606,0.424681,0
23.9809,-9.75435,0.422288,0
24.0473,-9.71084,0.419905,0
24.1127,-9.66559,0.417552,0
24.1772,-9.61859,0.415218,0
24.2402,-9.56992,0.412913,0
24.3023,-9.51957,0.410638,0
24.363,-9.46759,0.408392,0
24.4223,-9.41399,0.406175,0
24.4803,-9.35881,0.403987,0
24.5369,-9.3021,0.401839,0
24.592,-9.2439,0.39973,0
24.6457,-9.18425,0.397659,0
24.6977,-9.12317,0.395628,0
24.7483,-9.06071,0.393636,0
24.7971,-8.99691,0.391673,0
24.8444,-8.93186,0.389788,0
24.8907,-8.86607,0.388245,0
24.9381,-8.80071,0.387796,0
24.9839,-8.73405,0.387396,0
25.028,-8.66617,0.387073,0
25.0705,-8.59713,0.386829,0
25.1112,-8.52692,0.386654,0
25.1502,-8.45562,0.386536,0
25.1874,-8.38326,0.386507,0
25.2227,-8.30992,0.386556,0
25.2563,-8.23561,0.386663,0
25.288,-8.16039,0.386859,0
25.3177,-8.08431,0.387112,0
25.3455,-8.00742,0.387445,0
25.3713,-7.92981,0.387874,0
25.3952,-7.85145,0.388343,0
25.4173,-7.77253,0.388978,0
25.438,-7.69313,0.389915,0
25.4567,-7.61313,0.390872,0
25.4732,-7.53262,0.391898,0
25.4875,-7.45161,0.392943,0
25.4996,-7.37022,0.394036,0
25.5095,-7.28849,0.395169,0
25.5172,-7.20647,0.396361,0
25.5227,-7.12424,0.397562,0
25.5259,-7.04187,0.398812,0
25.5269,-6.95943,0.400101,0
25.5257,-6.87699,0.401429,0
25.5222,-6.79458,0.402777,0
25.5165,-6.7123,0.404173,0
25.5086,-6.63022,0.405599,0
25.4984,-6.54838,0.407044,0
25.486,-6.46689,0.408548,0
25.47,-6.38602,0.409583,0
25.4487,-6.30623,0.409671,0
25.4255,-6.22716,0.409788,0
25.4005,-6.14873,0.410071,0
25.3741,-6.07101,0.410579,0
25.3458,-5.99407,0.411146,0
25.3155,-5.91801,0.411761,0
25.2834,-5.84285,0.412435,0
25.2494,-5.76866,0.413157,0
25.2135,-5.69552,0.413968,0
25.176,-5.62339,0.414798,0
25.1366,-5.55238,0.415696,0
25.0956,-5.4825,0.416634,0
21.883,-10.2696,0.515306,0
21.9592,-10.2749,0.511243,0
22.0357,-10.2783,0.507152,0
22.1122,-10.2798,0.50304,0
22.1889,-10.2794,0.498919,0
22.2655,-10.2772,0.494788,0
22.3423,-10.2731,0.490638,0
22.4188,-10.2671,0.486487,0
22.4954,-10.2592,0.482327,0
22.5716,-10.2494,0.478157,0
22.6478,-10.2377,0.473987,0
22.7237,-10.2242,0.469827,0
22.7994,-10.2087,0.465657,0
22.8746,-10.1914,0.461507,0
22.9496,-10.1727,0.457542,0
23.0255,-10.1559,0.455032,0
23.1012,-10.1372,0.452523,0
23.1764,-10.1166,0.450013,0
23.2512,-10.094,0.447503,0
23.3256,-10.0695,0.445003,0
23.3995,-10.0431,0.442493,0
23.4728,-10.0148,0.440003,0
23.5455,-9.98459,0.437503,0
23.6174,-9.9525,0.435032,0
23.6887,-9.91851,0.432562,0
23.7591,-9.88268,0.430101,0
23.8287,-9.845,0.427669,0
23.8974,-9.80549,0.425238,0
23.9652,-9.76418,0.422835,0
24.032,-9.7211,0.420462,0
24.0977,-9.67624,0.418089,0
24.1623,-9.62965,0.415755,0
24.2258,-9.58137,0.41345,0
24.288,-9.53141,0.411165,0
24.349,-9.47979,0.408909,0
24.4086,-9.42655,0.406683,0
24.467,-9.37176,0.404495,0
24.5239,-9.31538,0.402327,0
24.5793,-9.25755,0.400218,0
24.6334,-9.19821,0.398138,0
24.6858,-9.13747,0.396097,0
24.7366,-9.07532,0.394095,0
24.7859,-9.01184,0.392132,0
24.8335,-8.94706,0.390218,0
24.8795,-8.88107,0.388382,0
24.9273,-8.81599,0.387894,0
24.9734,-8.74962,0.387474,0
25.0179,-8.68203,0.387152,0
25.0608,-8.61324,0.386868,0
25.1019,-8.5433,0.386673,0
25.1413,-8.47226,0.386556,0
25.1789,-8.40016,0.386517,0
25.2148,-8.32703,0.386536,0
25.2487,-8.25294,0.386634,0
25.2808,-8.17791,0.3868,0
25.3109,-8.10204,0.387054,0
25.3392,-8.02534,0.387366,0
25.3655,-7.94786,0.387747,0
25.3899,-7.86969,0.388216,0
25.4122,-7.79088,0.388782,0
25.4335,-7.71161,0.389691,0
25.4527,-7.63176,0.390657,0
25.4696,-7.55134,0.391644,0
25.4844,-7.47045,0.392698,0
25.497,-7.38915,0.393792,0
25.5074,-7.30747,0.394905,0
25.5156,-7.22553,0.396077,0
25.5216,-7.14334,0.397279,0
25.5254,-7.06101,0.398529,0
25.5269,-6.97856,0.399798,0
25.5262,-6.8961,0.401116,0
25.5232,-6.81369,0.402464,0
25.518,-6.73138,0.403841,0
25.5106,-6.64926,0.405267,0
25.5009,-6.56735,0.406712,0
25.4891,-6.48576,0.408187,0
25.4747,-6.40462,0.409564,0
25.4539,-6.32467,0.409642,0
25.4311,-6.24543,0.409759,0
25.4064,-6.16688,0.409954,0
25.3804,-6.08895,0.410452,0
25.3525,-6.01184,0.410999,0
25.3227,-5.93558,0.411614,0
25.291,-5.86021,0.412279,0
25.2574,-5.7858,0.413001,0
25.222,-5.71238,0.413763,0
25.1848,-5.64004,0.414603,0
25.1459,-5.56876,0.415491,0
25.1053,-5.49862,0.416419,0
25.063,-5.42966,0.417405,0
21.8653,-10.2681,0.516243,0
21.9416,-10.2738,0.512181,0
22.018,-10.2776,0.508099,0
22.0945,-10.2796,0.503997,0
22.1711,-10.2797,0.499876,0
22.2477,-10.2779,0.495745,0
22.3245,-10.2742,0.491605,0
22.401,-10.2687,0.487445,0
22.4776,-10.2612,0.483294,0
22.554,-10.2519,0.479124,0
22.6302,-10.2406,0.474954,0
22.7062,-10.2275,0.470784,0
22.7818,-10.2125,0.466624,0
22.8572,-10.1956,0.462474,0
22.9321,-10.1769,0.458323,0
23.0079,-10.16,0.455618,0
23.0836,-10.1418,0.453109,0
23.159,-10.1216,0.450599,0
23.2339,-10.0994,0.448079,0
23.3084,-10.0754,0.445579,0
23.3824,-10.0494,0.44307,0
23.4559,-10.0216,0.440579,0
23.5287,-9.99178,0.438089,0
23.6009,-9.9601,0.435599,0
23.6722,-9.92657,0.433138,0
23.7429,-9.89116,0.430677,0
23.8127,-9.85391,0.428236,0
23.8816,-9.81481,0.425804,0
23.9496,-9.77394,0.423402,0
24.0166,-9.73125,0.421009,0
24.0825,-9.6868,0.418636,0
24.1474,-9.64062,0.416302,0
24.2112,-9.59271,0.413978,0
24.2737,-9.54314,0.411693,0
24.3349,-9.4919,0.409427,0
24.3949,-9.43905,0.4072,0
24.4536,-9.38461,0.404993,0
24.5108,-9.32861,0.402835,0
24.5666,-9.27109,0.400706,0
24.6209,-9.21211,0.398616,0
24.6738,-9.15167,0.396556,0
24.725,-9.08984,0.394544,0
24.7747,-9.02668,0.392581,0
24.8227,-8.9622,0.390648,0
24.8689,-8.89645,0.388773,0
24.9163,-8.83121,0.388011,0
25.4315,-6.70045,0.405716,0
25.4232,-6.62035,0.407103,0
25.4128,-6.54051,0.408519,0
25.4008,-6.46095,0.410159,0
25.3849,-6.38202,0.411263,0
25.3646,-6.30407,0.411595,0
25.3423,-6.22675,0.411976,0
25.318,-6.15015,0.412415,0
25.2919,-6.07429,0.412923,0
25.2639,-5.99924,0.41348,0
25.234,-5.92505,0.414095,0
25.2023,-5.85178,0.414788,0
25.1687,-5.77941,0.415501,0
25.1335,-5.70805,0.416263,0
25.0965,-5.63773,0.417112,0
25.0578,-5.56849,0.417991,0
25.0174,-5.50035,0.418919,0
21.9026,-10.2011,0.513812,0
21.9773,-10.2057,0.509837,0
22.0521,-10.2086,0.505833,0
22.127,-10.2096,0.50181,0
22.202,-10.2087,0.497767,0
22.277,-10.206,0.493724,0
22.352,-10.2015,0.489661,0
22.427,-10.1952,0.485589,0
22.5019,-10.187,0.481517,0
22.5765,-10.1769,0.477435,0
22.6509,-10.165,0.473363,0
22.7251,-10.1512,0.46928,0
22.799,-10.1356,0.465218,0
22.8725,-10.1182,0.461146,0
22.9457,-10.0992,0.4572,0
23.0199,-10.0822,0.454749,0
23.0937,-10.0634,0.452298,0
23.1671,-10.0426,0.449837,0
23.2402,-10.02,0.447386,0
23.3127,-9.99548,0.444935,0
23.3848,-9.96912,0.442493,0
23.4562,-9.94087,0.440052,0
23.5271,-9.91079,0.43762,0
23.5973,-9.87887,0.435198,0
23.6666,-9.84514,0.432796,0
23.7353,-9.80958,0.430404,0
23.8031,-9.77224,0.428021,0
23.87,-9.73312,0.425657,0
23.9359,-9.69225,0.423304,0
24.0009,-9.64964,0.420989,0
24.0648,-9.60534,0.418695,0
24.1277,-9.55934,0.416409,0
24.1894,-9.5117,0.414163,0
24.2498,-9.46241,0.411927,0
24.3091,-9.41155,0.409739,0
24.3671,-9.35911,0.407581,0
24.4237,-9.30515,0.405443,0
24.4789,-9.24969,0.403343,0
24.5327,-9.19276,0.401273,0
24.5852,-9.13443,0.399261,0
24.636,-9.0747,0.397269,0
24.6853,-9.01364,0.395325,0
24.733,-8.95129,0.393421,0
24.7791,-8.88768,0.391566,0
24.8266,-8.82476,0.390921,0
24.8728,-8.76078,0.390491,0
24.9176,-8.69555,0.390101,0
24.9606,-8.62913,0.389798,0
25.002,-8.56156,0.389554,0
25.0417,-8.49287,0.389388,0
25.0798,-8.42313,0.38929,0
25.1161,-8.35233,0.389241,0
25.1506,-8.28061,0.3893,0
25.1833,-8.20791,0.389407,0
25.2141,-8.13435,0.389593,0
25.2431,-8.05995,0.389857,0
25.2702,-7.98478,0.390189,0
25.2955,-7.90886,0.390579,0
25.3188,-7.83227,0.391068,0
25.3401,-7.75506,0.391614,0
25.3594,-7.67725,0.39223,0
25.3767,-7.59893,0.392913,0
25.392,-7.52016,0.393685,0
25.4053,-7.44097,0.394525,0
25.4168,-7.36143,0.395482,0
25.4264,-7.28161,0.396595,0
25.4338,-7.20155,0.397757,0
25.4392,-7.12125,0.398929,0
25.4423,-7.04083,0.400159,0
25.4433,-6.96033,0.401409,0
25.4421,-6.87982,0.402698,0
25.4387,-6.79937,0.404017,0
25.4331,-6.71905,0.405384,0
25.4253,-6.63891,0.406771,0
25.4155,-6.559,0.408187,0
25.4037,-6.47938,0.409769,0
25.3894,-6.40021,0.411195,0
25.3695,-6.3221,0.411507,0
25.3477,-6.24463,0.411888,0
25.3238,-6.16785,0.412308,0
25.2981,-6.09182,0.412806,0
25.2705,-6.01658,0.413353,0
25.2411,-5.94219,0.413948,0
25.2098,-5.86867,0.414613,0
25.1767,-5.79611,0.415335,0
25.1419,-5.72453,0.416097,0
25.1052,-5.65394,0.416898,0
25.0669,-5.58446,0.417786,0
25.027,-5.51607,0.418704,0
21.8853,-10.1997,0.514739,0
21.9599,-10.2048,0.510765,0
22.0347,-10.2081,0.506761,0
22.1096,-10.2095,0.502747,0
22.1846,-10.2091,0.498714,0
22.2597,-10.2068,0.494661,0
22.3347,-10.2027,0.490599,0
22.4096,-10.1968,0.486536,0
22.4845,-10.189,0.482464,0
22.5591,-10.1794,0.478382,0
22.6337,-10.1679,0.4743,0
22.7079,-10.1546,0.470228,0
22.7819,-10.1394,0.466155,0
22.8555,-10.1224,0.462093,0
22.9287,-10.1036,0.45804,0
23.0027,-10.0863,0.455316,0
23.0766,-10.0679,0.452864,0
23.1502,-10.0476,0.450404,0
23.2233,-10.0254,0.447952,0
23.296,-10.0013,0.445501,0
23.3681,-9.97539,0.44306,0
23.4398,-9.94758,0.440609,0
23.5107,-9.91794,0.438187,0
23.5811,-9.88644,0.435755,0
23.6506,-9.85312,0.433353,0
23.7195,-9.818,0.43096,0
23.7874,-9.78105,0.428577,0
23.8545,-9.74235,0.426204,0
23.9207,-9.70188,0.423861,0
23.9859,-9.65968,0.421527,0
24.0501,-9.61576,0.419222,0
24.1131,-9.57017,0.416937,0
24.1752,-9.52289,0.414681,0
24.2359,-9.47399,0.412454,0
24.2955,-9.4235,0.410247,0
24.3538,-9.37142,0.40807,0
24.4106,-9.3178,0.405941,0
24.4662,-9.26268,0.403821,0
24.5205,-9.20609,0.401751,0
24.5731,-9.14808,0.39972,0
24.6243,-9.08867,0.397718,0
24.674,-9.02793,0.395775,0
24.7221,-8.96587,0.393861,0
24.7686,-8.90255,0.391995,0
24.8157,-8.83943,0.391048,0
24.8623,-8.77574,0.390589,0
24.9073,-8.7108,0.390189,0
24.9507,-8.64464,0.389857,0
24.9926,-8.57734,0.389612,0
25.0327,-8.5089,0.389407,0
25.0711,-8.43939,0.3893,0
25.1077,-8.36885,0.389241,0
25.1427,-8.29731,0.389261,0
25.1759,-8.22486,0.389378,0
25.2071,-8.15149,0.389554,0
25.2366,-8.07727,0.389779,0
25.2641,-8.00228,0.390101,0
25.2898,-7.92653,0.390482,0
25.3135,-7.85009,0.390941,0
25.3352,-7.77303,0.391488,0
25.3551,-7.69534,0.392073,0
25.3729,-7.61716,0.392757,0
25.3886,-7.53846,0.393499,0
25.4024,-7.45936,0.39431,0
25.4142,-7.3799,0.395238,0
25.4244,-7.30017,0.396341,0
25.4323,-7.22013,0.397474,0
25.4381,-7.13989,0.398655,0
25.4418,-7.05949,0.399866,0
25.4433,-6.97902,0.401126,0
25.4425,-6.89852,0.402405,0
25.4397,-6.81805,0.403724,0
25.4346,-6.73769,0.405071,0
25.4273,-6.65748,0.406448,0
25.418,-6.57751,0.407855,0
25.4066,-6.49783,0.409388,0
25.3934,-6.41845,0.411029,0
25.3743,-6.34016,0.411429,0
25.3529,-6.26254,0.41178,0
25.3296,-6.18563,0.41222,0
25.3042,-6.10939,0.412689,0
25.2771,-6.03397,0.413226,0
25.248,-5.95936,0.413812,0
25.2173,-5.88564,0.414456,0
25.1845,-5.81285,0.41515,0
25.1501,-5.74104,0.415911,0
25.1139,-5.67022,0.416712,0
25.0759,-5.60046,0.417562,0
25.0364,-5.53185,0.418489,0
24.9952,-5.46433,0.419446,0
21.868,-10.1983,0.515657,0
21.9427,-10.2038,0.511683,0
22.0173,-10.2075,0.507698,0
22.0922,-10.2093,0.503675,0
22.1673,-10.2093,0.499652,0
22.2423,-10.2075,0.495599,0
22.3173,-10.2039,0.491546,0
22.3922,-10.1983,0.487474,0
22.4671,-10.191,0.483402,0
22.5419,-10.1818,0.479329,0
22.6165,-10.1707,0.475247,0
22.6907,-10.1578,0.471175,0
22.7648,-10.1431,0.467103,0
22.8384,-10.1265,0.46304,0
22.9118,-10.1081,0.458978,0
22.9855,-10.0904,0.455882,0
23.0595,-10.0724,0.453431,0
23.1331,-10.0525,0.45098,0
23.2063,-10.0307,0.448528,0
23.2792,-10.0071,0.446068,0
23.3514,-9.98157,0.443626,0
23.4232,-9.9542,0.441175,0
23.4943,-9.92497,0.438743,0
23.5648,-9.89392,0.436331,0
23.6345,-9.86101,0.433909,0
23.7036,-9.8263,0.431507,0
23.7717,-9.78979,0.429124,0
23.8391,-9.75149,0.426751,0
23.9055,-9.71142,0.424388,0
23.9709,-9.66961,0.422064,0
24.0353,-9.6261,0.419749,0
24.0987,-9.58089,0.417464,0
24.1609,-9.53399,0.415189,0
24.222,-9.48548,0.412952,0
24.2817,-9.43535,0.410755,0
24.3403,-9.38362,0.408568,0
24.3975,-9.33038,0.406429,0
24.4535,-9.2756,0.4043,0
24.508,-9.21935,0.40223,0
24.561,-9.16168,0.400198,0
24.6126,-9.10258,0.398177,0
24.6627,-9.04215,0.396224,0
24.7111,-8.98039,0.3943,0
24.758,-8.91734,0.392425,0
24.8047,-8.85404,0.391175,0
24.8516,-8.79062,0.390677,0
25.3541,-6.70714,0.407737,0
25.3464,-6.6288,0.409212,0
25.3366,-6.55071,0.410765,0
25.3248,-6.47293,0.412288,0
25.3095,-6.39569,0.413431,0
25.2898,-6.31946,0.413763,0
25.268,-6.24386,0.414144,0
25.2445,-6.16892,0.414573,0
25.2191,-6.09472,0.415071,0
25.1918,-6.02128,0.415609,0
25.1627,-5.94868,0.416204,0
25.1317,-5.87696,0.416868,0
25.0991,-5.80615,0.417571,0
25.0647,-5.7363,0.418323,0
25.0286,-5.66746,0.419134,0
24.9909,-5.59966,0.419984,0
24.9516,-5.53297,0.420902,0
21.9045,-10.1337,0.513294,0
21.9776,-10.1382,0.509388,0
22.0508,-10.1409,0.505472,0
22.1241,-10.1418,0.501536,0
22.1976,-10.1409,0.497581,0
22.271,-10.1382,0.493616,0
22.3445,-10.1337,0.489642,0
22.4178,-10.1275,0.485657,0
22.491,-10.1194,0.481673,0
22.5641,-10.1094,0.477679,0
22.6369,-10.0978,0.473695,0
22.7095,-10.0842,0.4697,0
22.7818,-10.0689,0.465716,0
22.8538,-10.0518,0.461741,0
22.9253,-10.033,0.457777,0
22.9975,-10.0153,0.455032,0
23.0698,-9.99675,0.45263,0
23.1415,-9.97632,0.450228,0
23.2129,-9.95406,0.447835,0
23.2838,-9.92997,0.445433,0
23.3543,-9.90407,0.44305,0
23.4241,-9.87633,0.440657,0
23.4933,-9.84681,0.438284,0
23.562,-9.8155,0.435921,0
23.6297,-9.78238,0.433558,0
23.6968,-9.74753,0.431224,0
23.763,-9.71092,0.42889,0
23.8284,-9.67258,0.426585,0
23.8928,-9.63255,0.4243,0
23.9563,-9.5908,0.422025,0
24.0187,-9.54741,0.419778,0
24.0802,-9.50236,0.417552,0
24.1404,-9.45572,0.415355,0
24.1995,-9.40748,0.413177,0
24.2573,-9.3577,0.411038,0
24.3139,-9.30639,0.408919,0
24.3693,-9.25356,0.406829,0
24.4233,-9.19931,0.404788,0
24.4758,-9.14362,0.402767,0
24.527,-9.08656,0.400794,0
24.5766,-9.02815,0.398861,0
24.6248,-8.96843,0.396956,0
24.6715,-8.90745,0.395091,0
24.7184,-8.84644,0.394007,0
24.7649,-8.78502,0.393509,0
24.8101,-8.72237,0.393079,0
24.8537,-8.6585,0.392708,0
24.8958,-8.59348,0.392405,0
24.9362,-8.52735,0.392181,0
24.9749,-8.46012,0.392005,0
25.012,-8.39186,0.391907,0
25.0474,-8.3226,0.391888,0
25.0811,-8.25239,0.391937,0
25.113,-8.18129,0.392054,0
25.1431,-8.10933,0.392239,0
25.1714,-8.03652,0.392493,0
25.1979,-7.963,0.392825,0
25.2224,-7.88873,0.393216,0
25.2452,-7.81382,0.393675,0
25.2659,-7.73829,0.394212,0
25.2848,-7.66221,0.394827,0
25.3017,-7.58562,0.395501,0
25.3166,-7.50856,0.396243,0
25.3296,-7.43112,0.397064,0
25.3405,-7.35335,0.397952,0
25.3495,-7.27525,0.39889,0
25.3564,-7.19695,0.399915,0
25.3614,-7.11847,0.400999,0
25.3643,-7.03986,0.402161,0
25.3652,-6.9612,0.403372,0
25.3641,-6.8825,0.404642,0
25.3608,-6.80388,0.405999,0
25.3556,-6.72534,0.407405,0
25.3484,-6.64696,0.40887,0
25.3391,-6.56881,0.410404,0
25.3278,-6.49094,0.411986,0
25.3137,-6.4135,0.413343,0
25.2945,-6.33709,0.413685,0
25.2733,-6.26134,0.414056,0
25.2502,-6.18624,0.414476,0
25.2251,-6.11185,0.414945,0
25.1983,-6.03825,0.415482,0
25.1695,-5.96546,0.416068,0
25.1391,-5.8935,0.416693,0
25.1068,-5.82249,0.417405,0
25.0729,-5.75242,0.418148,0
25.0371,-5.68334,0.418939,0
24.9998,-5.6153,0.419788,0
24.9609,-5.54835,0.420696,0
21.8875,-10.1324,0.514193,0
21.9605,-10.1373,0.510296,0
22.0337,-10.1404,0.50638,0
22.1071,-10.1418,0.502454,0
22.1805,-10.1413,0.498499,0
22.2539,-10.139,0.494534,0
22.3273,-10.135,0.49057,0
22.4007,-10.1291,0.486575,0
22.4741,-10.1214,0.482601,0
22.5472,-10.1119,0.478607,0
22.6201,-10.1006,0.474613,0
22.6927,-10.0875,0.470618,0
22.7651,-10.0727,0.466644,0
22.8371,-10.056,0.462669,0
22.9087,-10.0375,0.458685,0
22.9807,-10.0194,0.455589,0
23.053,-10.0012,0.453187,0
23.1249,-9.98122,0.450784,0
23.1964,-9.95939,0.448382,0
23.2674,-9.93571,0.445989,0
23.338,-9.91023,0.443597,0
23.408,-9.88293,0.441214,0
23.4773,-9.85382,0.438831,0
23.546,-9.82291,0.436468,0
23.614,-9.79022,0.434105,0
23.6812,-9.75578,0.431771,0
23.7477,-9.71957,0.429437,0
23.8133,-9.68163,0.427122,0
23.878,-9.64198,0.424827,0
23.9416,-9.60063,0.422552,0
24.0044,-9.55762,0.420296,0
24.0659,-9.51297,0.41807,0
24.1265,-9.46667,0.415853,0
24.1859,-9.41882,0.413685,0
24.2441,-9.36938,0.411536,0
24.3009,-9.31842,0.409407,0
24.3565,-9.26596,0.407318,0
24.4108,-9.21202,0.405257,0
24.4637,-9.15667,0.403236,0
24.5152,-9.09991,0.401243,0
24.5653,-9.04182,0.3993,0
24.6137,-8.98239,0.397396,0
24.6609,-8.9217,0.395511,0
24.7073,-8.86053,0.394144,0
24.7543,-8.79938,0.393626,0
24.7998,-8.73701,0.393167,0
24.8438,-8.67342,0.392786,0
24.8861,-8.60868,0.392484,0
24.9269,-8.54279,0.39223,0
24.9661,-8.47582,0.392044,0
25.0036,-8.4078,0.391946,0
25.0394,-8.33876,0.391898,0
25.0734,-8.26878,0.391927,0
25.1058,-8.19787,0.392025,0
25.1363,-8.12608,0.392181,0
25.165,-8.05349,0.392425,0
25.1919,-7.98012,0.392738,0
25.217,-7.90602,0.393109,0
25.2401,-7.83125,0.393568,0
25.2612,-7.75588,0.394095,0
25.2805,-7.6799,0.394681,0
25.2979,-7.60343,0.395335,0
25.3133,-7.52648,0.396068,0
25.3267,-7.44912,0.396868,0
25.3382,-7.37141,0.397738,0
25.3476,-7.29341,0.398675,0
25.355,-7.21514,0.399671,0
25.3604,-7.1367,0.400755,0
25.3638,-7.05811,0.401888,0
25.3652,-6.97945,0.403089,0
25.3645,-6.90077,0.404359,0
25.3618,-6.8221,0.405677,0
25.357,-6.74354,0.407073,0
25.3502,-6.66514,0.408529,0
25.3414,-6.58693,0.410052,0
25.3306,-6.50897,0.411624,0
25.3172,-6.43144,0.41303,0
25.2992,-6.35477,0.413607,0
25.2784,-6.27886,0.413968,0
25.2557,-6.20358,0.414359,0
25.231,-6.12903,0.414827,0
25.2047,-6.05525,0.415355,0
25.1764,-5.98227,0.415931,0
25.1463,-5.91013,0.416546,0
25.1144,-5.8389,0.417239,0
25.0809,-5.76859,0.417972,0
25.0455,-5.6993,0.418763,0
25.0086,-5.63101,0.419593,0
24.97,-5.56378,0.420472,0
24.9298,-5.49768,0.421409,0
21.8706,-10.131,0.515091,0
21.9436,-10.1363,0.511195,0
22.0168,-10.1399,0.507288,0
22.0901,-10.1416,0.503362,0
22.1634,-10.1415,0.499417,0
22.2369,-10.1397,0.495452,0
22.3103,-10.1361,0.491488,0
22.3837,-10.1306,0.487503,0
22.457,-10.1233,0.483519,0
22.5302,-10.1143,0.479534,0
22.6031,-10.1034,0.47554,0
22.6759,-10.0907,0.471546,0
22.7483,-10.0763,0.467562,0
22.8204,-10.06,0.463587,0
22.8922,-10.042,0.459622,0
22.9639,-10.0233,0.456146,0
23.0362,-10.0056,0.453743,0
23.1083,-9.98602,0.451341,0
23.1798,-9.96462,0.448948,0
23.251,-9.94137,0.446546,0
23.3216,-9.91631,0.444154,0
23.3917,-9.88943,0.441771,0
23.4613,-9.86074,0.439388,0
23.5302,-9.83024,0.437015,0
23.5984,-9.79798,0.434661,0
23.6657,-9.76393,0.432308,0
23.7324,-9.72812,0.429974,0
23.7981,-9.6906,0.427659,0
23.863,-9.65134,0.425364,0
23.927,-9.61039,0.423089,0
23.9898,-9.56774,0.420814,0
24.0518,-9.52347,0.418577,0
24.1125,-9.47756,0.41637,0
24.1722,-9.43005,0.414173,0
24.2306,-9.38098,0.412025,0
24.2878,-9.33036,0.409886,0
24.3438,-9.27826,0.407806,0
24.3984,-9.22466,0.405726,0
24.4516,-9.16964,0.403704,0
24.5034,-9.11319,0.401702,0
24.5537,-9.05541,0.399739,0
24.6027,-8.99629,0.397825,0
24.6501,-8.9359,0.39595,0
24.6962,-8.87451,0.394271,0
24.7435,-8.81367,0.393734,0
24.7894,-8.75159,0.393265,0
25.2805,-6.71351,0.409964,0
25.273,-6.63688,0.411409,0
25.2634,-6.56051,0.412923,0
25.2512,-6.48449,0.414222,0
25.237,-6.40889,0.41555,0
25.2178,-6.33429,0.415853,0
25.1966,-6.2603,0.416234,0
25.1737,-6.18696,0.416644,0
25.1488,-6.11436,0.417132,0
25.1223,-6.04248,0.41765,0
25.0939,-5.97142,0.418226,0
25.0638,-5.9012,0.418861,0
25.032,-5.83189,0.419564,0
24.9984,-5.7635,0.420296,0
24.9633,-5.69609,0.421077,0
24.9265,-5.62971,0.421917,0
24.8881,-5.56437,0.422806,0
21.9063,-10.0687,0.512777,0
21.9778,-10.0731,0.508968,0
22.0495,-10.0756,0.50512,0
22.1214,-10.0765,0.501273,0
22.1933,-10.0755,0.497396,0
22.2652,-10.0729,0.493519,0
22.337,-10.0684,0.489622,0
22.4089,-10.0622,0.485726,0
22.4805,-10.0542,0.48182,0
22.552,-10.0445,0.477913,0
22.6234,-10.0329,0.474007,0
22.6945,-10.0197,0.470101,0
22.7653,-10.0046,0.466195,0
22.8357,-9.98784,0.462308,0
22.9058,-9.96934,0.458431,0
22.976,-9.9509,0.455306,0
23.0466,-9.93258,0.452952,0
23.1168,-9.91248,0.450609,0
23.1866,-9.89059,0.448255,0
23.256,-9.8669,0.445921,0
23.3248,-9.84144,0.443577,0
23.3931,-9.81421,0.441243,0
23.4608,-9.78522,0.438919,0
23.5278,-9.75448,0.436605,0
23.5942,-9.72202,0.43431,0
23.6597,-9.68782,0.432015,0
23.7245,-9.65193,0.429749,0
23.7884,-9.61435,0.427493,0
23.8513,-9.57509,0.425247,0
23.9134,-9.53419,0.423021,0
23.9744,-9.49169,0.420833,0
24.0344,-9.44757,0.418655,0
24.0932,-9.40187,0.416497,0
24.151,-9.35465,0.414378,0
24.2075,-9.30587,0.412269,0
24.2629,-9.25565,0.410208,0
24.317,-9.20395,0.408167,0
24.3696,-9.15086,0.406175,0
24.4211,-9.09636,0.404202,0
24.471,-9.04051,0.402259,0
24.5196,-8.98338,0.400384,0
24.5666,-8.92493,0.398509,0
24.6131,-8.86583,0.397034,0
24.66,-8.80692,0.396488,0
24.7056,-8.74676,0.396009,0
24.7496,-8.68538,0.39557,0
24.7923,-8.62284,0.395208,0
24.8333,-8.55917,0.394915,0
24.8727,-8.4944,0.3947,0
24.9106,-8.4286,0.394544,0
24.9469,-8.36178,0.394456,0
24.9814,-8.29397,0.394437,0
25.0143,-8.22525,0.394476,0
25.0454,-8.15564,0.394583,0
25.0748,-8.08521,0.394779,0
25.1024,-8.01399,0.395032,0
25.1282,-7.94203,0.395355,0
25.1523,-7.86937,0.395745,0
25.1744,-7.79607,0.396204,0
25.1946,-7.72218,0.396732,0
25.213,-7.64772,0.397318,0
25.2295,-7.57281,0.397991,0
25.2441,-7.49742,0.398714,0
25.2566,-7.42167,0.399515,0
25.2674,-7.34559,0.400394,0
25.2761,-7.26921,0.401312,0
25.2829,-7.19261,0.402308,0
25.2877,-7.11583,0.403372,0
25.2905,-7.03895,0.404505,0
25.2913,-6.96199,0.405687,0
25.2902,-6.88504,0.406946,0
25.287,-6.80812,0.408255,0
25.282,-6.7313,0.409632,0
25.2749,-6.65465,0.411068,0
25.2659,-6.57821,0.412571,0
25.2543,-6.5021,0.413919,0
25.2405,-6.42637,0.415257,0
25.2223,-6.35156,0.415794,0
25.2017,-6.2774,0.416136,0
25.1791,-6.20393,0.416556,0
25.1548,-6.13112,0.416995,0
25.1287,-6.05908,0.417523,0
25.1007,-5.98783,0.418089,0
25.071,-5.91742,0.418714,0
25.0395,-5.84789,0.419398,0
25.0063,-5.77929,0.42012,0
24.9716,-5.71165,0.420902,0
24.9352,-5.64501,0.421722,0
24.8972,-5.57943,0.422591,0
21.8897,-10.0675,0.513665,0
21.9612,-10.0722,0.509847,0
22.0329,-10.0752,0.506009,0
22.1048,-10.0764,0.502171,0
22.1766,-10.0759,0.498294,0
22.2485,-10.0736,0.494417,0
22.3204,-10.0696,0.490521,0
22.3922,-10.0638,0.486634,0
22.4639,-10.0562,0.482718,0
22.5355,-10.0469,0.478821,0
22.6069,-10.0358,0.474915,0
22.678,-10.0229,0.471009,0
22.7488,-10.0083,0.467103,0
22.8194,-9.99189,0.463206,0
22.8895,-9.97378,0.459329,0
22.9596,-9.95488,0.455843,0
23.0302,-9.93699,0.453499,0
23.1005,-9.9173,0.451155,0
23.1705,-9.89582,0.448802,0
23.24,-9.87256,0.446468,0
23.3089,-9.8475,0.444114,0
23.3773,-9.82069,0.44179,0
23.4452,-9.79211,0.439466,0
23.5124,-9.76178,0.437152,0
23.5788,-9.72971,0.434847,0
23.6445,-9.69592,0.432552,0
23.7095,-9.66041,0.430277,0
23.7736,-9.62321,0.428011,0
23.8368,-9.58434,0.425765,0
23.899,-9.54383,0.423538,0
23.9603,-9.50168,0.421331,0
24.0205,-9.45794,0.419154,0
24.0797,-9.41261,0.416995,0
24.1377,-9.36573,0.414866,0
24.1945,-9.31732,0.412757,0
24.2502,-9.26744,0.410696,0
24.3045,-9.21607,0.408646,0
24.3576,-9.1633,0.406634,0
24.4092,-9.10913,0.404661,0
24.4596,-9.05359,0.402718,0
24.5084,-8.99673,0.400804,0
24.5559,-8.93859,0.398939,0
24.602,-8.87933,0.397171,0
24.6493,-8.82068,0.396595,0
24.6952,-8.76082,0.396107,0
24.7395,-8.69975,0.395677,0
24.7825,-8.63745,0.395286,0
24.8239,-8.57403,0.394984,0
24.8637,-8.50953,0.394739,0
24.902,-8.44396,0.394583,0
24.9386,-8.37735,0.394466,0
24.9736,-8.30979,0.394437,0
25.0068,-8.24128,0.394456,0
25.0384,-8.17188,0.394564,0
25.0681,-8.10162,0.39473,0
25.0962,-8.03058,0.394964,0
25.1224,-7.95879,0.395267,0
25.1468,-7.88629,0.395657,0
25.1694,-7.81313,0.396097,0
25.1901,-7.73937,0.396605,0
25.209,-7.66504,0.397181,0
25.2259,-7.59022,0.397835,0
25.2409,-7.51496,0.398548,0
25.254,-7.43928,0.39932,0
25.2651,-7.36327,0.400179,0
25.2742,-7.28695,0.401097,0
25.2815,-7.21039,0.402073,0
25.2868,-7.13366,0.403128,0
25.29,-7.05679,0.404232,0
25.2913,-6.97984,0.405403,0
25.2907,-6.9029,0.406654,0
25.288,-6.82596,0.407943,0
25.2834,-6.74911,0.40931,0
25.2767,-6.67241,0.410726,0
25.2681,-6.59591,0.41221,0
25.2572,-6.51974,0.413626,0
25.2439,-6.44391,0.414945,0
25.2269,-6.36882,0.415696,0
25.2067,-6.29454,0.416048,0
25.1846,-6.22092,0.416448,0
25.1606,-6.14794,0.416888,0
25.1348,-6.07572,0.417396,0
25.1073,-6.0043,0.417962,0
25.078,-5.93367,0.418568,0
25.047,-5.86393,0.419222,0
25.0142,-5.79512,0.419945,0
24.9798,-5.72725,0.420706,0
24.9438,-5.66037,0.421527,0
24.9062,-5.59456,0.422396,0
24.867,-5.52981,0.423304,0
21.8731,-10.0661,0.514544,0
21.9446,-10.0713,0.510736,0
22.0162,-10.0747,0.506907,0
22.088,-10.0763,0.50306,0
22.1599,-10.0762,0.499193,0
22.2318,-10.0743,0.495316,0
22.3037,-10.0707,0.491429,0
22.3755,-10.0653,0.487532,0
22.4473,-10.0581,0.483636,0
22.5189,-10.0492,0.47972,0
22.5904,-10.0385,0.475823,0
22.6616,-10.026,0.471907,0
22.7325,-10.0118,0.468011,0
22.803,-9.99585,0.464114,0
22.8733,-9.97813,0.460218,0
22.9431,-9.95878,0.45639,0
23.0138,-9.94132,0.454046,0
23.0843,-9.92202,0.451693,0
23.1543,-9.90096,0.449349,0
23.2239,-9.87811,0.447005,0
23.293,-9.85347,0.444661,0
23.3615,-9.82706,0.442327,0
23.4295,-9.79889,0.439993,0
23.4969,-9.76896,0.437679,0
23.5635,-9.7373,0.435374,0
23.6294,-9.7039,0.433079,0
23.6945,-9.66879,0.430794,0
23.7587,-9.63198,0.428529,0
23.8222,-9.5935,0.426282,0
23.8847,-9.55338,0.424056,0
23.9462,-9.51161,0.421849,0
24.0067,-9.46824,0.419661,0
24.066,-9.42326,0.417493,0
24.1243,-9.37674,0.415355,0
24.1815,-9.3287,0.413255,0
24.2373,-9.27913,0.411165,0
24.292,-9.22812,0.409105,0
24.3454,-9.17567,0.407103,0
24.3974,-9.12182,0.405111,0
24.448,-9.06659,0.403167,0
24.4973,-9.01005,0.401253,0
24.545,-8.95219,0.399359,0
24.5913,-8.89311,0.397532,0
24.6384,-8.83441,0.396732,0
24.6846,-8.77481,0.396214,0
24.7294,-8.714,0.395755,0
25.2096,-6.71964,0.412103,0
25.2023,-6.64468,0.413519,0
25.1925,-6.56999,0.414818,0
25.1806,-6.49564,0.416107,0
25.1667,-6.42164,0.417425,0
25.1484,-6.34854,0.417864,0
25.1278,-6.27614,0.418236,0
25.1055,-6.20437,0.418655,0
25.0813,-6.13326,0.419105,0
25.0555,-6.06292,0.419632,0
25.0278,-5.99333,0.420198,0
24.9984,-5.92457,0.420804,0
24.9674,-5.85671,0.421487,0
24.9347,-5.78972,0.4222,0
24.9004,-5.72368,0.422962,0
24.8645,-5.65865,0.423773,0
24.827,-5.59464,0.424642,0
21.908,-10.006,0.512288,0
21.978,-10.0102,0.508558,0
22.0484,-10.0127,0.504788,0
22.1187,-10.0134,0.501019,0
22.1891,-10.0125,0.49722,0
22.2595,-10.0098,0.493421,0
22.3299,-10.0053,0.489603,0
22.4003,-9.99921,0.485794,0
22.4705,-9.99134,0.481966,0
22.5405,-9.98175,0.478138,0
