20.3991,-12.6296,0.5447,0
20.5571,-12.6426,0.540413,0
20.7139,-12.6307,0.532474,0
20.8704,-12.616,0.524671,0
21.0266,-12.5985,0.516986,0
21.1827,-12.5783,0.509437,0
21.3382,-12.5552,0.502015,0
21.4934,-12.5294,0.494739,0
21.6482,-12.5008,0.487591,0
21.8027,-12.4694,0.480589,0
21.9619,-12.4544,0.476888,0
22.1226,-12.4403,0.473919,0
22.2837,-12.4226,0.470989,0
22.4452,-12.4014,0.46805,0
22.6068,-12.3765,0.46515,0
22.7686,-12.348,0.462259,0
22.9305,-12.3157,0.459378,0
23.0866,-12.2671,0.454427,0
23.2416,-12.214,0.449378,0
23.3958,-12.1575,0.444368,0
23.5491,-12.0974,0.439417,0
23.7013,-12.0338,0.434525,0
23.8525,-11.9666,0.429691,0
24.0026,-11.896,0.424915,0
24.1514,-11.8218,0.420208,0
24.299,-11.7442,0.41557,0
24.4451,-11.6631,0.410999,0
24.5898,-11.5785,0.406497,0
24.733,-11.4905,0.402073,0
24.8745,-11.3991,0.397728,0
25.0123,-11.3021,0.39307,0
25.1462,-11.1996,0.388089,0
25.2778,-11.0938,0.383177,0
25.4071,-10.9847,0.378333,0
25.5598,-10.8968,0.378363,0
25.712,-10.8052,0.378548,0
25.8624,-10.7091,0.378724,0
26.0109,-10.6083,0.37887,0
26.1573,-10.503,0.379007,0
26.3015,-10.3932,0.379114,0
26.4432,-10.2788,0.379202,0
26.5821,-10.1599,0.379261,0
26.7182,-10.0366,0.3793,0
26.8513,-9.90886,0.37932,0
26.9812,-9.77681,0.37932,0
27.1076,-9.64049,0.37928,0
27.2303,-9.5,0.379222,0
27.3493,-9.35543,0.379154,0
27.4642,-9.20685,0.379036,0
27.575,-9.05439,0.378909,0
27.6813,-8.89815,0.378743,0
27.7832,-8.7383,0.378568,0
27.8802,-8.57492,0.378353,0
27.9827,-8.41161,0.379417,0
28.08,-8.24459,0.380443,0
28.1716,-8.0739,0.381351,0
28.2575,-7.89976,0.382161,0
28.3373,-7.72237,0.382864,0
28.4109,-7.54193,0.38345,0
28.4782,-7.35873,0.383948,0
28.5389,-7.17296,0.38431,0
28.5929,-6.98486,0.384564,0
28.64,-6.79475,0.38472,0
28.6802,-6.60283,0.384739,0
28.7134,-6.40944,0.384671,0
28.7575,-6.21573,0.386595,0
28.7946,-6.02027,0.388411,0
28.8245,-5.82335,0.39014,0
28.8471,-5.62523,0.391751,0
28.862,-5.42622,0.393177,0
28.8502,-5.22789,0.392259,0
28.8301,-5.03023,0.391126,0
28.8019,-4.83359,0.389798,0
28.7657,-4.63832,0.388265,0
28.7216,-4.44475,0.386527,0
28.6696,-4.25322,0.384603,0
28.6099,-4.06407,0.382513,0
28.547,-3.87661,0.380726,0
28.4848,-3.68992,0.379739,0
28.415,-3.50602,0.378558,0
28.3208,-3.3303,0.375101,0
28.2093,-3.1621,0.37015,0
28.0912,-2.99878,0.365023,0
27.9672,-2.84054,0.3597,0
27.853,-2.68128,0.356204,0
27.764,-2.51354,0.356546,0
27.6705,-2.34858,0.356976,0
27.5728,-2.18661,0.357513,0
27.4709,-2.02765,0.358109,0
27.3415,-1.88443,0.355648,0
27.1806,-1.76157,0.349339,0
27.0182,-1.64383,0.343177,0
20.488,-12.647,0.543948,0
20.6449,-12.6363,0.53596,0
20.8016,-12.6228,0.528089,0
20.958,-12.6066,0.520355,0
21.1141,-12.5875,0.512738,0
21.2698,-12.5657,0.505267,0
21.4252,-12.5411,0.497923,0
21.5802,-12.5137,0.490716,0
21.7348,-12.4835,0.483646,0
21.8912,-12.4595,0.478196,0
22.0518,-12.447,0.475228,0
22.2128,-12.4308,0.472269,0
22.3741,-12.4112,0.469339,0
22.5356,-12.3879,0.466419,0
22.6974,-12.361,0.463519,0
22.8593,-12.3304,0.460648,0
23.0181,-12.2893,0.456663,0
23.1735,-12.2378,0.451595,0
23.328,-12.1828,0.446566,0
23.4817,-12.1243,0.441595,0
23.6345,-12.0622,0.436663,0
23.7862,-11.9966,0.43181,0
23.9367,-11.9275,0.427015,0
24.0862,-11.8549,0.422269,0
24.2342,-11.7788,0.417591,0
24.381,-11.6992,0.413001,0
24.5264,-11.6162,0.40847,0
24.6702,-11.5297,0.404007,0
24.8123,-11.4398,0.399632,0
24.9527,-11.3461,0.395286,0
25.0875,-11.2451,0.390277,0
25.2201,-11.1408,0.385325,0
25.3505,-11.0331,0.380452,0
25.4923,-10.9356,0.378265,0
25.6452,-10.8461,0.37847,0
25.7964,-10.7519,0.378655,0
25.9459,-10.6532,0.378812,0
26.0932,-10.5499,0.378948,0
26.2384,-10.442,0.379066,0
26.3812,-10.3296,0.379163,0
26.5213,-10.2127,0.379232,0
26.6587,-10.0914,0.37929,0
26.7932,-9.96559,0.37932,0
26.9245,-9.83545,0.37932,0
27.0524,-9.70099,0.37929,0
27.1768,-9.56233,0.379251,0
27.2974,-9.41952,0.379173,0
27.4141,-9.27271,0.379085,0
27.5268,-9.12195,0.378968,0
27.6352,-8.96736,0.378821,0
27.739,-8.80908,0.378655,0
27.8382,-8.64722,0.378441,0
27.9381,-8.48392,0.378948,0
28.0378,-8.31853,0.380003,0
28.132,-8.14944,0.38096,0
28.2205,-7.97681,0.38182,0
28.3029,-7.80081,0.382562,0
28.3794,-7.62171,0.383206,0
28.4494,-7.43968,0.383734,0
28.513,-7.25501,0.384163,0
28.57,-7.0679,0.384466,0
28.6201,-6.87862,0.384652,0
28.6634,-6.68749,0.384739,0
28.6996,-6.49471,0.3847,0
28.739,-6.3012,0.385765,0
28.7791,-6.10647,0.38763,0
28.8122,-5.91018,0.389398,0
28.838,-5.71253,0.391058,0
28.8567,-5.51387,0.392601,0
28.8563,-5.31511,0.392698,0
28.8399,-5.11711,0.391654,0
28.8153,-4.91996,0.390413,0
28.7827,-4.72403,0.388958,0
28.742,-4.52969,0.387318,0
28.6934,-4.33722,0.385472,0
28.6372,-4.14699,0.38346,0
28.5732,-3.95928,0.381243,0
28.5131,-3.77172,0.380189,0
28.4466,-3.58658,0.379114,0
28.3677,-3.4058,0.37721,0
28.2592,-3.23553,0.372357,0
28.144,-3.07002,0.367298,0
28.0225,-2.90952,0.362064,0
27.8952,-2.7542,0.356644,0
27.8037,-2.58701,0.35639,0
27.7122,-2.42083,0.35679,0
27.6163,-2.25751,0.357259,0
27.5162,-2.0972,0.357835,0
27.4117,-1.94013,0.35847,0
27.2516,-1.81498,0.352073,0
27.0898,-1.69501,0.345863,0
20.46,-12.4162,0.554241,0
20.612,-12.4095,0.547054,0
20.7634,-12.3968,0.539427,0
20.9147,-12.3814,0.531937,0
21.0656,-12.3633,0.524564,0
21.2162,-12.3425,0.517318,0
21.3665,-12.319,0.510208,0
21.5163,-12.2927,0.503226,0
21.6658,-12.2638,0.49639,0
21.8148,-12.2321,0.489681,0
21.9634,-12.1978,0.483099,0
22.1114,-12.1607,0.476663,0
22.2644,-12.137,0.473148,0
22.4187,-12.1139,0.470364,0
22.5734,-12.0874,0.467611,0
22.7279,-12.0574,0.464866,0
22.8824,-12.0237,0.462142,0
23.0333,-11.9789,0.458109,0
23.1813,-11.926,0.453294,0
23.3285,-11.8696,0.448538,0
23.4747,-11.8099,0.443831,0
23.6199,-11.7469,0.439173,0
23.7641,-11.6804,0.434583,0
23.907,-11.6106,0.430052,0
24.0487,-11.5375,0.425579,0
24.1891,-11.4611,0.421175,0
24.3282,-11.3813,0.416849,0
24.4637,-11.2958,0.412132,0
24.5965,-11.2057,0.40723,0
24.7274,-11.1124,0.402376,0
24.8562,-11.0158,0.397601,0
24.9828,-10.916,0.392874,0
25.1073,-10.8131,0.388216,0
25.2295,-10.7071,0.383636,0
25.3494,-10.598,0.379124,0
25.4781,-10.4961,0.376839,0
25.6178,-10.4016,0.376976,0
25.7556,-10.3028,0.377103,0
25.8912,-10.1998,0.3772,0
26.0246,-10.0927,0.377288,0
26.1554,-9.9813,0.377347,0
26.2836,-9.86583,0.377396,0
26.409,-9.74626,0.377405,0
26.5313,-9.62268,0.377396,0
26.6505,-9.49514,0.377376,0
26.7664,-9.36371,0.377327,0
26.8787,-9.22849,0.377259,0
26.9873,-9.08953,0.377152,0
27.0921,-8.94697,0.377034,0
27.193,-8.80094,0.376907,0
27.2895,-8.65146,0.376741,0
27.3817,-8.49872,0.376536,0
27.4695,-8.34283,0.376321,0
27.5526,-8.18396,0.376077,0
27.6309,-8.02223,0.375814,0
27.7043,-7.8578,0.375521,0
27.7727,-7.69084,0.375208,0
27.8358,-7.52152,0.374886,0
27.8948,-7.35025,0.374681,0
27.9533,-7.17774,0.375062,0
28.0056,-7.00307,0.375335,0
28.0518,-6.82643,0.375511,0
28.0916,-6.64808,0.37557,0
28.1252,-6.46826,0.37555,0
28.163,-6.28788,0.376751,0
28.1993,-6.10624,0.37846,0
28.2156,-5.92295,0.378411,0
28.2235,-5.7391,0.378021,0
28.2241,-5.55508,0.377464,0
28.2173,-5.37114,0.376712,0
28.2033,-5.18763,0.375765,0
28.1818,-5.00487,0.374652,0
28.1532,-4.82313,0.373343,0
28.1173,-4.64275,0.371878,0
28.0744,-4.46397,0.370208,0
28.0245,-4.28717,0.368402,0
27.9677,-4.11255,0.366419,0
27.9043,-3.94039,0.364261,0
27.8441,-3.76845,0.363226,0
27.7855,-3.59674,0.36306,0
27.7221,-3.42695,0.363001,0
27.6542,-3.25916,0.363011,0
27.5817,-3.09355,0.363109,0
27.5048,-2.93023,0.363284,0
27.4237,-2.76933,0.363548,0
27.3381,-2.61098,0.3639,0
27.2485,-2.45529,0.364329,0
27.1548,-2.30238,0.364837,0
27.0297,-2.16675,0.361517,0
26.8823,-2.04594,0.355452,0
26.7331,-1.92985,0.349515,0
20.3925,-12.3995,0.554075,0
20.5452,-12.4142,0.550443,0
20.6969,-12.4027,0.542767,0
20.8482,-12.3885,0.535218,0
20.9992,-12.3716,0.527786,0
21.15,-12.352,0.520491,0
21.3004,-12.3297,0.513323,0
21.4505,-12.3046,0.506282,0
21.6001,-12.2769,0.499388,0
21.7493,-12.2464,0.492611,0
21.898,-12.2132,0.48598,0
22.0464,-12.1774,0.479486,0
22.1965,-12.146,0.474388,0
22.3509,-12.1245,0.471595,0
22.5053,-12.0995,0.468821,0
22.6598,-12.071,0.466068,0
22.8145,-12.039,0.463343,0
22.968,-12.0011,0.460238,0
23.1163,-11.9497,0.455404,0
23.2639,-11.8948,0.450618,0
23.4105,-11.8366,0.445892,0
23.5561,-11.775,0.441204,0
23.7007,-11.7101,0.436585,0
23.8443,-11.6418,0.432034,0
23.9866,-11.5701,0.427532,0
24.1276,-11.4951,0.423099,0
24.2672,-11.4168,0.418743,0
24.4047,-11.3344,0.41431,0
24.5383,-11.2458,0.409378,0
24.67,-11.1538,0.404505,0
24.7998,-11.0587,0.399691,0
24.9273,-10.9603,0.394945,0
25.0528,-10.8588,0.390257,0
25.176,-10.7541,0.385638,0
25.2969,-10.6464,0.381097,0
25.4161,-10.5363,0.376771,0
25.5566,-10.4437,0.376917,0
25.6952,-10.3468,0.377054,0
25.8319,-10.2457,0.377161,0
25.9662,-10.1403,0.377249,0
26.0982,-10.0308,0.377327,0
26.2276,-9.91715,0.377376,0
26.3541,-9.79937,0.377405,0
26.4779,-9.67755,0.377405,0
26.5985,-9.55175,0.377396,0
26.7159,-9.42201,0.377347,0
26.8298,-9.28845,0.377288,0
26.9401,-9.15112,0.3772,0
27.0465,-9.01014,0.377083,0
27.1491,-8.86561,0.376956,0
27.2475,-8.71762,0.3768,0
27.3417,-8.56631,0.376624,0
27.4315,-8.41181,0.376419,0
27.5166,-8.25425,0.376195,0
27.597,-8.09373,0.375921,0
27.6726,-7.93048,0.375657,0
27.7432,-7.76462,0.375364,0
27.8086,-7.5963,0.375032,0
27.8688,-7.42573,0.374691,0
27.9284,-7.25394,0.374905,0
27.9834,-7.08019,0.375228,0
28.0323,-6.90438,0.375443,0
28.0749,-6.72674,0.37556,0
28.1112,-6.54754,0.375579,0
28.145,-6.36727,0.37595,0
28.1841,-6.18635,0.377708,0
28.2098,-6.0037,0.378509,0
28.2209,-5.82004,0.378216,0
28.2248,-5.63603,0.377718,0
28.2212,-5.45204,0.377073,0
28.2103,-5.26832,0.376214,0
28.1922,-5.08518,0.375159,0
28.1666,-4.90295,0.373939,0
28.134,-4.72194,0.372552,0
28.0941,-4.54244,0.37098,0
28.0473,-4.36472,0.369212,0
27.9936,-4.1891,0.367308,0
27.933,-4.01584,0.365228,0
27.8684,-3.84455,0.363314,0
27.8119,-3.67206,0.363109,0
27.7505,-3.5014,0.363001,0
27.6847,-3.33271,0.362982,0
27.6141,-3.16614,0.36304,0
27.5392,-3.00181,0.363196,0
27.4599,-2.83981,0.363421,0
27.3763,-2.68034,0.363743,0
27.2884,-2.52347,0.364134,0
27.1965,-2.36934,0.364612,0
27.0939,-2.22142,0.364232,0
26.9473,-2.09851,0.358099,0
26.799,-1.98035,0.352113,0
26.6489,-1.86691,0.346263,0
20.4784,-12.4183,0.553861,0
20.6302,-12.4081,0.546136,0
20.7816,-12.3951,0.538529,0
20.9327,-12.3794,0.531038,0
21.0837,-12.361,0.523685,0
21.2343,-12.3398,0.516468,0
21.3845,-12.316,0.509368,0
21.5343,-12.2894,0.502396,0
21.6838,-12.2601,0.49557,0
21.8327,-12.2282,0.48888,0
21.9812,-12.1935,0.482327,0
22.1291,-12.1561,0.475911,0
22.2828,-12.1344,0.472825,0
22.4373,-12.1109,0.470032,0
22.5919,-12.084,0.467269,0
22.7464,-12.0535,0.464534,0
22.901,-12.0195,0.46182,0
23.0511,-11.9727,0.457523,0
23.1991,-11.9194,0.452718,0
23.3461,-11.8626,0.447962,0
23.4922,-11.8025,0.443255,0
23.6373,-11.7391,0.438626,0
23.7812,-11.6722,0.434036,0
23.9241,-11.602,0.429505,0
24.0656,-11.5285,0.425052,0
24.2059,-11.4517,0.420657,0
24.3448,-11.3715,0.416341,0
24.4798,-11.2852,0.411536,0
24.6123,-11.1947,0.406644,0
24.7429,-11.1009,0.4018,0
24.8715,-11.004,0.397015,0
24.9979,-10.9038,0.392308,0
25.1221,-10.8005,0.387669,0
25.244,-10.6942,0.383089,0
25.3635,-10.5847,0.378587,0
25.495,-10.4849,0.376849,0
25.6345,-10.3899,0.376995,0
25.772,-10.2907,0.377113,0
25.9073,-10.1872,0.37721,0
26.0404,-10.0795,0.377288,0
26.1709,-9.96767,0.377357,0
26.2988,-9.85169,0.377386,0
26.4238,-9.73164,0.377405,0
26.5458,-9.60759,0.377405,0
26.6646,-9.47958,0.377366,0
26.7801,-9.34769,0.377318,0
26.892,-9.212,0.377239,0
27.0002,-9.07263,0.377142,0
27.1045,-8.92965,0.377025,0
27.2048,-8.78315,0.376868,0
27.3009,-8.63329,0.376702,0
27.3925,-8.48018,0.376517,0
27.4798,-8.32393,0.376292,0
27.5622,-8.1647,0.376048,0
27.6399,-8.00265,0.375775,0
27.7128,-7.83792,0.375491,0
27.7805,-7.67066,0.375189,0
27.843,-7.50105,0.374837,0
27.9022,-7.3297,0.374739,0
27.9598,-7.1569,0.375101,0
28.0115,-6.98199,0.375374,0
28.0569,-6.80513,0.37553,0
28.096,-6.62656,0.37557,0
28.1287,-6.4466,0.37553,0
28.1677,-6.26617,0.376956,0
28.2027,-6.08432,0.378577,0
28.217,-5.90093,0.378372,0
28.224,-5.71702,0.377962,0
28.2237,-5.53298,0.377376,0
28.2161,-5.34911,0.376614,0
28.2011,-5.16565,0.375638,0
28.1788,-4.983,0.374495,0
28.1493,-4.80142,0.373187,0
28.1126,-4.62118,0.371673,0
28.0687,-4.44267,0.370003,0
28.018,-4.26609,0.368177,0
27.9605,-4.09174,0.366146,0
27.8969,-3.91977,0.364075,0
27.8373,-3.74773,0.363196,0
27.7781,-3.57627,0.36305,0
27.7142,-3.40669,0.362991,0
27.6458,-3.23916,0.363001,0
27.5728,-3.07381,0.363109,0
27.4953,-2.91078,0.363304,0
27.4136,-2.75019,0.363587,0
27.3276,-2.59215,0.363948,0
27.2375,-2.4368,0.364388,0
27.1433,-2.28423,0.364915,0
27.0121,-2.152,0.360784,0
26.8645,-2.03176,0.35473,0
26.7151,-1.91624,0.348812,0
20.4516,-12.1994,0.56305,0
20.5987,-12.1954,0.556575,0
20.7453,-12.1832,0.549183,0
20.8917,-12.1683,0.541927,0
21.0377,-12.1508,0.534798,0
21.1834,-12.1306,0.527796,0
21.3288,-12.1078,0.520921,0
21.4739,-12.0823,0.514163,0
21.6185,-12.0542,0.507542,0
21.7627,-12.0234,0.501068,0
21.9063,-11.99,0.49471,0
22.0496,-11.954,0.488489,0
22.1923,-11.9153,0.482415,0
22.3345,-11.874,0.476468,0
22.4768,-11.8322,0.471048,0
22.6248,-11.8023,0.468431,0
22.7726,-11.7691,0.465843,0
22.9203,-11.7324,0.463275,0
23.063,-11.6826,0.458948,0
23.204,-11.6279,0.454388,0
23.3441,-11.5701,0.449876,0
23.4833,-11.509,0.445423,0
23.6213,-11.4447,0.441038,0
23.7583,-11.3771,0.436693,0
23.8925,-11.3043,0.432025,0
24.0246,-11.2272,0.427191,0
24.155,-11.1469,0.422396,0
24.2837,-11.0633,0.417659,0
24.4105,-10.9767,0.412972,0
24.5356,-10.8869,0.408343,0
24.6587,-10.794,0.403773,0
24.7796,-10.6981,0.399251,0
24.8984,-10.5992,0.394808,0
25.0152,-10.4974,0.390433,0
25.1295,-10.3927,0.386116,0
25.2416,-10.285,0.381878,0
25.3512,-10.1747,0.377718,0
25.4679,-10.0693,0.375452,0
25.5948,-9.97032,0.37553,0
25.7196,-9.86749,0.375609,0
25.842,-9.76078,0.375657,0
25.9618,-9.65023,0.375687,0
26.0789,-9.53592,0.375696,0
26.1931,-9.41788,0.375687,0
26.3043,-9.29618,0.375657,0
26.4123,-9.1709,0.375599,0
26.517,-9.04208,0.375511,0
26.6182,-8.90986,0.375423,0
26.7157,-8.77431,0.375296,0
26.8095,-8.63554,0.375159,0
26.8993,-8.49362,0.374993,0
26.985,-8.34872,0.374808,0
27.0664,-8.20093,0.374593,0
27.1436,-8.05041,0.374378,0
27.2162,-7.89724,0.374105,0
27.2843,-7.7416,0.373831,0
27.3477,-7.58368,0.373548,0
27.4062,-7.42354,0.373206,0
27.4597,-7.26144,0.372864,0
27.5082,-7.09749,0.372513,0
27.5516,-6.93187,0.372112,0
27.5898,-6.76477,0.371702,0
27.6322,-6.59743,0.372552,0
27.6778,-6.42924,0.374486,0
27.6995,-6.25813,0.373929,0
27.7141,-6.08626,0.373157,0
27.724,-5.91395,0.372445,0
27.729,-5.74136,0.371829,0
27.7292,-5.56862,0.371282,0
27.7246,-5.39593,0.370814,0
27.7152,-5.22337,0.370403,0
27.7009,-5.05115,0.370091,0
27.682,-4.87938,0.369837,0
27.658,-4.70824,0.369671,0
27.6295,-4.53785,0.369583,0
27.5962,-4.36838,0.369573,0
27.558,-4.19997,0.369642,0
27.5153,-4.03278,0.369798,0
27.4665,-3.86732,0.369808,0
27.4112,-3.70396,0.369661,0
27.3516,-3.54233,0.369573,0
27.2876,-3.38261,0.369573,0
27.2192,-3.22491,0.369652,0
27.1468,-3.06937,0.369827,0
27.0701,-2.91605,0.370062,0
26.9895,-2.76516,0.370394,0
26.9049,-2.6167,0.370775,0
26.8045,-2.47688,0.369456,0
26.6698,-2.35632,0.363558,0
26.5332,-2.24012,0.357786,0
26.3948,-2.12833,0.352152,0
20.3862,-12.1838,0.562855,0
20.5341,-12.1999,0.559847,0
20.6808,-12.1889,0.552415,0
20.8273,-12.1752,0.545101,0
20.9735,-12.1588,0.537923,0
21.1194,-12.1398,0.530863,0
21.2649,-12.1181,0.523919,0
21.4101,-12.0938,0.517122,0
21.5549,-12.0669,0.510443,0
21.6992,-12.0373,0.5039,0
21.8432,-12.005,0.497484,0
21.9866,-11.9702,0.491204,0
22.1296,-11.9327,0.485071,0
22.272,-11.8925,0.479066,0
22.4137,-11.8497,0.473196,0
22.5597,-11.8159,0.469583,0
22.7075,-11.7841,0.466976,0
22.8553,-11.7489,0.464398,0
23.0006,-11.7056,0.46097,0
23.142,-11.6524,0.4564,0
23.2826,-11.5959,0.451859,0
23.4222,-11.5363,0.447386,0
23.5607,-11.4734,0.442962,0
23.6981,-11.4072,0.438597,0
23.834,-11.3372,0.434163,0
23.9667,-11.2615,0.42931,0
24.0978,-11.1826,0.424495,0
24.2273,-11.1005,0.419739,0
24.3549,-11.0152,0.415023,0
24.4808,-10.9268,0.410364,0
24.6047,-10.8353,0.405765,0
24.7266,-10.7407,0.401234,0
24.8465,-10.6431,0.396751,0
24.9641,-10.5426,0.392347,0
25.0795,-10.4391,0.388001,0
25.1925,-10.3327,0.383734,0
25.3032,-10.2236,0.379534,0
25.4114,-10.1116,0.375423,0
25.5393,-10.0143,0.375501,0
25.665,-9.91322,0.375579,0
25.7884,-9.80821,0.375648,0
25.9094,-9.69935,0.375677,0
26.0277,-9.58668,0.375696,0
26.1432,-9.47027,0.375687,0
26.2558,-9.35017,0.375667,0
26.3652,-9.22646,0.375628,0
26.4713,-9.09919,0.37556,0
26.5741,-8.96846,0.375462,0
26.6732,-8.83436,0.375345,0
26.7687,-8.69701,0.375237,0
26.8602,-8.55646,0.375081,0
26.9477,-8.41285,0.374896,0
27.0311,-8.26631,0.374691,0
27.1102,-8.11695,0.374466,0
27.1848,-7.96495,0.374232,0
27.2549,-7.81038,0.373958,0
27.3204,-7.65343,0.373665,0
27.3809,-7.49427,0.373362,0
27.4367,-7.33301,0.37303,0
27.4875,-7.16983,0.372669,0
27.5331,-7.00492,0.372279,0
27.5736,-6.83848,0.371898,0
27.6107,-6.67084,0.371712,0
27.6583,-6.50344,0.373607,0
27.6915,-6.33356,0.37429,0
27.7083,-6.16194,0.37348,0
27.7202,-5.9898,0.372757,0
27.7273,-5.81732,0.372093,0
27.7298,-5.64464,0.371517,0
27.7273,-5.4719,0.371009,0
27.7199,-5.29926,0.37057,0
27.7078,-5.12687,0.370208,0
27.6909,-4.9549,0.369945,0
27.6691,-4.78346,0.369739,0
27.6427,-4.61273,0.369622,0
27.6114,-4.44284,0.369573,0
27.5754,-4.27395,0.369622,0
27.5347,-4.10621,0.36973,0
27.4894,-3.93975,0.369905,0
27.4361,-3.77562,0.36971,0
27.3784,-3.61322,0.369603,0
27.3162,-3.45266,0.369564,0
27.2498,-3.29406,0.369622,0
27.1791,-3.13753,0.369739,0
27.1044,-2.98322,0.369945,0
27.0255,-2.83125,0.370247,0
26.9426,-2.6817,0.370599,0
26.8559,-2.53474,0.371048,0
26.7293,-2.40883,0.366136,0
26.5936,-2.29071,0.360316,0
26.4559,-2.17697,0.354612,0
26.3166,-2.06762,0.349036,0
20.4695,-12.2036,0.563099,0
20.6163,-12.194,0.555667,0
20.7629,-12.1815,0.548304,0
20.9091,-12.1663,0.541068,0
21.0552,-12.1485,0.533958,0
21.2009,-12.128,0.526956,0
21.3463,-12.1049,0.520101,0
21.4912,-12.0791,0.513362,0
21.6359,-12.0506,0.506761,0
21.7799,-12.0196,0.500286,0
21.9236,-11.9858,0.493958,0
22.0667,-11.9495,0.487757,0
22.2094,-11.9105,0.481683,0
22.3514,-11.8689,0.475765,0
22.4946,-11.8288,0.470736,0
22.6424,-11.7985,0.468118,0
22.7903,-11.7648,0.46553,0
22.938,-11.7277,0.462962,0
23.0799,-11.6762,0.458402,0
23.2209,-11.6212,0.453851,0
23.3609,-11.5629,0.449339,0
23.4998,-11.5014,0.444896,0
23.6378,-11.4367,0.440511,0
23.7746,-11.3688,0.436185,0
23.9085,-11.2953,0.431448,0
24.0403,-11.2177,0.426605,0
24.1705,-11.137,0.421829,0
24.299,-11.0531,0.417093,0
24.4256,-10.9661,0.412415,0
24.5505,-10.8759,0.407786,0
24.6733,-10.7827,0.403226,0
24.794,-10.6864,0.398714,0
24.9126,-10.5872,0.394271,0
25.029,-10.485,0.389896,0
25.1431,-10.3799,0.385599,0
25.2548,-10.2719,0.38137,0
25.3641,-10.1612,0.37723,0
25.4833,-10.0576,0.375462,0
25.6099,-9.95819,0.37555,0
25.7344,-9.8549,0.375618,0
25.8565,-9.74771,0.375657,0
25.9759,-9.63672,0.375696,0
26.0927,-9.52194,0.375696,0
26.2066,-9.40348,0.375677,0
26.3174,-9.28133,0.375638,0
26.425,-9.15562,0.375599,0
26.5293,-9.02642,0.375521,0
26.63,-8.89378,0.375404,0
26.7271,-8.75781,0.375277,0
26.8204,-8.61867,0.37515,0
26.9098,-8.47639,0.374974,0
26.9949,-8.33113,0.374779,0
27.0759,-8.18302,0.374573,0
27.1525,-8.03217,0.374349,0
27.2247,-7.87869,0.374075,0
27.2922,-7.72279,0.373802,0
27.3549,-7.56457,0.373499,0
27.4128,-7.40421,0.373167,0
27.4658,-7.24185,0.372816,0
27.5137,-7.07772,0.372474,0
27.5564,-6.91191,0.372073,0
27.5941,-6.74466,0.371663,0
27.6378,-6.57732,0.372767,0
27.6827,-6.40891,0.374671,0
27.7015,-6.23753,0.373821,0
27.7155,-6.06561,0.37306,0
27.7248,-5.89324,0.372366,0
27.7293,-5.72064,0.371771,0
27.7289,-5.54788,0.371204,0
27.7238,-5.37521,0.370755,0
27.7137,-5.20269,0.370364,0
27.6989,-5.03051,0.370052,0
27.6793,-4.85881,0.369818,0
27.6549,-4.68775,0.369661,0
27.6257,-4.51748,0.369593,0
27.5918,-4.34813,0.369593,0
27.5532,-4.17985,0.369661,0
27.5099,-4.01281,0.369827,0
27.4602,-3.84764,0.369798,0
27.4044,-3.68447,0.369652,0
27.3441,-3.52307,0.369573,0
27.2795,-3.3636,0.369603,0
27.2108,-3.20612,0.369671,0
27.1377,-3.05084,0.369857,0
27.0607,-2.89781,0.370101,0
26.9795,-2.74721,0.370443,0
26.8945,-2.59906,0.370833,0
26.7884,-2.46217,0.368734,0
26.6535,-2.34212,0.362845,0
26.5167,-2.22647,0.357103,0
26.3781,-2.1152,0.351468,0
20.4436,-11.9958,0.571321,0
20.5863,-11.9942,0.565501,0
20.7283,-11.9824,0.558353,0
20.8701,-11.968,0.551331,0
21.0115,-11.951,0.544427,0
21.1527,-11.9314,0.53764,0
21.2935,-11.9093,0.53098,0
21.434,-11.8845,0.524437,0
21.574,-11.8572,0.51803,0
21.7137,-11.8273,0.511761,0
21.8528,-11.7948,0.505609,0
21.9915,-11.7597,0.499593,0
22.1297,-11.7221,0.493714,0
22.2673,-11.6819,0.487972,0
22.4043,-11.6391,0.482357,0
22.5408,-11.5938,0.476898,0
22.6765,-11.5459,0.471566,0
22.8126,-11.4975,0.4668,0
22.9533,-11.4571,0.464193,0
23.0887,-11.4041,0.459818,0
23.2231,-11.3478,0.455452,0
23.3551,-11.2859,0.450657,0
23.4859,-11.2209,0.445911,0
23.6152,-11.1527,0.441195,0
23.7432,-11.0814,0.436517,0
23.8697,-11.007,0.431878,0
23.9945,-10.9296,0.427298,0
24.1177,-10.8491,0.422747,0
24.2392,-10.7656,0.418265,0
24.3588,-10.6792,0.413831,0
24.4766,-10.5897,0.409456,0
24.5924,-10.4975,0.40512,0
24.7062,-10.4023,0.400872,0
24.8178,-10.3043,0.396683,0
24.9272,-10.2036,0.392552,0
25.0343,-10.1001,0.388499,0
25.1391,-9.99398,0.384525,0
25.2415,-9.88523,0.380618,0
25.3413,-9.77391,0.37678,0
25.4442,-9.66416,0.374095,0
25.559,-9.56174,0.374134,0
25.6714,-9.45577,0.374154,0
25.7812,-9.34628,0.374154,0
25.8883,-9.23334,0.374144,0
25.9925,-9.11696,0.374085,0
26.0936,-8.9973,0.374036,0
26.1915,-8.87436,0.373958,0
26.2862,-8.74828,0.37387,0
26.3773,-8.61909,0.373734,0
26.4648,-8.48692,0.373597,0
26.5487,-8.35188,0.373441,0
26.6287,-8.21406,0.373255,0
26.7048,-8.07358,0.37306,0
26.7766,-7.93056,0.372825,0
26.8444,-7.78512,0.372571,0
26.9078,-7.63742,0.372308,0
26.9667,-7.4876,0.372025,0
27.0212,-7.33578,0.371722,0
27.0758,-7.18308,0.372083,0
27.1338,-7.02993,0.373577,0
27.1881,-6.8748,0.375169,0
27.2384,-6.7178,0.376859,0
27.2848,-6.55901,0.378636,0
27.3254,-6.39844,0.380286,0
27.3436,-6.23522,0.379486,0
27.3573,-6.07146,0.378743,0
27.3665,-5.90731,0.378079,0
27.3711,-5.74292,0.377493,0
27.3712,-5.57838,0.376966,0
27.3667,-5.41388,0.376517,0
27.3577,-5.24952,0.376136,0
27.3441,-5.08548,0.375833,0
27.326,-4.92186,0.375599,0
27.3033,-4.75885,0.375452,0
27.2762,-4.59654,0.375374,0
27.2446,-4.43508,0.375355,0
27.2085,-4.27463,0.375423,0
27.168,-4.1153,0.37556,0
27.1232,-3.95724,0.375765,0
27.0713,-3.80134,0.375638,0
27.0148,-3.64719,0.37556,0
26.9544,-3.49481,0.37556,0
26.8898,-3.34432,0.375628,0
26.8212,-3.19583,0.375765,0
26.7487,-3.04945,0.375989,0
26.6725,-2.90532,0.376292,0
26.5925,-2.76352,0.376654,0
26.4701,-2.64328,0.371009,0
26.345,-2.52736,0.365394,0
26.218,-2.4155,0.359886,0
26.0891,-2.30776,0.354534,0
20.3803,-11.9812,0.571116,0
20.5237,-11.9985,0.568695,0
20.6658,-11.9879,0.561487,0
20.8077,-11.9746,0.554407,0
20.9493,-11.9588,0.547445,0
21.0905,-11.9403,0.540599,0
21.2316,-11.9193,0.53389,0
21.3723,-11.8957,0.527308,0
21.5125,-11.8695,0.520843,0
21.6523,-11.8408,0.514495,0
21.7917,-11.8094,0.508304,0
21.9305,-11.7755,0.50223,0
22.0689,-11.739,0.496292,0
22.2068,-11.6999,0.490482,0
22.3441,-11.6583,0.484818,0
22.4807,-11.6141,0.47929,0
22.6168,-11.5673,0.4739,0
22.7523,-11.5179,0.468646,0
22.8916,-11.4758,0.465433,0
23.0292,-11.4278,0.461732,0
23.1642,-11.3731,0.457386,0
23.2972,-11.3135,0.452767,0
23.4284,-11.2499,0.448001,0
23.5584,-11.1831,0.443255,0
23.6871,-11.1132,0.438577,0
23.8142,-11.0402,0.433919,0
23.9398,-10.9641,0.42931,0
24.0637,-10.8849,0.424739,0
24.1859,-10.8027,0.420228,0
24.3065,-10.7176,0.415765,0
24.4251,-10.6294,0.41137,0
24.5417,-10.5384,0.407015,0
24.6564,-10.4445,0.402737,0
24.7689,-10.3478,0.398519,0
24.8793,-10.2482,0.394359,0
24.9874,-10.146,0.390277,0
25.0933,-10.041,0.386263,0
25.1967,-9.93341,0.382327,0
25.2977,-9.82319,0.37846,0
25.3962,-9.71047,0.374681,0
25.5088,-9.60726,0.374124,0
25.6223,-9.50283,0.374144,0
25.7333,-9.39489,0.374163,0
25.8416,-9.28345,0.374144,0
25.947,-9.16858,0.374114,0
26.0495,-9.05036,0.374066,0
26.1488,-8.92886,0.373997,0
26.2449,-8.80414,0.3739,0
26.3377,-8.67631,0.373792,0
26.4267,-8.54544,0.373665,0
26.5123,-8.41166,0.373519,0
26.594,-8.27504,0.373333,0
26.6718,-8.13572,0.373148,0
26.7455,-7.9938,0.372933,0
26.8152,-7.8494,0.372689,0
26.8804,-7.7027,0.372445,0
26.9413,-7.55379,0.372161,0
26.9978,-7.40282,0.371859,0
27.0496,-7.24993,0.371536,0
27.1088,-7.09756,0.372903,0
27.1648,-6.94332,0.374476,0
27.2168,-6.78711,0.376107,0
27.2648,-6.62909,0.377855,0
27.3089,-6.46936,0.379671,0
27.3361,-6.30711,0.379827,0
27.3518,-6.14359,0.379066,0
27.363,-5.97958,0.378363,0
27.3697,-5.81528,0.377747,0
27.3717,-5.65078,0.377181,0
27.3693,-5.48625,0.376702,0
27.3623,-5.32182,0.376302,0
27.3506,-5.15761,0.37596,0
27.3345,-4.9938,0.375696,0
27.3139,-4.8305,0.375501,0
27.2887,-4.66785,0.375394,0
27.2591,-4.50602,0.375355,0
27.2249,-4.34511,0.375384,0
27.1864,-4.18526,0.375491,0
27.1434,-4.02661,0.375657,0
27.0948,-3.8697,0.375706,0
27.0402,-3.71479,0.375589,0
26.9815,-3.56161,0.37554,0
26.9187,-3.41029,0.375589,0
26.8519,-3.2609,0.375696,0
26.7811,-3.11359,0.375892,0
26.7066,-2.96846,0.376146,0
26.6281,-2.82562,0.376478,0
26.5245,-2.69558,0.373519,0
26.4004,-2.57787,0.367855,0
26.2741,-2.46423,0.362298,0
26.146,-2.35467,0.356868,0
26.0161,-2.24916,0.351546,0
20.4609,-11.9997,0.57138,0
20.6033,-11.9929,0.564642,0
20.7452,-11.9808,0.557503,0
20.887,-11.9661,0.550491,0
21.0284,-11.9488,0.543597,0
21.1696,-11.9289,0.536829,0
21.3105,-11.9064,0.530189,0
21.4509,-11.8814,0.523665,0
21.5909,-11.8537,0.517278,0
21.7304,-11.8235,0.511019,0
21.8695,-11.7908,0.504886,0
22.0081,-11.7554,0.49889,0
22.1462,-11.7174,0.493021,0
22.2837,-11.6769,0.487298,0
22.4207,-11.6338,0.481702,0
22.557,-11.5882,0.476253,0
22.6927,-11.54,0.470941,0
22.8295,-11.493,0.466497,0
22.9696,-11.4509,0.463665,0
23.1049,-11.3975,0.45929,0
23.239,-11.3405,0.454876,0
23.3709,-11.2783,0.450081,0
23.5015,-11.2129,0.445335,0
23.6307,-11.1443,0.440628,0
23.7585,-11.0727,0.43596,0
23.8847,-10.9979,0.431331,0
24.0094,-10.9201,0.426751,0
24.1324,-10.8392,0.42221,0
24.2537,-10.7554,0.417728,0
24.3731,-10.6686,0.413294,0
24.4906,-10.5788,0.408929,0
24.6062,-10.4862,0.404612,0
24.7197,-10.3907,0.400364,0
24.831,-10.2924,0.396175,0
24.9402,-10.1913,0.392064,0
25.047,-10.0875,0.388021,0
25.1515,-9.98106,0.384046,0
25.2536,-9.87199,0.38015,0
25.3531,-9.76039,0.376341,0
25.4581,-9.65205,0.374095,0
25.5727,-9.54922,0.374134,0
25.6848,-9.44281,0.374154,0
25.7942,-9.33289,0.374154,0
25.9009,-9.21954,0.374134,0
26.0048,-9.1028,0.374095,0
26.1055,-8.98272,0.374027,0
26.203,-8.85942,0.373958,0
26.2972,-8.73294,0.373841,0
26.388,-8.60339,0.373724,0
26.4751,-8.47087,0.373577,0
26.5585,-8.3355,0.373421,0
26.638,-8.19735,0.373236,0
26.7136,-8.05655,0.37303,0
26.785,-7.91323,0.372806,0
26.8522,-7.76753,0.372542,0
26.9151,-7.61959,0.372288,0
26.9734,-7.4695,0.371995,0
27.0273,-7.31744,0.371683,0
27.083,-7.16482,0.372259,0
27.1405,-7.01142,0.373753,0
27.1944,-6.85606,0.375374,0
27.2442,-6.69886,0.377073,0
27.2901,-6.53985,0.378861,0
27.3278,-6.3789,0.380189,0
27.3455,-6.21561,0.379388,0
27.3587,-6.05181,0.378665,0
27.3673,-5.88761,0.378001,0
27.3714,-5.72319,0.377425,0
27.3709,-5.55865,0.376917,0
27.3659,-5.39415,0.376478,0
27.3563,-5.22982,0.376097,0
27.3422,-5.06583,0.375814,0
27.3235,-4.90229,0.375589,0
27.3003,-4.73933,0.375433,0
27.2727,-4.57712,0.375364,0
27.2405,-4.41577,0.375355,0
27.2038,-4.25545,0.375433,0
27.1628,-4.09626,0.37557,0
27.1175,-3.93836,0.375775,0
27.0648,-3.78275,0.375628,0
27.0078,-3.6288,0.37556,0
26.9469,-3.47664,0.37556,0
26.8818,-3.32638,0.375638,0
26.8127,-3.17813,0.375794,0
26.7398,-3.03205,0.376029,0
26.663,-2.88818,0.376331,0
26.5784,-2.74864,0.376038,0
26.4552,-2.62916,0.370335,0
26.3299,-2.51374,0.364739,0
26.2026,-2.40237,0.359241,0
26.0734,-2.2951,0.35389,0
20.4362,-11.8042,0.579105,0
20.5745,-11.8047,0.573929,0
20.7123,-11.7933,0.566995,0
20.8497,-11.7793,0.560179,0
20.9868,-11.7629,0.55348,0
21.1237,-11.7438,0.546898,0
21.2602,-11.7223,0.540452,0
21.3964,-11.6983,0.534114,0
21.5322,-11.6717,0.527913,0
21.6675,-11.6426,0.521829,0
21.8025,-11.611,0.515882,0
21.9368,-11.5769,0.510052,0
22.0707,-11.5402,0.504359,0
22.2041,-11.5011,0.498812,0
22.3368,-11.4594,0.493392,0
22.469,-11.4153,0.488099,0
22.6005,-11.3686,0.482943,0
22.7279,-11.3121,0.476478,0
22.8523,-11.2494,0.469398,0
22.977,-11.1875,0.463089,0
23.1055,-11.1318,0.458685,0
23.2326,-11.0728,0.454241,0
23.3581,-11.01,0.449691,0
23.4822,-10.9441,0.445159,0
23.6051,-10.8753,0.440667,0
23.7263,-10.8035,0.436224,0
23.8462,-10.7287,0.43181,0
23.9643,-10.651,0.427454,0
24.0808,-10.5705,0.423157,0
24.1955,-10.4871,0.4189,0
24.3085,-10.401,0.4147,0
24.4195,-10.312,0.41057,0
24.5285,-10.2203,0.406478,0
24.6354,-10.1259,0.402454,0
24.7403,-10.0289,0.398509,0
24.8429,-9.92931,0.394612,0
24.9433,-9.82714,0.390804,0
25.0413,-9.72247,0.387064,0
25.137,-9.61534,0.383392,0
25.2302,-9.50582,0.379808,0
25.3208,-9.39397,0.376312,0
25.4088,-9.27984,0.372884,0
25.5115,-9.1744,0.372757,0
25.6122,-9.06616,0.372747,0
25.7101,-8.95475,0.372708,0
25.805,-8.84021,0.37264,0
25.897,-8.72265,0.372542,0
25.9859,-8.60215,0.372445,0
26.0714,-8.47879,0.372327,0
26.1535,-8.35266,0.372191,0
26.2321,-8.22386,0.372034,0
26.3071,-8.09249,0.371868,0
26.3783,-7.95862,0.371653,0
26.4484,-7.82334,0.371878,0
26.5198,-7.68726,0.372894,0
26.588,-7.54892,0.374007,0
26.6529,-7.40837,0.375198,0
26.7144,-7.26573,0.376487,0
26.7723,-7.12104,0.377855,0
26.8267,-6.97442,0.37931,0
26.8774,-6.826,0.380863,0
26.9244,-6.67577,0.382484,0
26.9675,-6.52395,0.384212,0
27.002,-6.37017,0.385316,0
27.0191,-6.21433,0.384554,0
27.032,-6.05799,0.383841,0
27.0405,-5.90128,0.383216,0
27.0448,-5.74434,0.38265,0
27.0448,-5.58729,0.382161,0
27.0404,-5.43025,0.381732,0
27.0317,-5.27336,0.38137,0
27.0187,-5.11678,0.381077,0
27.0015,-4.96062,0.380863,0
26.9799,-4.80496,0.380706,0
26.9541,-4.65002,0.380618,0
26.9241,-4.49588,0.380609,0
26.8898,-4.34268,0.380667,0
26.8513,-4.19053,0.380794,0
26.8088,-4.03959,0.380999,0
26.7611,-3.8902,0.381107,0
26.7076,-3.74287,0.381029,0
26.6502,-3.59721,0.381019,0
26.589,-3.4533,0.381068,0
26.524,-3.31132,0.381214,0
26.4553,-3.17128,0.3814,0
26.383,-3.03335,0.381673,0
26.2818,-2.90943,0.377894,0
26.1673,-2.79408,0.372425,0
26.0505,-2.68252,0.367064,0
25.9318,-2.57475,0.36182,0
25.8112,-2.47076,0.356673,0
20.3748,-11.7905,0.57888,0
20.5139,-11.8089,0.577015,0
20.6516,-11.7986,0.570032,0
20.7892,-11.7858,0.563167,0
20.9265,-11.7704,0.556409,0
21.0635,-11.7525,0.549779,0
21.2002,-11.7321,0.543275,0
21.3365,-11.7092,0.536888,0
21.4725,-11.6837,0.530618,0
21.608,-11.6557,0.524495,0
21.7431,-11.6252,0.51848,0
21.8778,-11.5922,0.512601,0
22.0119,-11.5567,0.506849,0
22.1455,-11.5186,0.501234,0
22.2784,-11.4781,0.495755,0
22.4109,-11.435,0.490404,0
22.5427,-11.3894,0.485189,0
22.6727,-11.3388,0.479612,0
22.7977,-11.2773,0.472503,0
22.9213,-11.2131,0.465452,0
23.0491,-11.1567,0.460618,0
23.1769,-11.0992,0.456214,0
23.303,-11.038,0.451693,0
23.4278,-10.9734,0.447142,0
23.5512,-10.9059,0.44264,0
23.6731,-10.8354,0.438177,0
23.7936,-10.762,0.433743,0
23.9125,-10.6856,0.429368,0
24.0298,-10.6063,0.425042,0
24.1452,-10.5242,0.420765,0
24.2591,-10.4392,0.416536,0
24.3709,-10.3515,0.412366,0
24.4808,-10.261,0.408265,0
24.5886,-10.1678,0.404222,0
24.6944,-10.0719,0.400238,0
24.798,-9.97347,0.396321,0
24.8994,-9.87241,0.392484,0
24.9985,-9.76884,0.388704,0
25.0952,-9.66277,0.384993,0
25.1895,-9.55432,0.38138,0
25.2812,-9.44346,0.377835,0
25.3704,-9.33034,0.374378,0
25.4663,-9.22103,0.372767,0
25.5682,-9.11417,0.372747,0
25.6673,-9.00414,0.372708,0
25.7637,-8.89097,0.372659,0
25.857,-8.77476,0.372591,0
25.9472,-8.65553,0.372493,0
26.0341,-8.53342,0.372386,0
26.1178,-8.40851,0.372259,0
26.198,-8.28086,0.372112,0
26.2745,-8.15061,0.371937,0
26.3474,-8.01782,0.371741,0
26.4164,-7.88266,0.371546,0
26.4887,-7.74742,0.372445,0
26.5584,-7.61006,0.373499,0
26.6248,-7.47047,0.374661,0
26.6878,-7.32873,0.375902,0
26.7473,-7.18494,0.377239,0
26.8032,-7.03919,0.378665,0
26.8555,-6.89153,0.380179,0
26.9041,-6.74208,0.381761,0
26.9491,-6.59096,0.38345,0
26.99,-6.43824,0.385218,0
27.012,-6.28298,0.384886,0
27.0268,-6.12684,0.384144,0
27.0373,-5.97028,0.383489,0
27.0434,-5.81342,0.382884,0
27.0453,-5.65639,0.382366,0
27.0429,-5.49934,0.381917,0
27.0361,-5.34236,0.381517,0
27.025,-5.18564,0.381195,0
27.0096,-5.02926,0.380941,0
26.99,-4.87337,0.380755,0
26.966,-4.71811,0.380648,0
26.9378,-4.5636,0.380618,0
26.9054,-4.40996,0.380638,0
26.8687,-4.25734,0.380736,0
26.828,-4.10586,0.380911,0
26.783,-3.95561,0.381126,0
26.7316,-3.80749,0.381048,0
26.6759,-3.66107,0.381009,0
26.6165,-3.5164,0.381048,0
26.553,-3.37354,0.381136,0
26.486,-3.23263,0.381302,0
26.4152,-3.09378,0.381556,0
26.3314,-2.96138,0.380325,0
26.2179,-2.84438,0.374818,0
26.1021,-2.73115,0.369417,0
25.9842,-2.62169,0.364114,0
25.8645,-2.51605,0.358929,0
25.7429,-2.4142,0.353851,0
20.4529,-11.8078,0.579163,0
20.5911,-11.8035,0.573089,0
20.7287,-11.7917,0.566165,0
20.8661,-11.7775,0.559368,0
21.0033,-11.7607,0.552679,0
21.1401,-11.7414,0.546116,0
21.2766,-11.7196,0.539681,0
21.4127,-11.6952,0.533363,0
21.5484,-11.6683,0.527171,0
21.6838,-11.6389,0.521107,0
21.8186,-11.607,0.515169,0
21.9529,-11.5726,0.509359,0
22.0867,-11.5357,0.503695,0
22.22,-11.4962,0.498148,0
22.3527,-11.4542,0.492738,0
22.4848,-11.4098,0.487474,0
22.6162,-11.3628,0.482337,0
22.7429,-11.3047,0.475618,0
22.8671,-11.2417,0.468548,0
22.9925,-11.181,0.462562,0
23.1208,-11.1249,0.458148,0
23.2477,-11.0654,0.453704,0
23.373,-11.0022,0.449144,0
23.4971,-10.936,0.444622,0
23.6197,-10.8668,0.44013,0
23.7409,-10.7946,0.435687,0
23.8604,-10.7195,0.431292,0
23.9784,-10.6415,0.426937,0
24.0947,-10.5607,0.42264,0
24.2092,-10.4769,0.418392,0
24.322,-10.3904,0.414202,0
24.4327,-10.3011,0.410062,0
24.5414,-10.2091,0.405989,0
24.6481,-10.1144,0.401976,0
24.7527,-10.0171,0.39804,0
24.8551,-9.91718,0.394154,0
24.9552,-9.81472,0.390355,0
25.053,-9.70975,0.386624,0
25.1483,-9.60232,0.382962,0
25.2412,-9.49253,0.379388,0
25.3315,-9.3804,0.375892,0
25.4207,-9.267,0.372767,0
25.5238,-9.16157,0.372757,0
25.6241,-9.05296,0.372737,0
25.7216,-8.94115,0.372689,0
25.8162,-8.82626,0.37262,0
25.9079,-8.70835,0.372532,0
25.9963,-8.5875,0.372435,0
26.0814,-8.46381,0.372318,0
26.1632,-8.33734,0.372171,0
26.2412,-8.20821,0.372005,0
26.3159,-8.07654,0.371839,0
26.3866,-7.94241,0.371634,0
26.457,-7.80715,0.372005,0
26.5281,-7.67079,0.37303,0
26.5959,-7.53217,0.374144,0
26.6604,-7.39137,0.375345,0
26.7215,-7.24849,0.376654,0
26.779,-7.10357,0.37803,0
26.833,-6.95671,0.379486,0
26.8833,-6.80807,0.381058,0
26.9297,-6.65767,0.382698,0
26.9724,-6.50563,0.384427,0
27.0042,-6.35149,0.385208,0
27.0208,-6.19559,0.384446,0
27.0332,-6.0392,0.383763,0
27.0413,-5.88247,0.383148,0
27.045,-5.7255,0.382581,0
27.0445,-5.56844,0.382103,0
27.0396,-5.41141,0.381673,0
27.0305,-5.25456,0.381331,0
27.017,-5.09801,0.381048,0
26.9991,-4.94188,0.380823,0
26.9771,-4.78634,0.380696,0
26.9507,-4.63148,0.380628,0
26.9202,-4.47743,0.380609,0
26.8854,-4.32437,0.380687,0
26.8464,-4.17236,0.380823,0
26.8033,-4.02156,0.381029,0
26.7548,-3.87244,0.381097,0
26.7009,-3.7253,0.381029,0
26.643,-3.57984,0.381019,0
26.5814,-3.43615,0.381077,0
26.5159,-3.29437,0.381214,0
26.4468,-3.15459,0.381419,0
26.3741,-3.01694,0.381712,0
26.2681,-2.89539,0.37723,0
26.1533,-2.78049,0.371771,0
26.0363,-2.66939,0.366429,0
25.9173,-2.56206,0.361195,0
25.7966,-2.45854,0.356068,0
20.4291,-11.6235,0.586429,0
20.5634,-11.6259,0.581868,0
20.6971,-11.6149,0.57514,0
20.8305,-11.6014,0.568529,0
20.9635,-11.5854,0.562034,0
21.0964,-11.5669,0.555648,0
21.2288,-11.546,0.549388,0
21.3609,-11.5226,0.543245,0
21.4927,-11.4967,0.53723,0
21.624,-11.4684,0.531331,0
21.7549,-11.4376,0.525569,0
21.8852,-11.4044,0.519925,0
22.0151,-11.3687,0.514407,0
22.1427,-11.3256,0.508021,0
22.2679,-11.2763,0.50098,0
22.3919,-11.2242,0.493988,0
22.5146,-11.1693,0.487044,0
22.6359,-11.1117,0.48015,0
22.7559,-11.0514,0.473323,0
22.8745,-10.9884,0.466546,0
22.9943,-10.9278,0.460902,0
23.1165,-10.8708,0.456683,0
23.2375,-10.8109,0.452474,0
23.3572,-10.748,0.448284,0
23.4757,-10.6822,0.444134,0
23.5926,-10.6135,0.439993,0
23.7081,-10.5418,0.435892,0
23.822,-10.4673,0.43182,0
23.9339,-10.3896,0.427698,0
24.0441,-10.3091,0.423607,0
24.1526,-10.226,0.419573,0
24.2591,-10.1401,0.415589,0
24.3637,-10.0517,0.411673,0
24.4665,-9.96065,0.407816,0
24.5671,-9.8671,0.404017,0
24.6655,-9.77104,0.400286,0
24.7619,-9.67256,0.396624,0
24.8559,-9.57168,0.39303,0
24.9477,-9.46848,0.389515,0
25.037,-9.36297,0.386077,0
25.124,-9.25521,0.382708,0
25.2084,-9.1453,0.379427,0
25.2902,-9.03324,0.376214,0
25.3694,-8.9191,0.373089,0
25.4562,-8.80882,0.371986,0
25.5477,-8.69998,0.372259,0
25.6367,-8.58849,0.372601,0
25.7234,-8.47441,0.37304,0
25.8077,-8.3578,0.373558,0
25.8894,-8.23868,0.374154,0
25.9684,-8.11711,0.374818,0
26.0446,-7.99315,0.37557,0
26.118,-7.86687,0.376419,0
26.1885,-7.73833,0.377327,0
26.256,-7.6076,0.378343,0
26.3203,-7.47472,0.379417,0
26.3814,-7.33979,0.380579,0
26.4393,-7.20287,0.38182,0
26.4937,-7.0641,0.383167,0
26.5448,-6.92351,0.384583,0
26.5924,-6.78121,0.386087,0
26.6363,-6.63727,0.387659,0
26.6766,-6.49179,0.38931,0
26.7057,-6.34428,0.389905,0
26.722,-6.19519,0.389183,0
26.734,-6.04563,0.388509,0
26.742,-5.89575,0.387913,0
26.7461,-5.74564,0.387376,0
26.7459,-5.59543,0.386907,0
26.7417,-5.44524,0.386497,0
26.7333,-5.29519,0.386146,0
26.7209,-5.14543,0.385872,0
26.7045,-4.99605,0.385667,0
26.6838,-4.84721,0.385521,0
26.6592,-4.699,0.385452,0
26.6305,-4.55155,0.385433,0
26.5979,-4.40499,0.385491,0
26.5612,-4.25942,0.385599,0
26.5207,-4.11498,0.385784,0
26.4763,-3.9718,0.386038,0
26.4261,-3.83056,0.386038,0
26.3716,-3.69104,0.386019,0
26.3134,-3.5532,0.386058,0
26.2516,-3.41714,0.386175,0
26.1862,-3.28296,0.386361,0
26.1034,-3.15692,0.384241,0
25.9986,-3.04241,0.378929,0
25.8913,-2.9314,0.373714,0
25.7821,-2.82391,0.368597,0
25.6708,-2.71993,0.363568,0
25.5577,-2.61953,0.358646,0
20.3695,-11.6108,0.586204,0
20.5046,-11.63,0.584866,0
20.6383,-11.62,0.578089,0
20.7718,-11.6076,0.571419,0
20.905,-11.5927,0.564876,0
21.038,-11.5753,0.558441,0
21.1705,-11.5555,0.552132,0
21.3029,-11.5332,0.545941,0
21.4348,-11.5084,0.539857,0
21.5662,-11.4811,0.533909,0
21.6973,-11.4514,0.528079,0
21.828,-11.4193,0.522386,0
21.958,-11.3847,0.51681,0
22.0872,-11.3464,0.511146,0
22.2129,-11.2984,0.504075,0
22.3375,-11.2475,0.497064,0
22.4608,-11.1938,0.490091,0
22.5827,-11.1374,0.483177,0
22.7033,-11.0783,0.476321,0
22.8225,-11.0164,0.469525,0
22.9402,-10.952,0.462786,0
23.0628,-10.8963,0.458538,0
23.1844,-10.8376,0.45432,0
23.3047,-10.7761,0.45013,0
23.4237,-10.7115,0.44596,0
23.5413,-10.6441,0.44181,0
23.6574,-10.5737,0.437689,0
23.772,-10.5005,0.433607,0
23.8849,-10.4242,0.429505,0
23.9959,-10.3449,0.425394,0
24.1051,-10.2629,0.421341,0
24.2124,-10.1782,0.417337,0
24.318,-10.0909,0.413392,0
24.4215,-10.001,0.409505,0
24.523,-9.90857,0.405687,0
24.6225,-9.81362,0.401927,0
24.7198,-9.7162,0.398226,0
24.8148,-9.61637,0.394603,0
24.9076,-9.51417,0.391058,0
24.998,-9.40966,0.387571,0
25.0861,-9.3029,0.384183,0
25.1716,-9.19393,0.380853,0
25.2545,-9.08279,0.377611,0
25.3349,-8.96961,0.374466,0
25.4152,-8.85587,0.371878,0
25.5077,-8.74819,0.372122,0
25.5978,-8.63787,0.372454,0
25.6856,-8.52493,0.372835,0
25.7709,-8.40942,0.373314,0
25.8538,-8.2914,0.37387,0
25.934,-8.1709,0.374505,0
26.0115,-8.04799,0.375228,0
26.0861,-7.92273,0.376038,0
26.1579,-7.79517,0.376907,0
26.2266,-7.66537,0.377874,0
26.2923,-7.53343,0.378919,0
26.3549,-7.39941,0.380062,0
26.4142,-7.26335,0.381253,0
26.4702,-7.12538,0.382552,0
26.5228,-6.98559,0.383948,0
26.5719,-6.844,0.385404,0
26.6174,-6.70078,0.386946,0
26.6594,-6.55598,0.388577,0
26.6973,-6.40968,0.390247,0
26.7153,-6.26085,0.389495,0
26.7291,-6.11148,0.388792,0
26.7391,-5.96175,0.388177,0
26.7448,-5.81173,0.38762,0
26.7464,-5.66152,0.387103,0
26.744,-5.51133,0.386673,0
26.7375,-5.3612,0.386302,0
26.7269,-5.2113,0.385989,0
26.7122,-5.06173,0.385745,0
26.6934,-4.91263,0.385579,0
26.6705,-4.76413,0.385472,0
26.6437,-4.61633,0.385433,0
26.6127,-4.46935,0.385443,0
26.5778,-4.32334,0.38554,0
26.539,-4.17839,0.385696,0
26.4963,-4.03463,0.385911,0
26.4488,-3.89245,0.386068,0
26.396,-3.75223,0.386009,0
26.3394,-3.61363,0.386028,0
26.2792,-3.47679,0.386126,0
26.2154,-3.34176,0.386273,0
26.1481,-3.20868,0.386497,0
26.0449,-3.09237,0.381263,0
25.9388,-2.97983,0.376009,0
25.8305,-2.87076,0.370833,0
25.72,-2.76524,0.365765,0
25.6077,-2.66326,0.360794,0
25.4935,-2.56485,0.355931,0
20.4453,-11.6269,0.586507,0
20.5795,-11.6247,0.581058,0
20.713,-11.6134,0.574339,0
20.8464,-11.5996,0.567738,0
20.9795,-11.5833,0.561253,0
21.1123,-11.5645,0.554896,0
21.2448,-11.5433,0.548636,0
21.3768,-11.5196,0.542513,0
21.5085,-11.4934,0.536517,0
21.6398,-11.4648,0.530638,0
21.7705,-11.4338,0.524886,0
21.9009,-11.4002,0.519251,0
22.0306,-11.3642,0.513753,0
22.1577,-11.3199,0.507181,0
22.2828,-11.2702,0.50014,0
22.4067,-11.2178,0.493148,0
22.5292,-11.1626,0.486214,0
22.6505,-11.1046,0.479329,0
22.7702,-11.044,0.472503,0
22.8885,-10.9807,0.465745,0
23.009,-10.9211,0.460394,0
23.131,-10.8638,0.456175,0
23.2519,-10.8035,0.451976,0
23.3716,-10.7403,0.447786,0
23.4898,-10.6741,0.443636,0
23.6066,-10.605,0.439505,0
23.7218,-10.533,0.435394,0
23.8355,-10.4582,0.431331,0
23.9473,-10.3801,0.4272,0
24.0573,-10.2993,0.423118,0
24.1655,-10.2158,0.419095,0
24.2718,-10.1297,0.41512,0
24.3762,-10.0409,0.411204,0
24.4787,-9.94955,0.407347,0
24.579,-9.8557,0.403568,0
24.6773,-9.75937,0.399847,0
24.7733,-9.66059,0.396185,0
24.8671,-9.55943,0.392611,0
24.9586,-9.45592,0.389095,0
25.0476,-9.35014,0.385667,0
25.1342,-9.24214,0.382308,0
25.2184,-9.13195,0.379036,0
25.2998,-9.01966,0.375843,0
25.3787,-8.90525,0.372718,0
25.4673,-8.7959,0.372005,0
25.5584,-8.68675,0.372298,0
25.6473,-8.57495,0.372659,0
25.7337,-8.46056,0.373099,0
25.8177,-8.34364,0.373626,0
25.8991,-8.22422,0.374222,0
25.9777,-8.10235,0.374905,0
26.0536,-7.97812,0.375667,0
26.1266,-7.85157,0.376517,0
26.1968,-7.72274,0.377435,0
26.2638,-7.59177,0.37846,0
26.3277,-7.45864,0.379554,0
26.3885,-7.32348,0.380726,0
26.446,-7.18634,0.381986,0
26.5001,-7.04732,0.383333,0
26.5507,-6.90652,0.384759,0
26.5978,-6.76401,0.386263,0
26.6413,-6.61989,0.387855,0
26.6812,-6.47425,0.389525,0
26.7079,-6.32642,0.389818,0
26.7236,-6.17729,0.389114,0
26.7352,-6.02769,0.388441,0
26.7427,-5.87777,0.387855,0
26.7462,-5.72764,0.387327,0
26.7456,-5.57742,0.386859,0
26.7409,-5.42723,0.386448,0
26.732,-5.27722,0.386126,0
26.7191,-5.12748,0.385843,0
26.7022,-4.97817,0.385657,0
26.6811,-4.82939,0.385521,0
26.6559,-4.68125,0.385423,0
26.6269,-4.53391,0.385433,0
26.5937,-4.38745,0.385482,0
26.5566,-4.24204,0.385628,0
26.5155,-4.09773,0.385823,0
26.4707,-3.95469,0.386068,0
26.4197,-3.81372,0.386028,0
26.3647,-3.6744,0.386009,0
26.3061,-3.53678,0.386068,0
26.2439,-3.40093,0.386185,0
26.1782,-3.26698,0.38639,0
26.0909,-3.14298,0.383597,0
25.9859,-3.0289,0.378294,0
25.8784,-2.91832,0.373109,0
25.7688,-2.81125,0.367991,0
25.6573,-2.70771,0.362982,0
25.5439,-2.60771,0.35806,0
20.4223,-11.4529,0.593372,0
20.553,-11.457,0.589378,0
20.6827,-11.4463,0.582845,0
20.8123,-11.4332,0.576419,0
20.9415,-11.4176,0.570111,0
21.0705,-11.3997,0.563909,0
21.1991,-11.3793,0.557835,0
21.3275,-11.3565,0.551878,0
21.4543,-11.3266,0.545032,0
21.5801,-11.2931,0.53806,0
21.7051,-11.2567,0.531116,0
21.8291,-11.2175,0.524202,0
21.952,-11.1755,0.517318,0
22.0741,-11.1308,0.510482,0
22.1949,-11.0833,0.503675,0
22.3146,-11.0332,0.496937,0
22.433,-10.9803,0.490228,0
22.5502,-10.9248,0.483577,0
22.6661,-10.8667,0.476986,0
22.7805,-10.806,0.470452,0
22.8934,-10.7427,0.463978,0
23.0084,-10.683,0.458909,0
23.1248,-10.625,0.454857,0
23.24,-10.5641,0.450833,0
23.3538,-10.5004,0.446829,0
23.4662,-10.434,0.442855,0
23.5772,-10.3647,0.438909,0
23.6867,-10.2927,0.434993,0
23.7946,-10.218,0.431107,0
23.9008,-10.1406,0.427259,0
24.0052,-10.0606,0.42345,0
24.1079,-9.97797,0.419681,0
24.2086,-9.89277,0.41596,0
24.3073,-9.80505,0.412279,0
24.4041,-9.71484,0.408646,0
24.4987,-9.6222,0.405071,0
24.5912,-9.52716,0.401536,0
24.6815,-9.42982,0.398079,0
24.7695,-9.33016,0.394652,0
24.8551,-9.2283,0.391312,0
24.9382,-9.12426,0.38803,0
25.0189,-9.01811,0.384798,0
25.097,-8.90991,0.381654,0
25.1802,-8.80426,0.380081,0
25.2637,-8.69793,0.379114,0
25.3451,-8.58941,0.378265,0
25.425,-8.47917,0.377689,0
25.5074,-8.3691,0.378128,0
25.5875,-8.25662,0.378646,0
25.6651,-8.14175,0.379212,0
25.7401,-8.02464,0.379905,0
25.8123,-7.90521,0.380638,0
25.882,-7.7836,0.381458,0
25.9487,-7.65985,0.382347,0
26.0125,-7.53407,0.383333,0
26.0734,-7.40627,0.384398,0
26.1311,-7.27655,0.38554,0
26.1857,-7.14498,0.386761,0
26.237,-7.01162,0.38805,0
26.2852,-6.87658,0.389427,0
26.3298,-6.73994,0.390872,0
26.3711,-6.60178,0.392405,0
26.4089,-6.46222,0.394027,0
26.4334,-6.3205,0.394154,0
26.4487,-6.17762,0.39345,0
26.4602,-6.03432,0.392816,0
26.4677,-5.89067,0.392239,0
26.4715,-5.74686,0.391732,0
26.4712,-5.60291,0.391273,0
26.4671,-5.45902,0.390892,0
26.4591,-5.31526,0.39056,0
26.4472,-5.17178,0.390296,0
26.4313,-5.02865,0.390091,0
26.4116,-4.88602,0.389945,0
26.3881,-4.744,0.389866,0
26.3608,-4.60269,0.389847,0
26.3296,-4.46225,0.389905,0
26.2947,-4.32274,0.390013,0
26.256,-4.1843,0.390189,0
26.2136,-4.04703,0.390423,0
26.1671,-3.9112,0.390638,0
26.1152,-3.77737,0.390609,0
26.0597,-3.64513,0.390657,0
26.0009,-3.51455,0.390765,0
25.9341,-3.38765,0.39013,0
25.838,-3.27418,0.384964,0
25.7398,-3.16394,0.379876,0
25.6391,-3.05697,0.374896,0
25.5365,-2.95327,0.369974,0
25.4317,-2.8529,0.365169,0
25.35,-2.74146,0.36515,0
20.3648,-11.443,0.593587,0
20.4959,-11.4609,0.592298,0
20.6257,-11.4513,0.585706,0
20.7553,-11.4392,0.579232,0
20.8847,-11.4248,0.572874,0
21.0138,-11.4079,0.566624,0
21.1426,-11.3885,0.560491,0
21.2711,-11.3668,0.554486,0
21.3987,-11.3405,0.548109,0
21.5248,-11.3082,0.541126,0
21.6502,-11.2731,0.534163,0
21.7746,-11.2351,0.527239,0
21.898,-11.1944,0.520345,0
22.0205,-11.1508,0.513489,0
22.1419,-11.1046,0.506673,0
22.2621,-11.0556,0.499896,0
22.3812,-11.0039,0.493177,0
22.4989,-10.9495,0.486507,0
22.6153,-10.8926,0.479876,0
22.7304,-10.833,0.473314,0
22.8439,-10.7709,0.46682,0
22.9569,-10.7076,0.460696,0
23.0737,-10.6509,0.456644,0
23.1895,-10.5913,0.452601,0
23.3038,-10.5288,0.448587,0
23.417,-10.4636,0.444603,0
23.5286,-10.3955,0.440648,0
23.6388,-10.3248,0.436712,0
23.7473,-10.2512,0.432816,0
23.8542,-10.175,0.428948,0
