41.64,-37.8352,-0.523987,174
41.806,-37.7749,-0.537831,174
41.9567,-37.7495,-0.548351,174
42.081,-37.8107,-0.55167,174
42.1786,-37.9873,-0.545941,174
39.7756,-49.6372,0.328113,0
40.1591,-49.8301,0.320213,0
40.5579,-49.9658,0.308538,0
41.8227,-44.2407,-0.124821,174
42.0964,-44.3305,-0.132106,174
42.3351,-44.7943,-0.112919,174
42.4469,-47.1586,0.0366103,174
42.823,-46.645,-0.0131932,174
43.0328,-50.6727,0.24223,0
43.4952,-46.4536,-0.0529799,174
43.8719,-49.5857,0.138288,174
44.2373,-48.596,0.0600658,174
44.6258,-48.7256,0.0550815,174
45.1621,-50.5322,0.155584,0
45.1549,-46.4691,-0.109541,174
45.4901,-46.4666,-0.119674,174
46.3587,-49.9199,0.080091,0
46.7461,-49.7283,0.0574494,0
47.1259,-49.5281,0.0351301,0
47.4982,-49.3196,0.013133,0
47.8452,-49.0328,-0.0126238,0
48.1692,-48.696,-0.0403973,0
47.65,-45.5775,-0.226839,174
47.8481,-45.1391,-0.257507,174
49.0837,-47.7161,-0.116906,0
49.369,-47.3932,-0.140597,0
49.6443,-47.0704,-0.163527,0
49.9098,-46.7479,-0.185724,0
50.16,-46.4129,-0.207902,0
50.3756,-46.0279,-0.23216,0
50.5983,-45.6818,-0.253596,0
50.8174,-45.3491,-0.273664,0
51.0282,-45.0193,-0.292941,0
51.2295,-44.6898,-0.311628,0
50.3099,-42.6123,-0.425273,174
51.6091,-44.0402,-0.346794,0
51.788,-43.72,-0.363327,0
51.9645,-43.4086,-0.378854,0
52.1509,-43.1211,-0.39258,0
52.3313,-42.8346,-0.405729,0
52.5062,-42.5492,-0.418366,0
52.6684,-42.2569,-0.430905,0
52.8187,-41.9592,-0.443317,0
52.9637,-41.6637,-0.455153,0
53.1038,-41.3703,-0.466462,0
53.2388,-41.079,-0.477233,0
53.3862,-40.8048,-0.486589,0
53.5359,-40.5369,-0.495153,0
53.6815,-40.2694,-0.503268,0
53.8233,-40.0021,-0.510944,0
53.9613,-39.7349,-0.51821,0
54.0935,-39.4665,-0.525143,0
54.2133,-39.1921,-0.532048,0
54.3289,-38.9181,-0.538552,0
54.4405,-38.6443,-0.544655,0
54.5636,-38.3797,-0.549714,0
54.6945,-38.1206,-0.553952,0
54.8223,-37.8603,-0.557829,0
54.9468,-37.5987,-0.561325,0
55.0682,-37.3359,-0.56447,0
55.1865,-37.0717,-0.567253,0
55.3017,-36.806,-0.569665,0
55.4139,-36.5389,-0.571725,0
55.523,-36.2701,-0.573425,0
55.6329,-36.001,-0.574636,0
55.7534,-35.734,-0.574997,0
55.8713,-35.4645,-0.574997,0
55.9866,-35.1924,-0.574626,0
56.0897,-34.9153,-0.574225,0
56.1837,-34.6345,-0.573659,0
56.2742,-34.3515,-0.572731,0
33.7859,-44.3367,0.428548,0
34.0012,-44.6511,0.426561,0
35.2887,-43.503,0.262852,174
35.5391,-43.7133,0.2538,174
34.6898,-45.5914,0.420609,0
36.6729,-43.1337,0.134214,174
35.1839,-46.2186,0.416995,0
35.4536,-46.5116,0.413279,0
35.7348,-46.7951,0.408817,0
36.0234,-47.0759,0.404305,0
38.0633,-43.7014,0.0648267,174
39.0106,-42.317,-0.0817598,174
39.3315,-42.2214,-0.108983,174
41.2555,-38.0431,-0.486951,174
41.4605,-37.9137,-0.507953,174
41.6386,-37.8357,-0.523869,174
41.8047,-37.7754,-0.537719,174
41.9556,-37.7493,-0.548294,174
42.0802,-37.8095,-0.551696,174
42.1781,-37.9844,-0.546098,174
39.7724,-49.6355,0.328172,0
40.156,-49.8285,0.320277,0
40.5545,-49.9648,0.308646,0
41.8205,-44.239,-0.124821,174
42.0941,-44.3301,-0.132024,174
42.3332,-44.7888,-0.113192,174
42.4438,-47.1615,0.0369314,174
42.8205,-46.6412,-0.0133334,174
43.0293,-50.6727,0.242376,0
43.4925,-46.4516,-0.0530081,174
43.8686,-49.5859,0.138424,174
44.2341,-48.596,0.0601758,174
44.6225,-48.7243,0.0551029,174
45.1586,-50.5326,0.155726,0
45.1524,-46.471,-0.109342,174
45.487,-46.4648,-0.119705,174
46.3555,-49.9214,0.0802814,0
46.7429,-49.7299,0.057635,0
47.1228,-49.5298,0.0353205,0
47.4952,-49.3214,0.0133234,0
47.8424,-49.0355,-0.0123894,0
48.1666,-48.6988,-0.0401824,0
47.6474,-45.5781,-0.226751,174
47.846,-45.1409,-0.257358,174
49.0813,-47.7188,-0.116701,0
49.3667,-47.3959,-0.140407,0
49.642,-47.0731,-0.163342,0
49.9077,-46.7506,-0.185539,0
50.1582,-46.4162,-0.207692,0
50.3739,-46.031,-0.231965,0
50.5964,-45.6846,-0.25342,0
50.8156,-45.3518,-0.273498,0
51.0266,-45.0221,-0.29279,0
51.2278,-44.6925,-0.311476,0
50.309,-42.6153,-0.425108,174
51.6077,-44.0429,-0.346652,0
51.7866,-43.7226,-0.363185,0
51.9629,-43.411,-0.378727,0
52.1493,-43.1234,-0.392463,0
52.3298,-42.837,-0.405632,0
52.5048,-42.5516,-0.418259,0
52.6672,-42.2594,-0.430807,0
52.8175,-41.9616,-0.44322,0
52.9627,-41.6661,-0.455065,0
53.1027,-41.3728,-0.466364,0
53.2378,-41.0814,-0.477145,0
53.385,-40.807,-0.48652,0
53.5346,-40.5392,-0.495075,0
53.6804,-40.2716,-0.50321,0
53.8221,-40.0043,-0.510886,0
53.9602,-39.7371,-0.518151,0
54.0926,-39.4687,-0.525085,0
54.2123,-39.1944,-0.531989,0
54.328,-38.9204,-0.538503,0
54.4396,-38.6466,-0.544596,0
54.5626,-38.3818,-0.549684,0
54.6934,-38.1227,-0.553923,0
54.8212,-37.8624,-0.55779,0
54.9458,-37.6009,-0.561296,0
55.0672,-37.3381,-0.56445,0
55.1855,-37.0739,-0.567233,0
55.3008,-36.8082,-0.569655,0
55.413,-36.5411,-0.571716,0
55.5221,-36.2724,-0.573405,0
55.632,-36.0032,-0.574626,0
55.7523,-35.7362,-0.574997,0
55.8703,-35.4667,-0.574997,0
55.9857,-35.1946,-0.574636,0
56.089,-34.9176,-0.574216,0
56.1828,-34.6369,-0.573659,0
56.2734,-34.3539,-0.572741,0
33.7842,-44.3341,0.428558,0
33.9994,-44.6485,0.426575,0
35.2864,-43.5016,0.262963,174
35.5373,-43.7111,0.253828,174
34.6877,-45.5888,0.420623,0
36.6713,-43.1315,0.134217,174
35.1817,-46.2161,0.417015,0
35.4513,-46.5092,0.413314,0
35.7324,-46.7928,0.408856,0
36.0209,-47.0736,0.404344,0
38.0614,-43.6998,0.0648705,174
39.0079,-42.3179,-0.0815282,174
39.3291,-42.2215,-0.108823,174
41.2537,-38.0442,-0.486771,174
41.4589,-37.9147,-0.507785,174
41.6372,-37.8362,-0.523751,174
41.8033,-37.7758,-0.537607,174
41.9544,-37.7492,-0.548238,174
42.0793,-37.8083,-0.551722,174
42.1776,-37.9816,-0.546254,174
39.7693,-49.6339,0.328231,0
40.1527,-49.8269,0.320345,0
40.5512,-49.9639,0.308753,0
41.8184,-44.2374,-0.124821,174
42.0918,-44.3296,-0.131942,174
42.3312,-44.7842,-0.113399,174
42.4407,-47.1643,0.037252,174
42.8179,-46.6374,-0.0134737,174
43.0256,-50.6728,0.242518,0
43.4898,-46.4495,-0.0530363,174
43.8652,-49.5861,0.13856,174
44.231,-48.5959,0.0602854,174
44.6193,-48.7229,0.0551243,174
45.1551,-50.5331,0.155862,0
45.1498,-46.4729,-0.109141,174
45.484,-46.4629,-0.119737,174
46.3523,-49.923,0.0804621,0
46.7398,-49.7315,0.0578205,0
47.1198,-49.5315,0.0354963,0
47.4921,-49.3231,0.0134992,0
47.8397,-49.0384,-0.0121551,0
48.1639,-48.7016,-0.0399529,0
47.6448,-45.5788,-0.226663,174
47.8438,-45.1428,-0.257209,174
49.0789,-47.7214,-0.116511,0
49.3644,-47.3985,-0.140212,0
49.6398,-47.0758,-0.163151,0
49.9055,-46.7532,-0.185363,0
50.1563,-46.4194,-0.207492,0
50.3722,-46.0342,-0.231769,0
50.5946,-45.6873,-0.253259,0
50.8137,-45.3545,-0.273332,0
51.0248,-45.0248,-0.292629,0
51.2262,-44.6953,-0.311325,0
50.3081,-42.6184,-0.424941,174
51.6061,-44.0456,-0.346515,0
51.7852,-43.7252,-0.363058,0
51.9614,-43.4134,-0.37862,0
52.1478,-43.1258,-0.39235,0
52.3284,-42.8394,-0.405514,0
52.5034,-42.554,-0.418161,0
52.6659,-42.2618,-0.43071,0
52.8163,-41.9641,-0.443112,0
52.9615,-41.6685,-0.454968,0
53.1016,-41.3752,-0.466276,0
53.2366,-41.0838,-0.477057,0
53.3837,-40.8093,-0.486432,0
53.5334,-40.5414,-0.495007,0
53.6791,-40.2738,-0.503141,0
53.8209,-40.0065,-0.510827,0
53.959,-39.7393,-0.518093,0
54.0916,-39.471,-0.525026,0
54.2113,-39.1967,-0.53193,0
54.327,-38.9227,-0.538454,0
34.4772,-43.4846,0.433934,0
34.682,-43.7711,0.432122,0
35.2774,-43.5291,0.367275,174
35.5566,-43.6989,0.35363,174
36.4058,-43.0031,0.242164,174
36.7055,-43.0926,0.22321,174
36.2103,-44.5093,0.349339,174
36.0887,-45.4021,0.414276,0
36.3522,-45.6567,0.410169,0
37.8106,-43.5573,0.166836,174
38.0922,-43.6546,0.152496,174
39.033,-42.2798,-0.00492294,174
39.3446,-42.2032,-0.0317929,174
41.2968,-37.9463,-0.450053,174
41.4887,-37.8454,-0.469651,174
41.659,-37.7846,-0.484847,174
41.8233,-37.7258,-0.49927,174
41.972,-37.7029,-0.509988,174
42.0938,-37.7691,-0.512627,174
42.1977,-37.9159,-0.508311,174
40.0978,-48.1845,0.336507,0
40.4574,-48.3213,0.326712,0
41.5709,-44.0555,-0.0369294,174
41.843,-44.1254,-0.0457129,174
42.1023,-44.3107,-0.0450301,174
42.3599,-44.5821,-0.0375399,174
42.5575,-45.7785,0.0402668,174
42.8304,-46.5834,0.0868762,174
43.1836,-45.9656,0.0272155,174
43.5018,-46.1178,0.0256214,174
43.8669,-48.9291,0.216463,0
44.2363,-48.4522,0.168398,174
44.6145,-48.4665,0.156444,174
45.0264,-48.8618,0.171717,0
45.1511,-46.3968,-0.0107146,174
45.4868,-46.4122,-0.0193061,174
46.1212,-48.3475,0.102879,0
46.4688,-48.142,0.0793439,0
46.809,-47.932,0.0563508,0
47.1416,-47.7177,0.033885,0
47.4666,-47.4992,0.0119611,0
47.7777,-47.2532,-0.0109686,0
47.659,-45.5953,-0.124635,174
47.8407,-45.1052,-0.16123,174
48.3388,-45.5758,-0.135358,174
48.9014,-46.1386,-0.103386,0
49.161,-45.8596,-0.124665,0
49.4126,-45.5805,-0.145261,0
49.6562,-45.3015,-0.165178,0
49.892,-45.0227,-0.18443,0
50.1202,-44.7437,-0.203068,0
50.3285,-44.442,-0.222531,0
50.5292,-44.1424,-0.241252,0
50.7227,-43.845,-0.259284,0
50.2921,-42.5796,-0.337858,174
51.101,-43.2752,-0.292101,0
51.2917,-43.0084,-0.306579,0
51.4766,-42.7423,-0.320495,0
51.6559,-42.4768,-0.333864,0
51.8298,-42.2118,-0.346716,0
51.9982,-41.9474,-0.359059,0
52.1615,-41.6836,-0.370895,0
52.3197,-41.4203,-0.382233,0
52.4729,-41.1574,-0.393102,0
52.6225,-40.8962,-0.403405,0
52.7681,-40.6361,-0.41322,0
52.9093,-40.3764,-0.422565,0
53.0459,-40.1169,-0.431481,0
53.1783,-39.8578,-0.439948,0
53.3065,-39.5988,-0.448005,0
53.4303,-39.3401,-0.455641,0
53.5502,-39.0815,-0.462848,0
53.6659,-38.8231,-0.469665,0
53.7777,-38.5647,-0.476071,0
53.9061,-38.3187,-0.481071,0
54.0344,-38.0737,-0.485514,0
54.1595,-37.8275,-0.489606,0
54.2813,-37.58,-0.493337,0
54.4,-37.3313,-0.496706,0
54.5157,-37.0813,-0.499704,0
54.6281,-36.8299,-0.50235,0
54.7377,-36.577,-0.504626,0
54.8441,-36.3227,-0.506559,0
54.9407,-36.0645,-0.508415,0
55.0417,-35.8075,-0.509587,0
55.1416,-35.5493,-0.510329,0
55.2387,-35.2893,-0.51069,0
55.3324,-35.0274,-0.51071,0
55.4229,-34.7634,-0.510368,0
55.5102,-34.4974,-0.509684,0
55.5941,-34.2293,-0.508639,0
34.4755,-43.4822,0.433953,0
34.6802,-43.7688,0.432137,0
35.2749,-43.528,0.367431,174
35.5549,-43.6968,0.353653,174
36.3936,-43.0172,0.244009,174
36.7035,-43.0911,0.22328,174
36.2093,-44.5056,0.349191,174
36.0866,-45.4,0.4143,0
36.3499,-45.6546,0.410194,0
37.8079,-43.5572,0.167028,174
38.0903,-43.6529,0.152519,174
39.0303,-42.2806,-0.00467796,174
39.3426,-42.2025,-0.0317077,174
41.2951,-37.9474,-0.449866,174
41.4873,-37.8459,-0.469522,174
41.6577,-37.7851,-0.484724,174
41.822,-37.7263,-0.499154,174
41.9709,-37.7027,-0.509931,174
42.093,-37.7679,-0.512659,174
42.1972,-37.913,-0.508483,174
40.0948,-48.1832,0.336575,0
40.4544,-48.3204,0.326805,0
41.5757,-44.0135,-0.0401865,174
41.8409,-44.1238,-0.0457212,174
42.1,-44.3103,-0.0449492,174
42.3588,-44.5687,-0.038463,174
42.5547,-45.7795,0.0404616,174
42.8277,-46.581,0.086816,174
43.1809,-45.9693,0.0275999,174
43.4992,-46.1152,0.0255407,174
43.8636,-48.9291,0.216585,0
44.2332,-48.4541,0.16864,174
44.6113,-48.4652,0.156452,174
45.0233,-48.8622,0.171849,0
45.1485,-46.3986,-0.0105061,174
45.4838,-46.4104,-0.0193525,174
46.1184,-48.3491,0.103079,0
46.466,-48.1437,0.0795344,0
46.8062,-47.9338,0.0565412,0
47.1388,-47.7195,0.0340754,0
47.4639,-47.501,0.0121467,0
47.7753,-47.2554,-0.0107635,0
47.6564,-45.5962,-0.124538,174
47.8385,-45.107,-0.161074,174
48.3312,-45.5625,-0.136179,174
48.8992,-46.1409,-0.1032,0
49.1589,-45.8619,-0.124494,0
49.4105,-45.5828,-0.14509,0
49.6542,-45.3038,-0.165016,0
49.8901,-45.025,-0.184269,0
50.1185,-44.7462,-0.202902,0
50.3268,-44.4444,-0.222375,0
50.5276,-44.1449,-0.241105,0
50.7211,-43.8474,-0.259133,0
50.2907,-42.5817,-0.337736,174
51.0995,-43.2774,-0.291979,0
51.2902,-43.0106,-0.306452,0
51.4751,-42.7445,-0.320378,0
51.6545,-42.479,-0.333757,0
51.8283,-42.214,-0.346618,0
51.9968,-41.9496,-0.358962,0
52.1602,-41.6858,-0.370788,0
52.3184,-41.4225,-0.382136,0
52.4716,-41.1596,-0.393005,0
52.6213,-40.8984,-0.403327,0
52.767,-40.6383,-0.413132,0
52.9081,-40.3785,-0.422497,0
53.0448,-40.1191,-0.431403,0
53.1773,-39.8599,-0.43988,0
53.3054,-39.601,-0.447936,0
53.4294,-39.3423,-0.455573,0
53.5491,-39.0837,-0.46279,0
53.665,-38.8252,-0.469606,0
53.7769,-38.5668,-0.476022,0
53.905,-38.3208,-0.481022,0
54.0333,-38.0757,-0.485485,0
54.1584,-37.8295,-0.489577,0
54.2803,-37.5821,-0.493307,0
54.3991,-37.3334,-0.496667,0
54.5147,-37.0833,-0.499684,0
54.6273,-36.832,-0.502331,0
54.7368,-36.5791,-0.504616,0
54.8433,-36.3249,-0.50654,0
54.9399,-36.0667,-0.508395,0
55.0409,-35.8096,-0.509577,0
55.1408,-35.5514,-0.510319,0
55.2379,-35.2915,-0.51069,0
55.3316,-35.0295,-0.51071,0
55.4222,-34.7656,-0.510378,0
55.5094,-34.4996,-0.509694,0
55.5934,-34.2315,-0.508649,0
34.4738,-43.4798,0.433968,0
34.6785,-43.7664,0.432152,0
35.2721,-43.5272,0.367625,174
35.5531,-43.6946,0.353677,174
35.5488,-44.2921,0.389388,174
36.7015,-43.0896,0.223349,174
36.2081,-44.5022,0.349073,174
36.0845,-45.3979,0.414334,0
36.3477,-45.6525,0.410228,0
37.8052,-43.557,0.167221,174
38.0884,-43.6511,0.152541,174
39.0276,-42.2814,-0.00443398,174
39.3407,-42.2017,-0.0316222,174
41.2934,-37.9485,-0.449679,174
41.4859,-37.8465,-0.469392,174
41.6563,-37.7856,-0.484601,174
41.8206,-37.7267,-0.499037,174
41.9697,-37.7026,-0.509874,174
42.0921,-37.7668,-0.512691,174
42.1967,-37.9104,-0.508638,174
40.0919,-48.1818,0.336634,0
40.4513,-48.3195,0.326903,0
41.5733,-44.0136,-0.0400573,174
41.8388,-44.1222,-0.0457293,174
42.0976,-44.3099,-0.0448682,174
42.3572,-44.5611,-0.0389333,174
42.5521,-45.7806,0.0406562,174
42.8251,-46.5786,0.0867556,174
43.178,-45.9754,0.0281588,174
43.4965,-46.1127,0.02546,174
43.8605,-48.9292,0.216707,0
44.2302,-48.4561,0.168895,174
44.6081,-48.4638,0.156459,174
45.0201,-48.8626,0.171981,0
45.1459,-46.4004,-0.010296,174
45.4808,-46.4086,-0.0193988,174
46.1154,-48.3508,0.10327,0
46.4632,-48.1455,0.0797248,0
46.8034,-47.9355,0.0567219,0
47.1361,-47.7213,0.0342609,0
47.4613,-47.5029,0.0123225,0
47.7728,-47.2578,-0.0105633,0
47.6539,-45.597,-0.12444,174
47.8364,-45.1088,-0.160918,174
48.3237,-45.5492,-0.136994,174
48.897,-46.1432,-0.103024,0
49.1568,-45.8642,-0.124323,0
49.4084,-45.5851,-0.144919,0
49.6522,-45.3062,-0.164845,0
49.8882,-45.0273,-0.184123,0
50.1166,-44.7486,-0.202741,0
50.3252,-44.4469,-0.222209,0
50.5259,-44.1473,-0.240954,0
50.7195,-43.8499,-0.258986,0
50.2892,-42.5839,-0.337614,174
51.0979,-43.2796,-0.291862,0
51.2886,-43.0128,-0.306345,0
51.4736,-42.7467,-0.320261,0
51.653,-42.4812,-0.333649,0
51.8269,-42.2162,-0.346511,0
51.9955,-41.9519,-0.358854,0
52.1588,-41.688,-0.3707,0
52.3171,-41.4246,-0.382048,0
52.4705,-41.1618,-0.392917,0
52.6201,-40.9005,-0.403249,0
52.7658,-40.6404,-0.413054,0
52.907,-40.3807,-0.422419,0
53.0437,-40.1213,-0.431335,0
53.1762,-39.8621,-0.439811,0
53.3044,-39.6031,-0.447868,0
53.4283,-39.3444,-0.455505,0
53.5482,-39.0858,-0.462731,0
53.6641,-38.8274,-0.469557,0
53.7759,-38.569,-0.475973,0
35.0907,-42.7238,0.43638,0
37.1833,-40.5004,0.107528,174
35.4838,-43.2514,0.433524,0
35.7011,-43.4966,0.429998,0
36.4279,-42.9757,0.332979,174
36.7209,-43.0744,0.314561,174
36.3901,-44.2146,0.418919,0
37.0982,-43.6215,0.320509,174
36.8791,-44.6791,0.411346,0
37.8434,-43.4998,0.253042,174
38.6668,-42.4568,0.115836,174
39.0525,-42.2436,0.07168,174
41.1052,-38.0317,-0.384657,174
41.3345,-37.8555,-0.41391,174
41.5093,-37.7943,-0.430562,174
41.6778,-37.735,-0.446348,174
41.8403,-37.6775,-0.461329,174
41.987,-37.657,-0.472211,174
42.1065,-37.7281,-0.474107,174
42.2105,-37.87,-0.469343,174
40.3849,-46.8885,0.337835,0
40.844,-46.3526,0.270308,174
41.5801,-44.0213,0.0473858,174
41.8592,-44.0387,0.0342823,174
42.1081,-44.2911,0.0418562,174
42.3719,-44.4973,0.0456048,174
42.5682,-45.6879,0.131452,174
42.8362,-46.5499,0.18849,174
43.1908,-45.8553,0.118073,174
43.5209,-44.1299,-0.0331717,174
43.7983,-44.1518,-0.0419609,174
44.1982,-47.3414,0.198753,0
44.5488,-47.3228,0.185325,0
44.8987,-47.2947,0.171878,0
45.1479,-46.3315,0.0877164,174
45.4278,-45.9323,0.0481572,174
45.9078,-46.937,0.11513,0
46.2303,-46.7773,0.0947541,0
46.5466,-46.6111,0.0746906,0
46.857,-46.4389,0.0549592,0
47.1611,-46.2608,0.0355598,0
47.4589,-46.0771,0.0165022,0
47.6284,-45.4812,-0.0316009,174
47.8368,-45.0824,-0.0645611,174
48.2507,-45.314,-0.0514926,174
48.5242,-45.1261,-0.0679754,0
48.7692,-44.8773,-0.0881023,0
49.0069,-44.6279,-0.107619,0
49.2376,-44.3779,-0.126506,0
49.4612,-44.1274,-0.144816,0
49.6775,-43.8755,-0.162595,0
49.887,-43.623,-0.179826,0
50.0954,-43.3799,-0.195812,0
50.2961,-43.1336,-0.211452,0
50.2947,-42.5789,-0.248615,174
50.5584,-42.4592,-0.254153,174
50.8598,-42.3892,-0.255514,0
51.0365,-42.1413,-0.269147,0
51.2079,-41.8936,-0.282272,0
51.374,-41.6461,-0.294889,0
51.5348,-41.3987,-0.307028,0
51.6907,-41.1514,-0.318688,0
51.8448,-40.9076,-0.329626,0
51.9989,-40.6688,-0.339723,0
52.1487,-40.4297,-0.349391,0
52.2941,-40.1903,-0.358639,0
52.435,-39.9506,-0.367468,0
52.5718,-39.7106,-0.375886,0
52.7004,-39.4669,-0.384167,0
52.8243,-39.2228,-0.392077,0
52.9442,-38.9786,-0.399587,0
53.0602,-38.7344,-0.406677,0
53.1755,-38.4924,-0.413171,0
53.3048,-38.2613,-0.41822,0
53.4308,-38.0291,-0.422897,0
53.5537,-37.7958,-0.427204,0
53.6734,-37.5612,-0.431169,0
53.7898,-37.3254,-0.434762,0
53.8959,-37.0847,-0.438405,0
53.9984,-36.8429,-0.441696,0
54.0975,-36.6001,-0.444636,0
54.1931,-36.356,-0.447233,0
54.2853,-36.1108,-0.449479,0
54.382,-35.8673,-0.450973,0
54.4777,-35.6229,-0.452018,0
54.5702,-35.3768,-0.452731,0
54.6595,-35.129,-0.453073,0
54.7455,-34.8794,-0.453073,0
54.8284,-34.628,-0.452721,0
54.9081,-34.3748,-0.452028,0
54.9845,-34.1198,-0.450973,0
35.0892,-42.7216,0.43639,0
37.1815,-40.4994,0.107634,174
35.4821,-43.2493,0.433533,0
35.6993,-43.4946,0.430037,0
36.4219,-42.9803,0.333786,174
36.7189,-43.0729,0.314629,174
36.3881,-44.2127,0.418958,0
37.0961,-43.6201,0.320586,174
36.877,-44.6772,0.411375,0
37.8407,-43.4998,0.253246,174
38.6584,-42.4694,0.117379,174
39.0498,-42.2444,0.0719374,174
41.1028,-38.0342,-0.384301,174
41.333,-37.8561,-0.413768,174
41.5079,-37.7948,-0.430427,174
41.6764,-37.7354,-0.44622,174
41.839,-37.6779,-0.461208,174
41.9859,-37.6568,-0.472153,174
42.1056,-37.7269,-0.474145,174
42.2096,-37.8688,-0.469385,174
40.3822,-46.8876,0.337928,0
40.8408,-46.3545,0.270634,174
41.5847,-43.9807,0.0439446,174
41.8571,-44.0373,0.034281,174
42.1058,-44.2906,0.0419363,174
42.3702,-44.4898,0.0450838,174
42.5657,-45.6867,0.131469,174
42.8335,-46.5478,0.188436,174
43.1881,-45.8571,0.118324,174
43.5186,-44.1313,-0.0329685,174
43.796,-44.1529,-0.0417881,174
44.1953,-47.3416,0.198865,0
44.5459,-47.323,0.185447,0
44.8958,-47.2949,0.171986,0
45.1455,-46.3349,0.0880594,174
45.425,-45.9309,0.0481244,174
45.9052,-46.9384,0.115301,0
46.2277,-46.7786,0.0949152,0
46.5441,-46.6125,0.0748566,0
46.8545,-46.4403,0.0551203,0
47.1586,-46.2623,0.0357209,0
47.4564,-46.0786,0.0166633,0
47.6287,-45.4913,-0.0308373,174
47.8347,-45.0843,-0.0643946,174
48.1951,-45.1631,-0.0622905,174
48.5221,-45.1281,-0.0678045,0
48.7673,-44.8794,-0.0879412,0
49.005,-44.63,-0.107463,0
49.2357,-44.38,-0.126359,0
49.4594,-44.1294,-0.144665,0
49.6758,-43.8775,-0.162458,0
49.8853,-43.6251,-0.179679,0
50.0936,-43.3818,-0.195685,0
50.2945,-43.1356,-0.21133,0
50.2933,-42.5811,-0.248484,174
50.5559,-42.4596,-0.254148,174
50.8584,-42.3913,-0.255397,0
51.0351,-42.1434,-0.26904,0
51.2066,-41.8957,-0.282165,0
51.3727,-41.6481,-0.294792,0
51.5336,-41.4007,-0.30693,0
51.6895,-41.1534,-0.318591,0
51.8434,-40.9095,-0.329548,0
51.9977,-40.6708,-0.339645,0
52.1475,-40.4317,-0.349313,0
52.2928,-40.1923,-0.358561,0
52.4338,-39.9526,-0.367399,0
52.5707,-39.7125,-0.375817,0
52.6993,-39.4689,-0.384098,0
52.8233,-39.2248,-0.392018,0
52.9432,-38.9806,-0.399518,0
53.0591,-38.7364,-0.406618,0
53.1744,-38.4943,-0.413132,0
53.3037,-38.2632,-0.41818,0
53.4298,-38.0311,-0.422858,0
53.5527,-37.7977,-0.427175,0
53.6723,-37.5632,-0.43113,0
53.7888,-37.3274,-0.434733,0
53.895,-37.0867,-0.438376,0
53.9976,-36.845,-0.441667,0
54.0967,-36.6021,-0.444616,0
54.1923,-36.3581,-0.447214,0
54.2846,-36.1129,-0.44947,0
54.3812,-35.8693,-0.450973,0
54.477,-35.6249,-0.452018,0
54.5695,-35.3788,-0.452721,0
54.6587,-35.131,-0.453073,0
54.7448,-34.8814,-0.453073,0
54.8277,-34.6301,-0.452731,0
54.9075,-34.3769,-0.452038,0
54.984,-34.1219,-0.450983,0
35.0876,-42.7194,0.4364,0
37.1797,-40.4985,0.107741,174
35.4803,-43.2471,0.433553,0
35.6975,-43.4926,0.430062,0
36.416,-42.9848,0.334596,174
36.7169,-43.0714,0.314697,174
36.3862,-44.2107,0.418987,0
37.094,-43.6188,0.320667,174
36.8749,-44.6753,0.411409,0
37.838,-43.4997,0.25345,174
38.6499,-42.4821,0.118927,174
39.0472,-42.2452,0.0721933,174
41.1004,-38.0367,-0.383948,174
41.3315,-37.8566,-0.413626,174
41.5065,-37.7953,-0.430293,174
41.675,-37.7359,-0.446092,174
41.8377,-37.6784,-0.461087,174
41.9848,-37.6567,-0.472096,174
42.1048,-37.7258,-0.474182,174
42.2088,-37.8676,-0.469426,174
40.3794,-46.8867,0.338001,0
40.8376,-46.3565,0.270961,174
41.5853,-43.9637,0.0425813,174
41.8549,-44.0359,0.0342801,174
42.1035,-44.2902,0.0420158,174
42.3683,-44.4852,0.0448131,174
42.5632,-45.6855,0.131487,174
42.8309,-46.5457,0.188382,174
43.1854,-45.8589,0.118575,174
43.5163,-44.1327,-0.0327653,174
43.7937,-44.154,-0.0416152,174
44.1924,-47.3417,0.198968,0
44.543,-47.3232,0.18556,0
44.8928,-47.2952,0.172103,0
45.1431,-46.3384,0.0884055,174
45.4221,-45.9295,0.0480912,174
45.9025,-46.9396,0.115477,0
46.225,-46.7799,0.0950861,0
46.5416,-46.6139,0.0750178,0
46.8519,-46.4418,0.0552814,0
47.1561,-46.2638,0.035882,0
47.454,-46.0802,0.0168147,0
47.6319,-45.5113,-0.0293536,174
47.8326,-45.0861,-0.0642286,174
48.1902,-45.1573,-0.0626829,174
48.5201,-45.1302,-0.0676336,0
48.7652,-44.8815,-0.0877801,0
49.003,-44.6321,-0.107292,0
49.2337,-44.382,-0.126208,0
49.4576,-44.1315,-0.144518,0
49.674,-43.8796,-0.162306,0
49.8836,-43.6272,-0.179548,0
50.0919,-43.3837,-0.195568,0
50.2928,-43.1377,-0.211188,0
50.2918,-42.5832,-0.248352,174
50.5533,-42.4601,-0.254143,174
50.8569,-42.3933,-0.25528,0
51.0337,-42.1454,-0.268923,0
51.2051,-41.8977,-0.282057,0
51.3713,-41.6502,-0.294684,0
51.5323,-41.4027,-0.306833,0
51.6882,-41.1555,-0.318503,0
51.8421,-40.9115,-0.32945,0
51.9965,-40.6728,-0.339557,0
52.1462,-40.4337,-0.349235,0
52.2916,-40.1943,-0.358483,0
52.4327,-39.9546,-0.367321,0
52.5695,-39.7145,-0.375759,0
52.6983,-39.4709,-0.38404,0
52.8223,-39.2268,-0.39195,0
52.9422,-38.9826,-0.39946,0
53.0583,-38.7384,-0.406569,0
53.1733,-38.4962,-0.413083,0
53.3027,-38.2652,-0.418141,0
35.718,-41.9451,0.422336,174
37.222,-40.4541,0.177359,174
36.021,-42.5184,0.432435,0
36.2234,-42.7486,0.429779,0
36.435,-42.9709,0.426361,0
36.7362,-43.0561,0.405711,174
36.8745,-43.4073,0.419432,0
39.0743,-40.1252,-0.0132023,174
37.3359,-43.832,0.412371,0
37.8687,-43.4572,0.340173,174
38.6775,-42.4415,0.19686,174
39.0651,-42.223,0.14957,174
41.1655,-37.8927,-0.353609,174
41.3567,-37.8037,-0.374864,174
41.5296,-37.7439,-0.392116,174
41.6962,-37.6861,-0.40847,174
41.857,-37.6299,-0.423989,174
42.0019,-37.6118,-0.435003,174
42.1189,-37.6876,-0.436095,174
42.2224,-37.8277,-0.430648,174
40.6333,-45.7675,0.337308,0
41.2791,-44.1281,0.160508,174
41.5859,-44.0077,0.133264,174
41.8693,-43.993,0.116969,174
42.1136,-44.2742,0.128824,174
42.381,-44.4403,0.130175,174
42.5737,-45.6662,0.227676,174
42.8591,-46.1963,0.261109,174
43.1997,-45.6873,0.20235,174
43.5255,-43.9545,0.0381612,174
43.8004,-44.0755,0.0382711,174
44.1551,-46.115,0.203353,0
44.475,-46.0571,0.187532,0
44.7925,-45.9923,0.171883,0
45.1073,-45.9198,0.156336,0
45.4155,-45.8098,0.138416,0
45.7185,-45.6869,0.120208,0
46.017,-45.5581,0.102288,0
46.3106,-45.4235,0.084632,0
46.5996,-45.2833,0.0672785,0
46.8836,-45.1375,0.0502033,0
47.1628,-44.9865,0.0334309,0
47.437,-44.8303,0.0169611,0
47.7021,-44.6569,-0.000187302,0
47.947,-44.4372,-0.020324,0
48.1849,-44.2158,-0.0398894,0
48.4162,-43.9929,-0.0588982,0
48.6409,-43.7686,-0.0773748,0
48.8591,-43.5431,-0.0953045,0
49.078,-43.3311,-0.11155,0
49.2947,-43.1246,-0.12675,0
49.5061,-42.9163,-0.141491,0
49.7123,-42.7065,-0.155788,0
49.9132,-42.495,-0.169636,0
50.1089,-42.2822,-0.183044,0
50.2898,-42.0532,-0.197194,0
50.465,-41.8232,-0.210905,0
50.635,-41.5931,-0.224118,0
50.7999,-41.3627,-0.236852,0
50.9599,-41.1321,-0.249118,0
51.118,-40.9048,-0.260632,0
51.2753,-40.6816,-0.271315,0
51.4282,-40.4578,-0.281579,0
51.5767,-40.2335,-0.291423,0
51.721,-40.0087,-0.300837,0
51.8611,-39.7834,-0.30986,0
51.9971,-39.5575,-0.318464,0
52.129,-39.3312,-0.326677,0
52.2569,-39.1042,-0.334509,0
52.3808,-38.8768,-0.34194,0
52.5008,-38.6489,-0.349001,0
52.6212,-38.4235,-0.355378,0
52.7436,-38.2011,-0.360983,0
52.8625,-37.9777,-0.366237,0
52.9779,-37.7532,-0.371139,0
53.0898,-37.5277,-0.37569,0
53.1981,-37.3011,-0.379889,0
53.303,-37.0733,-0.383757,0
53.4045,-36.8445,-0.387272,0
53.5027,-36.6146,-0.390446,0
53.5973,-36.3835,-0.393298,0
53.6887,-36.1513,-0.395788,0
53.782,-35.92,-0.397624,0
53.8758,-35.6886,-0.398903,0
53.9664,-35.4555,-0.399841,0
54.0539,-35.2209,-0.400446,0
54.1382,-34.9846,-0.40071,0
54.2194,-34.7467,-0.400622,0
54.2973,-34.507,-0.400192,0
54.3715,-34.2655,-0.39946,0
54.4316,-34.0204,-0.398981,0
35.7186,-41.9405,0.421975,174
37.2202,-40.4531,0.177467,174
36.0195,-42.5165,0.432454,0
36.2217,-42.7468,0.429808,0
36.4332,-42.9691,0.4264,0
36.7343,-43.0547,0.405778,174
36.8727,-43.4055,0.419466,0
39.0737,-40.1226,-0.0133591,174
37.3339,-43.8302,0.412405,0
37.866,-43.4571,0.340383,174
38.674,-42.4438,0.197321,174
39.0623,-42.2239,0.149853,174
41.1632,-37.8951,-0.353247,174
41.3553,-37.8042,-0.374717,174
41.5282,-37.7444,-0.391977,174
41.6949,-37.6866,-0.408338,174
41.8557,-37.6304,-0.423864,174
42.0008,-37.6117,-0.434945,174
42.1181,-37.6865,-0.436138,174
42.2216,-37.8265,-0.430695,174
40.6308,-45.7666,0.337386,0
41.2752,-44.1361,0.161406,174
41.5913,-43.9618,0.129024,174
41.8671,-43.9916,0.116961,174
42.1113,-44.2741,0.128927,174
42.3791,-44.4358,0.129873,174
42.5713,-45.6638,0.22758,174
42.856,-46.2043,0.261943,174
43.1969,-45.696,0.203224,174
43.5233,-43.9569,0.0384615,174
43.7981,-44.0747,0.0382828,174
44.1524,-46.1155,0.203485,0
44.4723,-46.0576,0.187669,0
44.7898,-45.9929,0.17201,0
45.1048,-45.9205,0.156468,0
45.413,-45.8107,0.138568,0
45.716,-45.688,0.120355,0
46.0145,-45.5592,0.10243,0
46.3082,-45.4247,0.0847834,0
46.5972,-45.2844,0.0674201,0
46.8812,-45.1388,0.0503498,0
47.1605,-44.9878,0.0335676,0
47.4348,-44.8317,0.017093,0
47.7001,-44.6587,-1.64032e-05,0
47.9449,-44.439,-0.0201531,0
48.183,-44.2177,-0.0397283,0
48.4144,-43.9948,-0.0587518,0
48.6391,-43.7705,-0.0772137,0
48.8573,-43.5449,-0.095158,0
49.0761,-43.3329,-0.111418,0
49.293,-43.1263,-0.126628,0
49.5044,-42.9181,-0.141374,0
49.7105,-42.7082,-0.155671,0
49.9115,-42.4968,-0.169528,0
50.1073,-42.284,-0.182927,0
50.2884,-42.0551,-0.197077,0
50.4636,-41.8252,-0.210788,0
50.6336,-41.595,-0.224011,0
50.7986,-41.3646,-0.236745,0
50.9586,-41.1341,-0.249011,0
51.1166,-40.9067,-0.260534,0
51.274,-40.6835,-0.271227,0
51.4269,-40.4597,-0.281501,0
51.5755,-40.2354,-0.291335,0
51.7198,-40.0106,-0.300759,0
51.86,-39.7853,-0.309782,0
51.996,-39.5594,-0.318395,0
52.128,-39.3331,-0.326608,0
52.2558,-39.1061,-0.33444,0
52.3798,-38.8787,-0.341891,0
52.4998,-38.6508,-0.348942,0
52.6202,-38.4253,-0.355329,0
52.7427,-38.203,-0.360934,0
52.8616,-37.9796,-0.366198,0
52.977,-37.7551,-0.3711,0
53.0889,-37.5296,-0.375651,0
53.1973,-37.3029,-0.37986,0
53.3023,-37.0752,-0.383727,0
53.4037,-36.8464,-0.387253,0
53.5019,-36.6165,-0.390427,0
53.5966,-36.3854,-0.393259,0
53.6879,-36.1532,-0.395768,0
53.7812,-35.9219,-0.397614,0
53.875,-35.6905,-0.398893,0
53.9656,-35.4575,-0.399841,0
54.0532,-35.2228,-0.400446,0
54.1376,-34.9866,-0.40071,0
54.2187,-34.7486,-0.400622,0
54.2967,-34.509,-0.400212,0
54.371,-34.2676,-0.39946,0
54.4312,-34.0224,-0.398981,0
35.7181,-41.9373,0.421814,174
37.2183,-40.4522,0.177576,174
36.0178,-42.5145,0.432474,0
36.22,-42.7449,0.429837,0
36.4315,-42.9673,0.426419,0
36.7323,-43.0532,0.405844,174
36.8708,-43.4038,0.41949,0
39.0732,-40.1199,-0.013516,174
37.332,-43.8285,0.41243,0
37.8633,-43.4571,0.340594,174
38.6704,-42.4461,0.197782,174
39.0596,-42.2248,0.150134,174
41.1609,-37.8975,-0.352886,174
41.3538,-37.8047,-0.37457,174
41.5268,-37.7449,-0.391837,174
41.6935,-37.687,-0.408205,174
41.8544,-37.6309,-0.423738,174
41.9997,-37.6115,-0.434886,174
42.1172,-37.6853,-0.436181,174
42.2207,-37.8253,-0.430742,174
40.6282,-45.7658,0.337464,0
41.2712,-44.144,0.162311,174
41.5932,-43.9373,0.126819,174
41.865,-43.9903,0.116952,174
42.109,-44.2739,0.12903,174
42.377,-44.4327,0.12971,174
42.5688,-45.6615,0.227484,174
42.8528,-46.2123,0.262776,174
43.1924,-45.7551,0.208563,174
43.521,-43.9596,0.0387855,174
43.7958,-44.0739,0.0382945,174
44.1498,-46.1159,0.203616,0
44.4697,-46.0581,0.187791,0
44.7872,-45.9934,0.172142,0
45.1021,-45.9212,0.156605,0
45.4105,-45.8117,0.138719,0
45.7135,-45.689,0.120506,0
46.012,-45.5603,0.102571,0
46.3058,-45.4258,0.084925,0
46.5948,-45.2856,0.067552,0
46.8789,-45.14,0.0504914,0
47.1582,-44.9891,0.0337043,0
47.4325,-44.833,0.0172346,0
47.698,-44.6606,0.00014473,0
47.943,-44.4409,-0.0199969,0
48.1811,-44.2195,-0.0395721,0
48.4125,-43.9966,-0.0585955,0
48.6373,-43.7724,-0.0770769,0
48.8555,-43.5468,-0.0950213,0
49.0743,-43.3346,-0.111291,0
49.2912,-43.128,-0.126501,0
49.5027,-42.9198,-0.141257,0
49.7088,-42.7099,-0.155554,0
49.9098,-42.4986,-0.169411,0
50.1057,-42.2857,-0.182819,0
50.287,-42.057,-0.19696,0
50.4621,-41.8271,-0.21068,0
50.6323,-41.5969,-0.223903,0
50.7973,-41.3665,-0.236647,0
50.9573,-41.136,-0.248913,0
51.1153,-40.9085,-0.260446,0
51.2727,-40.6853,-0.271149,0
51.4257,-40.4616,-0.281413,0
51.5743,-40.2373,-0.291247,0
51.7187,-40.0125,-0.30068,0
51.8588,-39.7871,-0.309714,0
51.9948,-39.5613,-0.318327,0
52.1268,-39.3349,-0.32655,0
52.2548,-39.108,-0.334382,0
52.3787,-38.8806,-0.341823,0
52.4988,-38.6527,-0.348893,0
52.6191,-38.4271,-0.35528,0
52.7416,-38.2048,-0.360895,0
52.8605,-37.9814,-0.366149,0
36.8485,-40.5364,0.297293,174
37.2538,-40.4166,0.247768,174
36.4927,-41.875,0.431488,0
36.682,-42.0918,0.429573,0
36.8827,-42.2973,0.42638,0
37.0884,-42.5,0.423138,0
38.8715,-40.0546,0.0660262,174
39.1118,-40.0635,0.045345,174
39.2971,-40.1648,0.0375315,174
37.9716,-43.2608,0.407332,0
38.6488,-42.509,0.287977,174
39.0635,-42.2338,0.231046,174
41.201,-37.8129,-0.317635,174
41.3786,-37.7527,-0.336465,174
41.5496,-37.6944,-0.354295,174
41.7144,-37.638,-0.371196,174
41.8735,-37.5832,-0.387232,174
42.0165,-37.5673,-0.398349,174
42.1312,-37.6477,-0.398577,174
42.2342,-37.786,-0.392466,174
42.3158,-38.0465,-0.373509,174
41.3081,-43.9961,0.235248,174
41.5916,-43.9942,0.219054,174
41.8793,-43.9476,0.199128,174
42.119,-44.2585,0.21576,174
42.3857,-44.4278,0.218425,174
42.6111,-45.2252,0.282733,0
42.9145,-45.2292,0.269476,0
43.2479,-44.2132,0.159428,174
43.5291,-43.9077,0.119246,174
43.803,-44.0337,0.12074,174
44.1191,-45.0881,0.208973,0
44.4155,-45.0356,0.194139,0
44.7099,-44.9765,0.179432,0
45.002,-44.9107,0.164871,0
45.2896,-44.8241,0.149154,0
45.5709,-44.7102,0.131727,0
45.8479,-44.5909,0.114583,0
46.1206,-44.4665,0.0977326,0
46.3889,-44.3371,0.0811652,0
46.6529,-44.2028,0.0648957,0
46.9124,-44.0638,0.048924,0
47.1674,-43.9203,0.0332551,0
47.4184,-43.7745,0.0180744,0
47.6641,-43.6214,0.0029377,0
47.8909,-43.4267,-0.0151531,0
48.1177,-43.2445,-0.031491,0
48.3393,-43.0601,-0.0473797,0
48.5557,-42.8736,-0.0628191,0
48.7673,-42.685,-0.0778191,0
48.9737,-42.4945,-0.0923894,0
49.1752,-42.3022,-0.10652,0
49.3717,-42.1081,-0.120231,0
49.5636,-41.9122,-0.133522,0
49.7505,-41.7147,-0.146393,0
49.9329,-41.5157,-0.158874,0
50.1105,-41.3151,-0.170934,0
50.2745,-41.1009,-0.183698,0
50.4365,-40.8897,-0.19569,0
50.5966,-40.6812,-0.20693,0
50.7526,-40.4719,-0.217751,0
50.9041,-40.2619,-0.228141,0
51.0511,-40.0508,-0.23818,0
51.1922,-39.8371,-0.247975,0
51.3291,-39.6228,-0.25737,0
51.4616,-39.4078,-0.266393,0
51.5899,-39.1921,-0.275026,0
51.7141,-38.9758,-0.283288,0
51.8343,-38.7588,-0.291169,0
51.9503,-38.5412,-0.298698,0
52.0762,-38.3333,-0.304733,0
52.1992,-38.1246,-0.310348,0
52.3188,-37.9148,-0.315632,0
52.435,-37.7036,-0.320573,0
52.5477,-37.4912,-0.325192,0
52.6559,-37.2769,-0.329557,0
52.7598,-37.0611,-0.33363,0
52.8605,-36.8442,-0.33737,0
52.9578,-36.6261,-0.340778,0
53.0518,-36.4069,-0.343845,0
53.1424,-36.1865,-0.346598,0
53.2332,-35.9664,-0.348757,0
53.3255,-35.7469,-0.35028,0
53.4147,-35.5257,-0.351471,0
53.5008,-35.3031,-0.352321,0
53.5837,-35.0789,-0.352848,0
53.6555,-34.8509,-0.353552,0
53.7227,-34.6214,-0.354001,0
53.7864,-34.3907,-0.354128,0
53.8466,-34.1587,-0.353942,0
53.9032,-33.9254,-0.353425,0
36.8463,-40.5359,0.297482,174
37.2523,-40.4152,0.247814,174
36.4911,-41.8732,0.431507,0
36.6804,-42.0901,0.429603,0
36.881,-42.2956,0.4264,0
37.0866,-42.4983,0.423167,0
38.8585,-40.073,0.0686786,174
39.1106,-40.0622,0.0453493,174
39.2953,-40.1644,0.0376507,174
37.9696,-43.2594,0.407396,0
38.6452,-42.5114,0.28847,174
39.0602,-42.236,0.231497,174
41.1995,-37.8134,-0.317475,174
41.3772,-37.7532,-0.336314,174
41.5482,-37.6949,-0.354151,174
41.713,-37.6384,-0.37106,174
41.8722,-37.5836,-0.387103,174
42.0154,-37.5672,-0.398289,174
42.1304,-37.6465,-0.398626,174
42.2333,-37.7848,-0.392519,174
42.3153,-38.0436,-0.373745,174
41.3042,-44.0039,0.236188,174
41.597,-43.9484,0.214496,174
41.8772,-43.9463,0.199113,174
42.1167,-44.2583,0.215864,174
42.3838,-44.4233,0.218093,174
42.6086,-45.2247,0.282811,0
42.9119,-45.2293,0.269603,0
43.2453,-44.221,0.160263,174
43.5269,-43.909,0.119462,174
43.8007,-44.0318,0.12064,174
44.1166,-45.0885,0.209095,0
44.4131,-45.0361,0.194266,0
44.7074,-44.977,0.179554,0
44.9995,-44.9113,0.164988,0
45.2873,-44.825,0.149295,0
45.5685,-44.7112,0.131868,0
45.8455,-44.5919,0.114725,0
46.1184,-44.4676,0.0978742,0
46.3867,-44.3382,0.0813068,0
46.6507,-44.204,0.0650275,0
46.9102,-44.065,0.0490607,0
47.1653,-43.9215,0.033382,0
47.4164,-43.7757,0.0181965,0
47.6622,-43.623,0.00308907,0
47.889,-43.4282,-0.0150115,0
48.1158,-43.246,-0.0313592,0
48.3375,-43.0616,-0.0472527,0
48.554,-42.8751,-0.0626922,0
48.7655,-42.6866,-0.0776922,0
48.972,-42.4961,-0.0922625,0
49.1734,-42.3038,-0.106403,0
49.3702,-42.1097,-0.120114,0
49.562,-41.9139,-0.133405,0
49.7491,-41.7164,-0.146296,0
49.9313,-41.5173,-0.158766,0
50.109,-41.3167,-0.170837,0
50.2732,-41.1027,-0.183591,0
50.4352,-40.8914,-0.195602,0
50.5954,-40.6829,-0.206843,0
50.7512,-40.4737,-0.217663,0
50.9029,-40.2637,-0.228063,0
51.0499,-40.0525,-0.238093,0
51.1911,-39.8389,-0.247897,0
51.3279,-39.6246,-0.257302,0
51.4605,-39.4096,-0.266315,0
51.5888,-39.1939,-0.274958,0
51.7131,-38.9776,-0.28322,0
51.8333,-38.7606,-0.29111,0
51.9493,-38.543,-0.298639,0
52.0751,-38.335,-0.304684,0
52.1982,-38.1263,-0.310309,0
52.3179,-37.9165,-0.315593,0
52.4341,-37.7054,-0.320544,0
52.5469,-37.493,-0.325153,0
52.655,-37.2787,-0.329518,0
52.759,-37.0629,-0.3336,0
52.8597,-36.8459,-0.33735,0
52.957,-36.6279,-0.340749,0
53.051,-36.4087,-0.343835,0
53.1416,-36.1884,-0.346569,0
53.2324,-35.9683,-0.348747,0
53.3247,-35.7487,-0.35027,0
53.4139,-35.5276,-0.351462,0
53.5001,-35.305,-0.352321,0
53.583,-35.0808,-0.352839,0
53.6549,-34.8528,-0.353542,0
53.7222,-34.6233,-0.353991,0
53.786,-34.3926,-0.354128,0
53.8462,-34.1606,-0.353932,0
53.9028,-33.9274,-0.353434,0
36.8441,-40.5353,0.297671,174
37.2509,-40.4138,0.247861,174
36.4895,-41.8714,0.431527,0
36.6787,-42.0883,0.429632,0
36.8793,-42.2939,0.426429,0
37.0848,-42.4967,0.423196,0
38.8455,-40.0913,0.0713101,174
39.1093,-40.0609,0.0453534,174
39.2935,-40.164,0.0377706,174
37.9676,-43.258,0.407435,0
38.6416,-42.5137,0.288964,174
39.0569,-42.2382,0.231946,174
41.198,-37.8139,-0.317315,174
41.3757,-37.7537,-0.336162,174
41.5468,-37.6954,-0.354007,174
41.7117,-37.6389,-0.370923,174
41.8709,-37.5841,-0.386973,174
42.0143,-37.567,-0.39823,174
42.1295,-37.6454,-0.398674,174
42.2325,-37.7836,-0.392571,174
42.3147,-38.0406,-0.373982,174
41.3004,-44.0117,0.237132,174
41.6011,-43.9109,0.210783,174
41.8751,-43.9449,0.199097,174
42.1144,-44.2582,0.215969,174
42.3819,-44.4188,0.217764,174
42.6062,-45.2243,0.282879,0
42.9094,-45.2295,0.269735,0
43.213,-45.2048,0.254446,0
43.5246,-43.9104,0.119678,174
43.7984,-44.0298,0.120539,174
44.1141,-45.0889,0.209222,0
44.4107,-45.0366,0.194383,0
44.705,-44.9775,0.179671,0
44.9971,-44.9118,0.165111,0
45.285,-44.826,0.149442,0
45.5662,-44.7121,0.13201,0
45.8433,-44.5929,0.114866,0
46.1161,-44.4686,0.0980109,0
46.3845,-44.3393,0.0814387,0
46.6485,-44.2051,0.0651643,0
46.9081,-44.0662,0.0491877,0
47.1632,-43.9227,0.033509,0
47.4144,-43.7769,0.0183234,0
47.6603,-43.6247,0.00325508,0
47.8871,-43.4296,-0.0148797,0
48.1139,-43.2475,-0.0312273,0
48.3356,-43.0631,-0.0471258,0
48.5522,-42.8767,-0.0625652,0
48.7637,-42.6882,-0.0775652,0
48.9702,-42.4977,-0.0921551,0
49.1719,-42.3054,-0.106296,0
49.3685,-42.1113,-0.120007,0
49.5604,-41.9155,-0.133298,0
49.7474,-41.718,-0.146188,0
49.9298,-41.519,-0.158659,0
50.1076,-41.3184,-0.170729,0
50.2719,-41.1045,-0.183483,0
50.4338,-40.8931,-0.195505,0
50.5941,-40.6846,-0.206755,0
50.75,-40.4754,-0.217575,0
50.9017,-40.2654,-0.227975,0
51.0487,-40.0543,-0.238014,0
51.1899,-39.8407,-0.247809,0
51.3268,-39.6264,-0.257223,0
51.4594,-39.4114,-0.266237,0
51.5878,-39.1957,-0.274889,0
51.7121,-38.9794,-0.283151,0
51.8323,-38.7624,-0.291052,0
51.9484,-38.5449,-0.298571,0
52.0741,-38.3367,-0.304636,0
52.1973,-38.1281,-0.310261,0
52.3169,-37.9182,-0.315554,0
52.433,-37.7071,-0.320505,0
37.0817,-40.2489,0.328776,174
37.2597,-40.4131,0.322996,174
36.9101,-41.3055,0.430648,0
37.0904,-41.5069,0.42887,0
37.2786,-41.7013,0.42638,0
37.4741,-41.8895,0.423343,0
38.8956,-40.0187,0.127963,174
39.1365,-40.0246,0.106137,174
39.3355,-40.098,0.094611,174
38.3287,-42.56,0.403861,0
38.6638,-42.4847,0.368205,174
40.9645,-37.9947,-0.236417,174
41.2199,-37.7723,-0.277872,174
41.4001,-37.7025,-0.298694,174
41.5692,-37.6457,-0.317079,174
41.7322,-37.5906,-0.334507,174
41.8897,-37.5371,-0.351041,174
42.0309,-37.5235,-0.36223,174
42.1433,-37.6082,-0.36154,174
42.2458,-37.7448,-0.354784,174
42.3309,-37.9849,-0.336369,174
41.3329,-43.8857,0.31056,174
41.5973,-43.9807,0.304774,174
41.9924,-43.1946,0.204028,174
42.1277,-44.2158,0.299691,0
42.4045,-44.2741,0.291629,0
42.6831,-44.3261,0.283529,0
42.9663,-44.317,0.269735,0
43.2534,-44.1397,0.239409,174
43.5325,-43.8847,0.202198,174
43.8064,-44.037,0.20728,174
44.0877,-44.1955,0.213382,0
44.3639,-44.1491,0.199549,0
44.6384,-44.0965,0.185828,0
44.9107,-44.0376,0.172244,0
45.1809,-43.9721,0.158729,0
45.3899,-43.5225,0.108706,174
45.7033,-43.7635,0.126346,0
45.9587,-43.6516,0.110535,0
46.2105,-43.535,0.0949885,0
46.4585,-43.4152,0.0798518,0
46.7032,-43.2926,0.0651594,0
46.9439,-43.1657,0.0507355,0
47.1808,-43.0345,0.0365852,0
47.4137,-42.8991,0.0227082,0
47.6425,-42.7597,0.00912422,0
47.8587,-42.5953,-0.00618828,0
48.07,-42.4276,-0.021159,0
48.2766,-42.2573,-0.0357586,0
48.4783,-42.0845,-0.0499773,0
48.6753,-41.9094,-0.063825,0
48.8677,-41.7318,-0.0773016,0
49.0553,-41.5521,-0.090407,0
49.2384,-41.3703,-0.103151,0
49.4168,-41.1864,-0.115524,0
49.5905,-41.0006,-0.127546,0
49.7649,-40.8201,-0.138493,0
49.9351,-40.6376,-0.149098,0
50.101,-40.4531,-0.159362,0
50.2548,-40.2569,-0.17028,0
50.4035,-40.0585,-0.180934,0
50.5478,-39.8592,-0.191198,0
50.688,-39.6589,-0.201081,0
50.8241,-39.4577,-0.210573,0
50.9559,-39.2557,-0.219694,0
51.0837,-39.0528,-0.228454,0
51.2077,-38.8491,-0.236843,0
51.3276,-38.6447,-0.24487,0
51.4491,-38.444,-0.252018,0
51.5742,-38.248,-0.258141,0
51.6959,-38.0506,-0.263923,0
51.8142,-37.852,-0.269372,0
51.9292,-37.6521,-0.274489,0
52.0408,-37.4509,-0.279284,0
52.1491,-37.2485,-0.283747,0
52.254,-37.0448,-0.287887,0
52.3556,-36.8398,-0.291706,0
52.454,-36.6336,-0.295192,0
52.5491,-36.4262,-0.298356,0
52.6399,-36.2171,-0.301276,0
52.7286,-36.0074,-0.303786,0
52.8181,-35.798,-0.305671,0
52.8991,-35.5852,-0.307614,0
52.9767,-35.3712,-0.309264,0
53.0509,-35.1559,-0.310602,0
53.1217,-34.9395,-0.311628,0
53.189,-34.7218,-0.312341,0
53.2529,-34.5029,-0.312741,0
53.3133,-34.2829,-0.312839,0
53.3702,-34.0616,-0.312624,0
53.4236,-33.8393,-0.312087,0
37.0799,-40.2479,0.328892,174
37.2583,-40.4117,0.323039,174
36.9086,-41.3039,0.430667,0
37.0888,-41.5052,0.42889,0
37.277,-41.6998,0.426409,0
37.4724,-41.888,0.423362,0
38.893,-40.0196,0.128285,174
39.1349,-40.0239,0.106226,174
39.3337,-40.0976,0.0947326,174
38.3268,-42.5587,0.403909,0
38.66,-42.4874,0.368767,174
40.9617,-37.998,-0.235873,174
41.2183,-37.7731,-0.277663,174
41.3987,-37.703,-0.298538,174
41.5678,-37.6462,-0.316931,174
41.7309,-37.5911,-0.334366,174
41.8884,-37.5375,-0.350908,174
42.0298,-37.5233,-0.362171,174
42.1425,-37.6071,-0.361594,174
42.245,-37.7436,-0.354842,174
42.3309,-37.9796,-0.336892,174
41.3304,-43.8865,0.310787,174
41.6027,-43.935,0.299891,174
41.9905,-43.1932,0.203992,174
42.1254,-44.2153,0.299749,0
42.4021,-44.2737,0.291688,0
42.6808,-44.3257,0.283597,0
42.964,-44.3171,0.269852,0
43.2511,-44.1397,0.239508,174
43.5303,-43.8844,0.202264,174
43.8041,-44.0352,0.207181,174
44.0853,-44.1959,0.213499,0
44.3616,-44.1495,0.199666,0
44.6361,-44.0969,0.18595,0
44.9084,-44.0381,0.172352,0
45.1787,-43.9729,0.158861,0
45.3874,-43.5208,0.108586,174
45.7012,-43.7644,0.126473,0
45.9566,-43.6526,0.110672,0
46.2084,-43.536,0.0951106,0
46.4565,-43.4162,0.0799738,0
46.7012,-43.2936,0.0652766,0
46.942,-43.1667,0.0508479,0
47.1788,-43.0356,0.0367023,0
47.4117,-42.9003,0.0228352,0
47.6405,-42.7609,0.00923164,0
47.857,-42.5966,-0.00607109,0
48.0683,-42.429,-0.0210418,0
48.2748,-42.2588,-0.0356414,0
48.4766,-42.086,-0.0498602,0
48.6737,-41.9108,-0.0637078,0
48.8661,-41.7333,-0.0771941,0
49.0538,-41.5536,-0.0902996,0
49.2369,-41.3718,-0.103044,0
49.4153,-41.1879,-0.115427,0
49.5892,-41.0021,-0.127448,0
49.7635,-40.8216,-0.138395,0
49.9337,-40.6391,-0.149011,0
50.0997,-40.4546,-0.159274,0
50.2536,-40.2585,-0.170202,0
50.4022,-40.0602,-0.180846,0
50.5466,-39.8609,-0.19111,0
50.6868,-39.6606,-0.200993,0
50.8229,-39.4594,-0.210495,0
50.9548,-39.2574,-0.219626,0
51.0828,-39.0545,-0.228386,0
51.2066,-38.8508,-0.236774,0
51.3266,-38.6464,-0.244811,0
51.4481,-38.4456,-0.25197,0
51.5732,-38.2496,-0.258083,0
51.6949,-38.0523,-0.263874,0
51.8133,-37.8536,-0.269323,0
51.9283,-37.6537,-0.27445,0
52.0398,-37.4526,-0.279245,0
52.1481,-37.2501,-0.283718,0
52.2532,-37.0465,-0.287848,0
52.3548,-36.8415,-0.291677,0
52.4532,-36.6353,-0.295163,0
52.5483,-36.4279,-0.298337,0
52.6391,-36.2189,-0.301257,0
52.7279,-36.0091,-0.303766,0
52.8174,-35.7997,-0.305651,0
52.8985,-35.587,-0.307604,0
52.9762,-35.373,-0.309245,0
53.0504,-35.1577,-0.310593,0
53.1212,-34.9413,-0.311618,0
53.1884,-34.7236,-0.312331,0
53.2523,-34.5048,-0.312741,0
53.3128,-34.2847,-0.312839,0
53.3697,-34.0635,-0.312624,0
53.4232,-33.8411,-0.312087,0
37.0781,-40.247,0.32901,174
37.2568,-40.4103,0.323082,174
36.9072,-41.3022,0.430677,0
37.0873,-41.5036,0.428909,0
37.2755,-41.6982,0.426439,0
37.4708,-41.8864,0.423402,0
38.8904,-40.0205,0.128605,174
39.1333,-40.0232,0.106314,174
39.3319,-40.0972,0.0948548,174
38.3249,-42.5574,0.403958,0
38.6563,-42.4901,0.369328,174
40.9588,-38.0013,-0.235333,174
41.2166,-37.7739,-0.277454,174
41.3973,-37.7035,-0.298381,174
41.5664,-37.6467,-0.316783,174
41.7296,-37.5915,-0.334225,174
41.8872,-37.538,-0.350775,174
42.0287,-37.5231,-0.362111,174
42.1417,-37.606,-0.361647,174
42.2441,-37.7425,-0.3549,174
42.3309,-37.9743,-0.337414,174
41.3278,-43.8875,0.311039,174
41.6081,-43.8893,0.29501,174
41.9885,-43.1918,0.203966,174
42.1231,-44.2148,0.299822,0
42.3998,-44.2732,0.291761,0
42.6784,-44.3253,0.283665,0
42.9616,-44.3173,0.269974,0
43.2488,-44.1397,0.239609,174
43.528,-43.8842,0.20233,174
43.8018,-44.0334,0.207081,174
44.083,-44.1963,0.213612,0
44.3594,-44.1499,0.199779,0
44.6338,-44.0974,0.186063,0
44.9062,-44.0386,0.172464,0
45.1764,-43.9738,0.158997,0
45.3849,-43.5191,0.108466,174
45.6991,-43.7653,0.12661,0
45.9546,-43.6535,0.110794,0
46.2063,-43.537,0.0952521,0
46.4545,-43.4172,0.0801008,0
46.6991,-43.2947,0.0654035,0
46.94,-43.1678,0.0509699,0
47.1769,-43.0367,0.0368098,0
47.4098,-42.9014,0.0229426,0
47.6387,-42.7621,0.00934883,0
47.8552,-42.598,-0.00593437,0
48.0666,-42.4304,-0.0209246,0
48.273,-42.2602,-0.0355144,0
48.475,-42.0874,-0.049743,0
48.6721,-41.9123,-0.0636004,0
48.8645,-41.7348,-0.0770769,0
49.0522,-41.5551,-0.0901922,0
49.2354,-41.3733,-0.102936,0
49.4138,-41.1895,-0.115329,0
49.5877,-41.0036,-0.12735,0
49.7621,-40.8231,-0.138307,0
49.9323,-40.6406,-0.148923,0
50.0984,-40.4562,-0.159196,0
50.2523,-40.2602,-0.170104,0
50.401,-40.0618,-0.180759,0
50.5455,-39.8625,-0.191032,0
50.6857,-39.6623,-0.200905,0
50.8218,-39.4611,-0.210417,0
50.9538,-39.259,-0.219557,0
51.0817,-39.0562,-0.228307,0
51.2057,-38.8525,-0.236706,0
51.3256,-38.6481,-0.244743,0
51.447,-38.4472,-0.251911,0
51.5722,-38.2512,-0.258034,0
51.694,-38.0539,-0.263825,0
51.8123,-37.8553,-0.269284,0
51.9273,-37.6554,-0.274411,0
52.039,-37.4543,-0.279206,0
37.0836,-40.2506,0.404793,174
37.2622,-40.4141,0.399025,174
37.285,-40.7939,0.429241,0
37.4545,-40.9854,0.428177,0
37.6315,-41.1703,0.4264,0
37.8204,-41.3413,0.422825,0
38.9128,-39.9944,0.191132,174
39.1504,-40.0049,0.169215,174
39.3726,-40.0335,0.151025,174
38.6441,-41.941,0.400794,0
38.8592,-42.0808,0.395159,0
41.0056,-37.9072,-0.201529,174
41.2375,-37.7346,-0.23828,174
41.4213,-37.6532,-0.261532,174
41.5885,-37.5978,-0.280452,174
41.7498,-37.544,-0.298386,174
41.9057,-37.4917,-0.315401,174
42.0451,-37.4802,-0.326633,174
42.1553,-37.5693,-0.324972,174
42.2573,-37.7042,-0.317588,174
42.3413,-37.9451,-0.297459,174
41.9868,-40.5124,-0.00207024,174
42.1605,-40.6697,0.00449806,174
42.328,-40.9102,0.0208814,174
42.2225,-43.4676,0.302405,0
42.484,-43.5044,0.292991,0
42.7466,-43.5331,0.283338,0
43.0116,-43.522,0.269959,0
43.2755,-43.5048,0.256654,0
43.5385,-43.4815,0.243431,0
43.8001,-43.452,0.230286,0
44.0603,-43.4165,0.217235,0
44.3189,-43.3751,0.20428,0
44.5759,-43.3278,0.191424,0
44.831,-43.2747,0.178685,0
45.0842,-43.2159,0.166063,0
45.3333,-43.1384,0.15222,0
45.5784,-43.0484,0.137777,0
45.8196,-42.9501,0.123206,0
46.0574,-42.8468,0.108821,0
46.2917,-42.739,0.0946809,0
46.5226,-42.6268,0.0807941,0
46.75,-42.5104,0.0671418,0
46.9737,-42.3898,0.0537531,0
47.1938,-42.2653,0.0406184,0
47.4103,-42.1368,0.0277473,0
47.6231,-42.0046,0.0151301,0
47.8249,-41.852,0.00107735,0
48.0215,-41.6947,-0.0128484,0
48.2137,-41.5348,-0.0264227,0
48.4015,-41.3724,-0.0396453,0
48.585,-41.2076,-0.0525359,0
48.7641,-41.0406,-0.0650652,0
48.942,-40.8763,-0.0767449,0
49.1167,-40.7114,-0.0879168,0
49.2875,-40.5443,-0.0987664,0
49.4542,-40.375,-0.109294,0
49.6171,-40.2037,-0.119479,0
49.776,-40.0304,-0.129352,0
49.931,-39.8552,-0.138903,0
50.0822,-39.6781,-0.148122,0
50.2233,-39.4924,-0.157819,0
50.3584,-39.3033,-0.167399,0
50.4898,-39.1132,-0.176618,0
50.6171,-38.9222,-0.185475,0
50.7405,-38.7302,-0.193971,0
50.8602,-38.5373,-0.202136,0
50.9868,-38.3527,-0.208776,0
51.1105,-38.1672,-0.215036,0
51.231,-37.9803,-0.220983,0
51.3482,-37.7921,-0.226589,0
51.462,-37.6026,-0.231872,0
