80.7173,-56.2138,-3.62488,0
80.7752,-56.0314,-3.66116,0
80.8274,-55.8481,-3.69674,0
80.8507,-55.6513,-3.7339,0
80.8649,-55.4535,-3.77039,0
80.8735,-55.2569,-3.80588,0
80.8769,-55.0618,-3.84031,0
80.875,-54.8681,-3.87372,0
80.8747,-54.679,-3.90559,0
80.8933,-54.5004,-3.93483,0
80.9076,-54.3226,-3.96324,0
80.9178,-54.1456,-3.99081,0
80.9241,-53.9694,-4.01754,0
80.9264,-53.7943,-4.04342,0
80.9248,-53.6202,-4.06848,0
80.9194,-53.4472,-4.09269,0
80.9192,-53.2774,-4.11568,0
80.9259,-53.1104,-4.13746,0
80.929,-52.9439,-4.15853,0
80.9283,-52.7779,-4.17888,0
80.924,-52.6125,-4.19852,0
80.9162,-52.4478,-4.21744,0
80.9048,-52.2839,-4.23564,0
80.8862,-52.1206,-4.2532,0
80.8619,-51.9582,-4.27008,0
80.8341,-51.7972,-4.28622,0
80.8028,-51.6374,-4.3016,0
80.7683,-51.479,-4.31623,0
80.7305,-51.322,-4.33013,0
80.6895,-51.1666,-4.34329,0
80.6453,-51.0127,-4.3557,0
80.5981,-50.8604,-4.36739,0
80.5479,-50.7097,-4.37834,0
80.4947,-50.5608,-4.38856,0
80.4386,-50.4136,-4.39806,0
80.3796,-50.2683,-4.40685,0
80.3357,-50.1204,-4.41487,0
80.2888,-49.9737,-4.42224,0
80.2391,-49.828,-4.42892,0
80.1866,-49.6836,-4.43494,0
80.1312,-49.5404,-4.44029,0
80.0731,-49.3984,-4.44498,0
80.0123,-49.2578,-4.44899,0
79.9487,-49.1186,-4.45233,0
79.8823,-48.9807,-4.45501,0
79.8134,-48.8443,-4.45702,0
79.7398,-48.7105,-4.45836,0
79.6594,-48.5805,-4.45901,0
73.9744,-59.407,-2.25785,0
74.1558,-59.4736,-2.2694,0
74.3401,-59.5355,-2.28195,0
74.5272,-59.5926,-2.29555,0
74.717,-59.6446,-2.31018,0
74.9077,-59.6817,-2.32844,0
75.0982,-59.7009,-2.35094,0
75.2896,-59.7142,-2.37444,0
75.4819,-59.7215,-2.39891,0
75.6747,-59.7227,-2.42434,0
75.8678,-59.7177,-2.45071,0
76.0598,-59.7024,-2.47898,0
76.2516,-59.681,-2.50811,0
76.4427,-59.6533,-2.53803,0
76.633,-59.6195,-2.56874,0
76.8224,-59.5794,-2.60019,0
77.0105,-59.5331,-2.63236,0
77.1972,-59.4805,-2.66521,0
77.3839,-59.4256,-2.69785,0
77.5709,-59.3686,-2.7302,0
76.9274,-57.7518,-3.10578,174
77.0511,-57.658,-3.1409,174
77.2589,-57.708,-3.14421,174
78.2979,-59.0776,-2.86587,0
78.473,-58.9894,-2.90113,0
78.6451,-58.8951,-2.93686,0
78.8138,-58.7948,-2.973,0
78.979,-58.6888,-3.00951,0
79.1404,-58.577,-3.04633,0
79.2977,-58.4597,-3.08342,0
79.4509,-58.3369,-3.12075,0
79.595,-58.204,-3.15922,0
79.7318,-58.0634,-3.19828,0
79.8533,-57.9082,-3.23928,0
79.9662,-57.7462,-3.28065,0
80.0735,-57.5811,-3.32167,0
80.1753,-57.4131,-3.36229,0
80.2716,-57.2425,-3.40248,0
80.362,-57.0695,-3.44219,0
80.4468,-56.8943,-3.48139,0
80.5261,-56.7171,-3.52005,0
80.5996,-56.5383,-3.55812,0
80.6674,-56.358,-3.59558,0
80.7297,-56.1764,-3.63239,0
80.7863,-55.9938,-3.66853,0
80.8355,-55.8092,-3.70417,0
80.8541,-55.6106,-3.74148,0
80.8671,-55.413,-3.77777,0
80.8746,-55.2167,-3.81303,0
80.8769,-55.0218,-3.84726,0
80.874,-54.8286,-3.88045,0
80.8788,-54.6422,-3.91167,0
80.8965,-54.4638,-3.94073,0
80.91,-54.2862,-3.96897,0
80.9194,-54.1093,-3.99637,0
80.9248,-53.9333,-4.02293,0
80.9263,-53.7584,-4.04864,0
80.924,-53.5845,-4.07352,0
80.9179,-53.4118,-4.09756,0
80.9209,-53.243,-4.12021,0
80.9269,-53.0761,-4.14185,0
80.9291,-52.9097,-4.16277,0
80.9277,-52.7439,-4.18298,0
80.9227,-52.5786,-4.20247,0
80.9141,-52.4141,-4.22124,0
80.902,-52.2503,-4.23929,0
80.8816,-52.0871,-4.25674,0
80.8565,-51.9251,-4.27345,0
80.8279,-51.7642,-4.28944,0
80.796,-51.6048,-4.30467,0
80.7608,-51.4466,-4.31916,0
80.7223,-51.29,-4.3329,0
80.6807,-51.1348,-4.3459,0
80.6359,-50.9813,-4.35816,0
80.588,-50.8293,-4.3697,0
80.5372,-50.679,-4.3805,0
80.4834,-50.5304,-4.39058,0
80.4268,-50.3836,-4.39993,0
80.3709,-50.2379,-4.40855,0
80.3262,-50.0902,-4.41644,0
80.2788,-49.9437,-4.42366,0
80.2285,-49.7983,-4.43021,0
80.1755,-49.6541,-4.4361,0
80.1195,-49.5111,-4.44131,0
80.0609,-49.3694,-4.44585,0
79.9995,-49.2291,-4.44973,0
79.9352,-49.0901,-4.45294,0
79.8684,-48.9526,-4.45548,0
79.7988,-48.8165,-4.45735,0
79.7235,-48.6836,-4.45854,0
79.6426,-48.5541,-4.45905,0
73.8323,-59.3509,-2.24941,0
74.0113,-59.421,-2.26014,0
74.1934,-59.4867,-2.27188,0
74.3783,-59.5477,-2.28466,0
74.566,-59.6037,-2.29846,0
74.7562,-59.6547,-2.31331,0
74.9468,-59.6861,-2.33298,0
75.1375,-59.7041,-2.35569,0
75.3291,-59.7162,-2.37938,0
75.5215,-59.7222,-2.40406,0
75.7144,-59.7222,-2.42968,0
75.9073,-59.7151,-2.45644,0
76.0992,-59.6985,-2.4849,0
76.2909,-59.6758,-2.51419,0
76.4818,-59.6469,-2.54427,0
76.672,-59.6118,-2.57513,0
76.8612,-59.5704,-2.60674,0
77.049,-59.5228,-2.63905,0
77.2353,-59.469,-2.67204,0
77.4224,-59.4145,-2.70444,0
76.9043,-57.9756,-3.04409,174
76.9478,-57.723,-3.11515,174
77.0917,-57.6655,-3.14218,174
78.1566,-59.1434,-2.8382,0
78.3341,-59.06,-2.87306,0
78.5086,-58.9705,-2.90844,0
78.6801,-58.875,-2.94425,0
78.848,-58.7735,-2.98047,0
79.0125,-58.6663,-3.01705,0
79.173,-58.5534,-3.05393,0
79.3295,-58.4349,-3.09108,0
79.4817,-58.3111,-3.12843,0
79.6236,-58.1755,-3.16723,0
79.7592,-58.0339,-3.20632,0
79.877,-57.8751,-3.24781,0
79.9887,-57.7125,-3.28911,0
80.0949,-57.5468,-3.33004,0
80.1955,-57.3783,-3.37057,0
80.2905,-57.2071,-3.41068,0
80.3798,-57.0337,-3.45028,0
80.4636,-56.8581,-3.48938,0
80.5416,-56.6805,-3.52792,0
80.614,-56.5014,-3.56587,0
80.6807,-56.3208,-3.6032,0
80.7418,-56.139,-3.63987,0
80.7973,-55.9562,-3.67587,0
80.8398,-55.7684,-3.71192,0
80.8572,-55.5699,-3.74901,0
80.8691,-55.3726,-3.78509,0
80.8755,-55.1765,-3.82015,0
80.8767,-54.982,-3.85417,0
80.8728,-54.7891,-3.88713,0
80.8828,-54.6055,-3.91771,0
80.8996,-54.4273,-3.9466,0
80.9123,-54.2498,-3.97467,0
80.9209,-54.0731,-4.0019,0
80.9255,-53.8973,-4.02828,0
80.9262,-53.7226,-4.05382,0
80.9231,-53.549,-4.07852,0
80.9162,-53.3765,-4.1024,0
80.9224,-53.2087,-4.12471,0
80.9277,-53.0419,-4.14621,0
80.9291,-52.8756,-4.16698,0
80.927,-52.7099,-4.18704,0
80.9212,-52.5448,-4.20638,0
80.9119,-52.3804,-4.225,0
80.899,-52.2167,-4.2429,0
80.8766,-52.0537,-4.26023,0
80.8509,-51.8919,-4.2768,0
80.8216,-51.7314,-4.29262,0
80.7891,-51.5722,-4.30771,0
80.7531,-51.4144,-4.32204,0
80.7141,-51.258,-4.33563,0
80.6717,-51.1031,-4.34848,0
80.6263,-50.9499,-4.36059,0
80.5779,-50.7983,-4.37197,0
80.5263,-50.6483,-4.38263,0
80.472,-50.5001,-4.39256,0
80.4147,-50.3537,-4.40175,0
80.362,-50.2074,-4.41023,0
80.3168,-50.06,-4.41799,0
80.2687,-49.9137,-4.42507,0
80.2179,-49.7685,-4.43148,0
80.1641,-49.6246,-4.43722,0
80.1077,-49.4819,-4.4423,0
80.0484,-49.3405,-4.44671,0
79.9865,-49.2004,-4.45045,0
79.9218,-49.0617,-4.45351,0
79.8544,-48.9245,-4.45591,0
79.7843,-48.7887,-4.45766,0
79.7071,-48.6568,-4.4587,0
73.9362,-59.0167,-2.30705,0
74.1071,-59.0566,-2.32436,0
74.2812,-59.113,-2.33653,0
74.4578,-59.1648,-2.34965,0
74.6368,-59.2119,-2.36375,0
74.818,-59.254,-2.37882,0
74.998,-59.2718,-2.40005,0
75.1788,-59.2836,-2.42235,0
75.3604,-59.2898,-2.44556,0
75.5423,-59.2903,-2.46966,0
75.7247,-59.285,-2.49464,0
75.907,-59.2739,-2.52048,0
76.0892,-59.2569,-2.54714,0
76.271,-59.234,-2.57462,0
76.4516,-59.2037,-2.60323,0
76.6309,-59.1659,-2.63297,0
76.8088,-59.1223,-2.66339,0
76.9855,-59.0728,-2.69444,0
77.1605,-59.0177,-2.72609,0
76.937,-58.1643,-2.94203,174
76.8912,-57.7305,-3.05711,174
76.9484,-57.5192,-3.11922,174
77.1756,-57.6106,-3.1119,174
78.0216,-58.6846,-2.88596,0
78.1873,-58.6018,-2.91923,0
78.3502,-58.5134,-2.95293,0
78.51,-58.4195,-2.98701,0
78.6664,-58.3201,-3.02145,0
78.8159,-58.2108,-3.05716,0
78.9599,-58.0947,-3.09346,0
79.0995,-57.9736,-3.12995,0
79.2346,-57.8475,-3.1666,0
79.3649,-57.7167,-3.20335,0
79.4903,-57.5814,-3.24014,0
79.6107,-57.4418,-3.27694,0
79.7258,-57.2981,-3.31366,0
79.8286,-57.1444,-3.35153,0
79.9223,-56.9846,-3.38974,0
80.0109,-56.8224,-3.42751,0
80.0941,-56.658,-3.46483,0
80.1721,-56.4918,-3.50165,0
80.2448,-56.3238,-3.53796,0
80.3122,-56.1542,-3.5737,0
80.3743,-55.9834,-3.60886,0
80.4295,-55.8104,-3.64361,0
80.4572,-55.6238,-3.68019,0
80.4795,-55.4378,-3.71585,0
80.4965,-55.2525,-3.75061,0
80.5099,-55.069,-3.78426,0
80.5418,-54.8973,-3.81487,0
80.5695,-54.726,-3.8447,0
80.5931,-54.555,-3.87375,0
80.6127,-54.3844,-3.90203,0
80.6281,-54.2144,-3.92949,0
80.6398,-54.0451,-3.95618,0
80.6474,-53.8766,-3.98206,0
80.6515,-53.7089,-4.00715,0
80.6516,-53.5421,-4.03145,0
80.6482,-53.3764,-4.05494,0
80.6566,-53.215,-4.07686,0
80.6641,-53.0546,-4.09796,0
80.6678,-52.8945,-4.11838,0
80.6681,-52.7349,-4.13811,0
80.6649,-52.5758,-4.15716,0
80.6569,-52.4172,-4.17557,0
80.6413,-52.259,-4.19343,0
80.6223,-52.1019,-4.21056,0
80.6,-51.9458,-4.22698,0
80.5743,-51.7908,-4.2427,0
80.5454,-51.6371,-4.25768,0
80.5132,-51.4846,-4.27194,0
80.4779,-51.3335,-4.28551,0
80.4395,-51.1837,-4.29837,0
80.3979,-51.0354,-4.3105,0
80.3534,-50.8886,-4.32194,0
80.306,-50.7434,-4.33267,0
80.2557,-50.5998,-4.3427,0
80.2026,-50.4578,-4.35204,0
80.1621,-50.3141,-4.36052,0
80.12,-50.1712,-4.36833,0
80.075,-50.0293,-4.3755,0
80.0273,-49.8885,-4.38202,0
79.9766,-49.7489,-4.38789,0
79.9234,-49.6104,-4.39311,0
79.8675,-49.4732,-4.39768,0
79.8088,-49.3372,-4.40161,0
79.7461,-49.2032,-4.40488,0
79.6767,-49.0724,-4.40753,0
79.6048,-48.9433,-4.40952,0
79.5302,-48.816,-4.41087,0
79.4598,-48.6869,-4.41155,0
73.9712,-59.0242,-2.31085,0
74.1427,-59.0686,-2.32677,0
74.3173,-59.1241,-2.33914,0
74.4944,-59.1749,-2.35246,0
74.6738,-59.2209,-2.36677,0
74.8549,-59.2586,-2.38298,0
75.035,-59.2747,-2.40455,0
75.216,-59.2853,-2.42704,0
75.3977,-59.2904,-2.45044,0
75.5798,-59.2896,-2.47473,0
75.762,-59.2832,-2.49988,0
75.9445,-59.2709,-2.52589,0
76.1266,-59.2527,-2.55272,0
76.3082,-59.2286,-2.58036,0
76.4886,-59.1964,-2.60928,0
76.6675,-59.1574,-2.63917,0
76.8452,-59.1126,-2.66971,0
77.0216,-59.062,-2.70089,0
77.1962,-59.0056,-2.73266,0
76.8544,-57.9273,-3.00009,174
76.9116,-57.702,-3.06658,174
76.9682,-57.4917,-3.12819,174
77.2166,-57.6179,-3.11299,174
78.0558,-58.6681,-2.89276,0
78.2209,-58.5841,-2.92611,0
78.3832,-58.4946,-2.9599,0
78.5424,-58.3995,-2.99406,0
78.6981,-58.299,-3.02856,0
78.8458,-58.1874,-3.0646,0
78.989,-58.0703,-3.10093,0
79.1277,-57.9481,-3.13747,0
79.2618,-57.821,-3.17415,0
79.3911,-57.6893,-3.2109,0
79.5155,-57.5531,-3.2477,0
79.6348,-57.4126,-3.28448,0
79.7488,-57.2682,-3.3212,0
79.8483,-57.1118,-3.35942,0
79.941,-56.9515,-3.39753,0
80.0284,-56.7888,-3.43522,0
80.1105,-56.624,-3.47243,0
80.1874,-56.4574,-3.50915,0
80.259,-56.289,-3.54535,0
80.3254,-56.1192,-3.58097,0
80.3864,-55.9481,-3.61602,0
80.4356,-55.7721,-3.6512,0
80.4622,-55.5856,-3.68758,0
80.4834,-55.3997,-3.72307,0
80.4993,-55.2146,-3.75763,0
80.5169,-55.0337,-3.79061,0
80.5479,-54.8621,-3.82107,0
80.5747,-54.6908,-3.85074,0
80.5975,-54.5199,-3.87963,0
80.6162,-54.3494,-3.90773,0
80.6309,-54.1796,-3.93504,0
80.6416,-54.0104,-3.96156,0
80.6486,-53.8421,-3.98728,0
80.6517,-53.6746,-4.01221,0
80.6512,-53.508,-4.03633,0
80.6481,-53.3428,-4.05962,0
80.6584,-53.1821,-4.08124,0
80.6651,-53.0217,-4.10221,0
80.6682,-52.8617,-4.12249,0
80.6677,-52.7021,-4.14208,0
80.6638,-52.5432,-4.16099,0
80.6539,-52.3846,-4.1793,0
80.6377,-52.2267,-4.19701,0
80.618,-52.0697,-4.214,0
80.595,-51.9138,-4.23027,0
80.5687,-51.7591,-4.24583,0
80.5391,-51.6056,-4.26067,0
80.5062,-51.4534,-4.2748,0
80.4702,-51.3026,-4.28821,0
80.4312,-51.1531,-4.30092,0
80.389,-51.0051,-4.31292,0
80.3439,-50.8587,-4.32421,0
80.2959,-50.7137,-4.33479,0
80.2451,-50.5705,-4.34467,0
80.1937,-50.4284,-4.35385,0
80.1537,-50.2847,-4.36218,0
80.1109,-50.1419,-4.36986,0
80.0654,-50.0003,-4.3769,0
80.017,-49.8597,-4.38328,0
79.9659,-49.7203,-4.38902,0
79.9121,-49.5821,-4.39411,0
79.8556,-49.4451,-4.39854,0
79.7965,-49.3094,-4.40233,0
79.732,-49.1762,-4.40549,0
79.6622,-49.0457,-4.40799,0
79.5896,-48.917,-4.40986,0
79.5145,-48.7901,-4.41106,0
79.4523,-48.6567,-4.41159,0
73.8365,-58.9942,-2.29634,0
74.0062,-59.0315,-2.31468,0
74.1783,-59.0804,-2.32924,0
74.3534,-59.1349,-2.34179,0
74.5311,-59.1847,-2.35532,0
74.7109,-59.2298,-2.36983,0
74.8919,-59.2623,-2.38733,0
75.0722,-59.2774,-2.40909,0
75.2533,-59.2868,-2.43177,0
75.4351,-59.2907,-2.45535,0
75.6173,-59.2888,-2.47982,0
75.7995,-59.2811,-2.50515,0
75.9819,-59.2676,-2.53133,0
76.1639,-59.2482,-2.55834,0
76.3455,-59.2229,-2.58613,0
76.5254,-59.1889,-2.61537,0
76.7041,-59.1487,-2.64539,0
76.8816,-59.1027,-2.67607,0
77.0575,-59.0509,-2.70737,0
77.2319,-58.9933,-2.73926,0
76.8606,-57.8688,-3.0167,174
76.9194,-57.6504,-3.08126,174
76.9878,-57.4644,-3.1371,174
77.2725,-57.6492,-3.10868,174
78.0899,-58.6513,-2.89957,0
78.2545,-58.5662,-2.93302,0
78.4162,-58.4755,-2.96689,0
78.5747,-58.3793,-3.00112,0
78.729,-58.2767,-3.03589,0
78.8755,-58.1638,-3.07204,0
79.0178,-58.0456,-3.10842,0
79.1556,-57.9223,-3.145,0
79.2887,-57.7943,-3.18169,0
79.417,-57.6616,-3.21846,0
79.5404,-57.5246,-3.25527,0
79.6586,-57.3833,-3.29203,0
79.7709,-57.2374,-3.32885,0
79.8678,-57.0791,-3.36727,0
79.9594,-56.9182,-3.40531,0
80.0457,-56.7551,-3.4429,0
80.1268,-56.59,-3.48002,0
80.2026,-56.4229,-3.51664,0
80.2731,-56.2543,-3.55271,0
80.3384,-56.0842,-3.58822,0
80.3983,-55.9129,-3.62314,0
80.4416,-55.7337,-3.65875,0
80.467,-55.5473,-3.69495,0
80.4871,-55.3616,-3.73024,0
80.502,-55.1767,-3.76461,0
80.5236,-54.9984,-3.79693,0
80.5537,-54.8269,-3.82722,0
80.5797,-54.6556,-3.85674,0
80.6016,-54.4848,-3.88547,0
80.6195,-54.3145,-3.91341,0
80.6334,-54.1448,-3.94055,0
80.6434,-53.9758,-3.96691,0
80.6495,-53.8076,-3.99246,0
80.652,-53.6403,-4.01723,0
80.6506,-53.4739,-4.04119,0
80.6505,-53.3097,-4.06411,0
80.6602,-53.1491,-4.08561,0
80.666,-52.9888,-4.10643,0
80.6684,-52.8288,-4.12657,0
80.6672,-52.6694,-4.14602,0
80.6626,-52.5106,-4.1648,0
80.6509,-52.3521,-4.18299,0
80.634,-52.1943,-4.20056,0
80.6136,-52.0376,-4.2174,0
80.5898,-51.882,-4.23352,0
80.5629,-51.7275,-4.24894,0
80.5326,-51.5743,-4.26362,0
80.4991,-51.4224,-4.2776,0
80.4624,-51.2718,-4.29088,0
80.4227,-51.1226,-4.30344,0
80.38,-50.9749,-4.31528,0
80.3343,-50.8288,-4.32643,0
80.2857,-50.6842,-4.33688,0
80.2342,-50.5412,-4.34662,0
80.1856,-50.3988,-4.35561,0
80.1452,-50.2552,-4.36382,0
80.1018,-50.1127,-4.37136,0
80.0557,-49.9713,-4.37826,0
80.0068,-49.831,-4.38452,0
79.9552,-49.6918,-4.39011,0
79.9007,-49.5539,-4.39507,0
79.8437,-49.4171,-4.39938,0
79.7839,-49.2817,-4.40303,0
79.7179,-49.1492,-4.40605,0
79.6475,-49.0191,-4.40843,0
79.5744,-48.8908,-4.41015,0
79.4987,-48.7643,-4.41124,0
73.9358,-58.6953,-2.34765,0
74.0989,-58.7271,-2.3658,0
74.2634,-58.7547,-2.38466,0
74.4301,-58.7889,-2.40108,0
74.5998,-58.8308,-2.41485,0
74.7715,-58.868,-2.42953,0
74.943,-58.888,-2.44858,0
75.1144,-58.8975,-2.46996,0
75.2864,-58.9017,-2.49219,0
75.4588,-58.9006,-2.51526,0
75.6315,-58.8941,-2.53913,0
75.8041,-58.8821,-2.5638,0
75.9766,-58.8647,-2.58924,0
76.1486,-58.8417,-2.61544,0
76.3201,-58.8132,-2.64235,0
76.4906,-58.779,-2.66997,0
76.6602,-58.7393,-2.69827,0
76.8285,-58.6941,-2.72721,0
76.9949,-58.6423,-2.75699,0
76.8162,-57.9014,-2.95156,174
76.815,-57.5667,-3.04555,174
76.9022,-57.4177,-3.09384,174
77.0573,-57.3915,-3.11237,174
77.8061,-58.3162,-2.91044,0
77.9606,-58.2339,-2.94277,0
78.1113,-58.1449,-2.97582,0
78.2586,-58.0505,-3.00924,0
78.4023,-57.951,-3.04299,0
78.5425,-57.8465,-3.07701,0
78.6787,-57.7371,-3.11128,0
78.8109,-57.623,-3.14573,0
78.9389,-57.5044,-3.18033,0
79.0624,-57.3813,-3.21504,0
79.1814,-57.2541,-3.24977,0
79.2958,-57.1228,-3.28451,0
79.4052,-56.9878,-3.31922,0
79.5098,-56.8492,-3.35382,0
79.6095,-56.7072,-3.38828,0
79.704,-56.562,-3.42257,0
79.7905,-56.4117,-3.45708,0
79.8661,-56.2548,-3.49215,0
79.9369,-56.0961,-3.52674,0
80.0025,-55.936,-3.56081,0
80.057,-55.7705,-3.59519,0
80.0915,-55.5952,-3.63081,0
80.1271,-55.4238,-3.66486,0
80.1716,-55.2599,-3.69658,0
80.212,-55.0959,-3.72758,0
80.2482,-54.9318,-3.75787,0
80.2804,-54.7678,-3.78742,0
80.3085,-54.6039,-3.81625,0
80.3327,-54.4403,-3.84433,0
80.3531,-54.2771,-3.87168,0
80.3696,-54.1143,-3.89827,0
80.3823,-53.9522,-3.92412,0
80.3913,-53.7906,-3.9492,0
80.3966,-53.6298,-3.97353,0
80.3984,-53.4698,-3.99711,0
80.401,-53.3118,-4.01965,0
80.4124,-53.1571,-4.04076,0
80.4204,-53.0027,-4.06121,0
80.4248,-52.8485,-4.08102,0
80.426,-52.6948,-4.10018,0
80.4189,-52.541,-4.11889,0
80.4084,-52.388,-4.13693,0
80.3945,-52.2358,-4.15427,0
80.3772,-52.0845,-4.17094,0
80.3566,-51.9342,-4.18693,0
80.3328,-51.7849,-4.20222,0
80.3059,-51.6368,-4.21682,0
80.2759,-51.4898,-4.23075,0
80.2427,-51.3441,-4.24399,0
80.2066,-51.1997,-4.25654,0
80.1675,-51.0566,-4.26841,0
80.1255,-50.9149,-4.27961,0
80.0806,-50.7747,-4.29012,0
80.033,-50.6361,-4.29996,0
79.9962,-50.4962,-4.30887,0
79.9584,-50.357,-4.31711,0
79.9178,-50.2187,-4.32473,0
79.8745,-50.0814,-4.33171,0
79.8286,-49.9452,-4.33806,0
79.7799,-49.81,-4.34379,0
79.7255,-49.6771,-4.34892,0
79.6671,-49.546,-4.35344,0
79.6059,-49.4165,-4.35733,0
79.542,-49.2885,-4.36058,0
79.4754,-49.1622,-4.36321,0
79.4062,-49.0375,-4.36521,0
79.3347,-48.9145,-4.36658,0
79.2852,-48.78,-4.36705,0
73.9692,-58.7021,-2.35132,0
74.1326,-58.7331,-2.36962,0
74.2973,-58.7598,-2.38862,0
74.4647,-58.7979,-2.40383,0
74.6349,-58.8388,-2.41779,0
74.807,-58.8751,-2.43265,0
74.9781,-58.8904,-2.4529,0
75.1497,-58.8988,-2.47446,0
75.3218,-58.9019,-2.49687,0
75.4943,-58.8997,-2.52009,0
75.667,-58.8921,-2.54414,0
75.8396,-58.879,-2.56896,0
76.0119,-58.8604,-2.59456,0
76.1839,-58.8363,-2.62091,0
76.3552,-58.8066,-2.64797,0
76.5256,-58.7713,-2.67573,0
76.6949,-58.7305,-2.70417,0
76.863,-58.6841,-2.73323,0
77.0288,-58.6307,-2.76325,0
76.8248,-57.8475,-2.96747,174
76.8331,-57.5358,-3.05563,174
76.9223,-57.3919,-3.10249,174
77.1255,-57.4465,-3.10204,174
77.8385,-58.3004,-2.91689,0
77.9919,-58.216,-2.94953,0
78.1418,-58.1259,-2.98265,0
78.2884,-58.0305,-3.01615,0
78.4315,-57.93,-3.04995,0
78.5709,-57.8245,-3.08404,0
78.7062,-57.7141,-3.11834,0
78.8376,-57.599,-3.15284,0
78.9646,-57.4794,-3.18746,0
79.0872,-57.3555,-3.22216,0
79.2052,-57.2274,-3.25691,0
79.3186,-57.0954,-3.29165,0
79.4272,-56.9596,-3.32632,0
79.5308,-56.8203,-3.36091,0
79.6293,-56.6776,-3.39535,0
79.7228,-56.5318,-3.42959,0
79.8064,-56.3796,-3.46433,0
79.881,-56.2223,-3.4993,0
79.9507,-56.0633,-3.53379,0
80.0154,-55.9029,-3.56775,0
80.0645,-55.7345,-3.60258,0
80.098,-55.5592,-3.63802,0
80.1366,-55.3901,-3.67143,0
80.1802,-55.2262,-3.70301,0
80.2198,-55.0622,-3.73387,0
80.2552,-54.8981,-3.764,0
80.2866,-54.7341,-3.79341,0
80.3138,-54.5703,-3.82209,0
80.3373,-54.4067,-3.85001,0
80.3568,-54.2436,-3.8772,0
80.3725,-54.081,-3.90364,0
80.3845,-53.9189,-3.92933,0
80.3927,-53.7575,-3.95425,0
80.3972,-53.5969,-3.97844,0
80.3983,-53.4371,-4.00185,0
80.4036,-53.28,-4.02404,0
80.4143,-53.1254,-4.04501,0
80.4216,-52.971,-4.06534,0
80.4254,-52.8169,-4.08501,0
80.4248,-52.6632,-4.10408,0
80.417,-52.5095,-4.12265,0
80.4058,-52.3566,-4.14055,0
80.3911,-52.2046,-4.15776,0
80.3731,-52.0535,-4.17428,0
80.352,-51.9034,-4.19012,0
80.3276,-51.7544,-4.20528,0
80.2999,-51.6065,-4.21974,0
80.2693,-51.4598,-4.23352,0
80.2355,-51.3143,-4.24662,0
80.1987,-51.1702,-4.25903,0
80.1591,-51.0274,-4.27076,0
80.1165,-50.886,-4.28182,0
80.071,-50.7461,-4.2922,0
80.0242,-50.6075,-4.30187,0
79.9887,-50.4676,-4.31061,0
79.9502,-50.3285,-4.31873,0
79.9091,-50.1904,-4.32621,0
79.8654,-50.0533,-4.33307,0
79.8188,-49.9173,-4.33929,0
79.7696,-49.7824,-4.34488,0
79.7137,-49.6501,-4.3499,0
79.6547,-49.5193,-4.35429,0
79.593,-49.3901,-4.35806,0
79.5285,-49.2624,-4.36117,0
79.4615,-49.1364,-4.36367,0
79.3918,-49.0121,-4.36553,0
79.3195,-48.8894,-4.36678,0
79.2778,-48.7509,-4.36704,0
73.8405,-58.6745,-2.33729,0
74.0027,-58.7088,-2.35502,0
74.1663,-58.7389,-2.37346,0
74.3312,-58.7648,-2.39262,0
74.4995,-58.8067,-2.40663,0
74.6701,-58.8467,-2.42077,0
74.8423,-58.88,-2.43637,0
75.0133,-58.8925,-2.45726,0
75.185,-58.8998,-2.479,0
75.3572,-58.9019,-2.50157,0
75.5298,-58.8986,-2.52497,0
75.7024,-58.8898,-2.54917,0
75.875,-58.8756,-2.57416,0
76.0473,-58.8559,-2.59991,0
76.2191,-58.8306,-2.62641,0
76.3902,-58.7998,-2.65362,0
76.5605,-58.7634,-2.68152,0
76.7295,-58.7214,-2.71009,0
76.8973,-58.6739,-2.73928,0
77.0626,-58.6189,-2.76952,0
76.8343,-57.7964,-2.98264,174
76.8511,-57.505,-3.06563,174
76.9444,-57.3699,-3.11021,174
77.1955,-57.5029,-3.09142,174
77.8704,-58.2838,-2.92349,0
78.0229,-58.198,-2.95631,0
78.1722,-58.1067,-2.98951,0
78.318,-58.0103,-3.02306,0
78.4604,-57.9087,-3.05694,0
78.599,-57.8022,-3.09107,0
78.7336,-57.6908,-3.12542,0
78.8641,-57.5748,-3.15994,0
78.9902,-57.4543,-3.19458,0
79.1119,-57.3295,-3.2293,0
79.2289,-57.2006,-3.26404,0
79.3412,-57.0678,-3.29878,0
79.4489,-56.9313,-3.33345,0
79.5514,-56.7912,-3.36799,0
79.6489,-56.6479,-3.40239,0
79.7413,-56.5015,-3.4366,0
79.8222,-56.3475,-3.47154,0
79.8958,-56.1898,-3.50643,0
79.9645,-56.0305,-3.5408,0
80.0281,-55.8698,-3.57466,0
80.0718,-55.6985,-3.60992,0
80.1041,-55.5233,-3.64521,0
80.1459,-55.3565,-3.67798,0
80.1887,-55.1925,-3.7094,0
80.2273,-55.0285,-3.74011,0
80.2619,-54.8644,-3.77011,0
80.2924,-54.7004,-3.79936,0
80.3191,-54.5366,-3.82788,0
80.3416,-54.3732,-3.85567,0
80.3603,-54.2102,-3.88269,0
80.3752,-54.0476,-3.90898,0
80.3864,-53.8857,-3.93451,0
80.3939,-53.7245,-3.95929,0
80.3977,-53.564,-3.9833,0
80.398,-53.4044,-4.00657,0
80.4061,-53.2482,-4.02841,0
80.4162,-53.0936,-4.04924,0
80.4227,-52.9393,-4.06944,0
80.4258,-52.7853,-4.08898,0
80.4236,-52.6316,-4.10794,0
80.415,-52.4781,-4.12638,0
80.403,-52.3253,-4.14414,0
80.3877,-52.1735,-4.16121,0
80.3691,-52.0226,-4.17759,0
80.3472,-51.8727,-4.19329,0
80.3221,-51.7239,-4.2083,0
80.2939,-51.5762,-4.22262,0
80.2627,-51.4298,-4.23627,0
80.2283,-51.2846,-4.24923,0
80.1909,-51.1407,-4.2615,0
80.1506,-50.9982,-4.27309,0
80.1074,-50.8572,-4.28401,0
80.0614,-50.7176,-4.29424,0
80.0171,-50.5787,-4.30372,0
79.9809,-50.4389,-4.31234,0
79.942,-50.3001,-4.32031,0
79.9004,-50.1622,-4.32767,0
79.856,-50.0253,-4.3344,0
79.8089,-49.8895,-4.3405,0
79.7587,-49.755,-4.34596,0
79.7018,-49.6231,-4.35086,0
79.6422,-49.4926,-4.35512,0
79.5799,-49.3637,-4.35874,0
79.5149,-49.2364,-4.36174,0
79.4473,-49.1107,-4.36411,0
79.3772,-48.9867,-4.36585,0
79.306,-48.8637,-4.36695,0
73.9355,-58.3998,-2.38497,0
74.0916,-58.4291,-2.40251,0
74.2491,-58.4543,-2.42073,0
74.4077,-58.4753,-2.43962,0
74.5671,-58.4922,-2.45917,0
74.7295,-58.5184,-2.47547,0
74.893,-58.54,-2.49257,0
75.056,-58.5475,-2.51311,0
75.2195,-58.5502,-2.53444,0
75.3833,-58.5477,-2.55654,0
75.5472,-58.5403,-2.5794,0
75.7111,-58.5277,-2.60299,0
75.8747,-58.5099,-2.62732,0
76.038,-58.487,-2.65234,0
76.2005,-58.4589,-2.67802,0
76.3624,-58.4255,-2.70438,0
76.5233,-58.3869,-2.73134,0
76.6829,-58.3431,-2.75892,0
76.8412,-58.2941,-2.78706,0
76.8058,-57.8589,-2.91045,174
76.8081,-57.5339,-3.00425,174
76.8965,-57.3887,-3.05226,174
77.0408,-57.3455,-3.0745,174
77.5994,-57.9643,-2.93718,0
77.7461,-57.8867,-2.96767,0
77.8887,-57.8022,-2.99898,0
78.0283,-57.7128,-3.03064,0
78.1645,-57.6186,-3.0626,0
78.2973,-57.5197,-3.09483,0
78.4265,-57.4163,-3.12728,0
78.5519,-57.3085,-3.1599,0
78.6734,-57.1964,-3.19266,0
78.7908,-57.0803,-3.22551,0
78.9041,-56.9602,-3.25841,0
79.013,-56.8364,-3.29132,0
79.1173,-56.7091,-3.32419,0
79.2172,-56.5783,-3.35697,0
79.3124,-56.4444,-3.38965,0
79.4028,-56.3075,-3.42215,0
79.4884,-56.1679,-3.45445,0
79.5693,-56.0256,-3.48652,0
79.6401,-55.8775,-3.51908,0
79.7157,-55.734,-3.54982,0
79.7849,-55.5874,-3.58047,0
79.8372,-55.4315,-3.61238,0
79.8852,-55.2753,-3.64364,0
79.9295,-55.1186,-3.67424,0
79.9696,-54.9617,-3.70418,0
80.0059,-54.8047,-3.73344,0
80.0383,-54.6477,-3.762,0
80.0667,-54.4908,-3.78988,0
80.0914,-54.334,-3.81706,0
80.1123,-54.1775,-3.84353,0
80.1296,-54.0214,-3.8693,0
80.1433,-53.8658,-3.89434,0
80.1533,-53.7108,-3.91867,0
80.1598,-53.5563,-3.94229,0
80.1628,-53.4026,-3.96518,0
80.1729,-53.2521,-3.98664,0
80.1848,-53.1031,-4.0071,0
80.1932,-52.9542,-4.02695,0
80.1948,-52.8051,-4.04638,0
80.1922,-52.6564,-4.06522,0
80.1862,-52.5082,-4.08341,0
80.1769,-52.3608,-4.10094,0
80.1644,-52.2141,-4.1178,0
80.1486,-52.0683,-4.13404,0
80.1297,-51.9234,-4.14959,0
80.1077,-51.7794,-4.16449,0
80.0826,-51.6365,-4.17873,0
80.0545,-51.4947,-4.19231,0
80.0233,-51.354,-4.20523,0
79.9892,-51.2145,-4.21749,0
79.9523,-51.0764,-4.22911,0
79.9126,-50.9395,-4.24006,0
79.87,-50.804,-4.25036,0
79.837,-50.6679,-4.25968,0
79.8034,-50.5321,-4.26832,0
79.767,-50.3973,-4.27635,0
79.7249,-50.2641,-4.28385,0
79.6798,-50.1322,-4.29073,0
79.6317,-50.0015,-4.29701,0
79.5809,-49.8721,-4.30267,0
79.5275,-49.744,-4.30771,0
79.4713,-49.6173,-4.31215,0
79.4126,-49.492,-4.31597,0
79.3512,-49.3683,-4.31918,0
79.2872,-49.2461,-4.32179,0
79.2207,-49.1255,-4.32378,0
79.1554,-49.0047,-4.3251,0
79.1209,-48.8677,-4.32517,0
73.9674,-58.4061,-2.38852,0
74.1239,-58.4346,-2.4062,0
74.2816,-58.4589,-2.42456,0
74.4403,-58.4792,-2.44358,0
74.6,-58.4952,-2.46327,0
74.7631,-58.5246,-2.4785,0
74.9265,-58.5419,-2.49673,0
75.0895,-58.5485,-2.51743,0
75.253,-58.5501,-2.53892,0
75.4169,-58.5466,-2.56117,0
75.5809,-58.5381,-2.58419,0
75.7448,-58.5245,-2.60794,0
75.9084,-58.5056,-2.6324,0
76.0714,-58.4816,-2.65756,0
76.2339,-58.4524,-2.68339,0
76.3955,-58.418,-2.70987,0
76.5562,-58.3783,-2.73696,0
76.7155,-58.3335,-2.76465,0
76.8728,-58.282,-2.79325,0
76.8136,-57.8042,-2.92688,174
76.8264,-57.5038,-3.01428,174
76.9193,-57.3682,-3.05972,174
77.09,-57.3689,-3.07119,174
77.6303,-57.9496,-2.94321,0
77.7757,-57.8697,-2.97407,0
77.9177,-57.7842,-3.00546,0
78.0566,-57.6938,-3.03718,0
78.1921,-57.5986,-3.06921,0
78.3241,-57.4988,-3.10148,0
78.4526,-57.3945,-3.13397,0
78.5772,-57.2858,-3.16663,0
78.6979,-57.1729,-3.19941,0
78.8145,-57.0559,-3.23228,0
78.9267,-56.9351,-3.26518,0
79.0347,-56.8105,-3.29808,0
79.1382,-56.6825,-3.33093,0
79.2371,-56.5511,-3.3637,0
79.3313,-56.4165,-3.39634,0
79.4209,-56.2791,-3.42881,0
79.5055,-56.1389,-3.46106,0
79.5847,-55.9957,-3.49317,0
79.6538,-55.8467,-3.52575,0
79.7319,-55.705,-3.55592,0
79.796,-55.5554,-3.58708,0
79.8473,-55.3995,-3.61885,0
79.8947,-55.2431,-3.64999,0
79.938,-55.0864,-3.68046,0
79.9774,-54.9295,-3.71024,0
80.0128,-54.7725,-3.73936,0
80.0444,-54.6155,-3.76778,0
80.0721,-54.4585,-3.79552,0
80.096,-54.3018,-3.82256,0
80.1162,-54.1454,-3.84888,0
80.1327,-53.9894,-3.87449,0
80.1456,-53.8339,-3.89939,0
80.1549,-53.679,-3.92358,0
80.1607,-53.5247,-3.94705,0
80.163,-53.3711,-3.96979,0
80.1756,-53.2215,-3.99089,0
80.1867,-53.0725,-4.01123,0
80.1945,-52.9237,-4.03095,0
80.1945,-52.7745,-4.05031,0
80.1912,-52.6259,-4.06901,0
80.1846,-52.4779,-4.08706,0
80.1746,-52.3306,-4.10445,0
80.1615,-52.1841,-4.1212,0
80.145,-52.0384,-4.13727,0
80.1255,-51.8937,-4.1527,0
80.1028,-51.75,-4.16746,0
80.077,-51.6072,-4.18157,0
80.0483,-51.4657,-4.19502,0
80.0166,-51.3252,-4.20781,0
79.9819,-51.1861,-4.21993,0
79.9444,-51.0481,-4.23141,0
79.9041,-50.9116,-4.24223,0
79.8617,-50.7763,-4.25238,0
79.8303,-50.6399,-4.2615,0
79.7962,-50.5044,-4.27002,0
79.7588,-50.3698,-4.27794,0
79.7159,-50.2369,-4.28531,0
79.6701,-50.1052,-4.29207,0
79.6216,-49.9748,-4.29821,0
79.5702,-49.8456,-4.30376,0
79.5162,-49.7178,-4.30867,0
79.4595,-49.5914,-4.31298,0
79.4002,-49.4665,-4.31669,0
79.3383,-49.3431,-4.31977,0
79.2738,-49.2212,-4.32224,0
79.2068,-49.1009,-4.32411,0
79.1485,-48.9766,-4.32516,0
79.1135,-48.8395,-4.32511,0
73.844,-58.3807,-2.37495,0
73.9995,-58.4123,-2.39209,0
74.1562,-58.4399,-2.40992,0
74.3141,-58.4634,-2.42841,0
74.473,-58.4828,-2.44757,0
74.633,-58.4995,-2.46694,0
74.797,-58.5306,-2.48158,0
74.9599,-58.5437,-2.50091,0
75.123,-58.5492,-2.52177,0
75.2867,-58.5498,-2.54342,0
75.4506,-58.5453,-2.56584,0
75.6145,-58.5357,-2.58901,0
75.7784,-58.521,-2.61291,0
75.9419,-58.5011,-2.63751,0
76.1049,-58.4761,-2.66281,0
76.2672,-58.4458,-2.68878,0
76.4287,-58.4103,-2.71538,0
76.589,-58.3695,-2.7426,0
76.7481,-58.3236,-2.77041,0
76.9043,-58.2697,-2.79946,0
76.8221,-57.7518,-2.94268,174
76.8447,-57.4738,-3.02422,174
76.9463,-57.3549,-3.06539,174
77.1672,-57.4378,-3.0569,174
77.6607,-57.9341,-2.9494,0
77.8051,-57.8526,-2.98049,0
77.9465,-57.766,-3.01195,0
78.0846,-57.6747,-3.04373,0
78.2195,-57.5785,-3.07582,0
78.3508,-57.4778,-3.10814,0
78.4785,-57.3725,-3.14067,0
78.6023,-57.2629,-3.17335,0
78.7221,-57.1492,-3.20615,0
78.8379,-57.0314,-3.23903,0
78.9493,-56.9098,-3.27194,0
79.0563,-56.7845,-3.30484,0
79.1589,-56.6558,-3.33767,0
79.2569,-56.5237,-3.37042,0
79.3501,-56.3885,-3.40302,0
79.4386,-56.2505,-3.43545,0
79.5223,-56.1097,-3.46766,0
79.5994,-55.9653,-3.49988,0
79.6682,-55.8164,-3.53229,0
79.7477,-55.676,-3.56202,0
79.8069,-55.5234,-3.59366,0
79.8574,-55.3674,-3.6253,0
79.9039,-55.2109,-3.6563,0
79.9464,-55.0542,-3.68663,0
79.985,-54.8972,-3.71629,0
80.0196,-54.7402,-3.74526,0
80.0504,-54.5832,-3.77355,0
80.0773,-54.4263,-3.80113,0
80.1005,-54.2697,-3.82802,0
80.1199,-54.1134,-3.8542,0
80.1356,-53.9574,-3.87967,0
80.1478,-53.802,-3.90442,0
80.1564,-53.6472,-3.92845,0
80.1615,-53.4931,-3.95178,0
80.1644,-53.34,-3.97428,0
80.1782,-53.1909,-3.99512,0
80.1886,-53.0419,-4.01533,0
80.1948,-52.893,-4.03498,0
80.1941,-52.7439,-4.0542,0
80.1902,-52.5954,-4.07277,0
80.1828,-52.4476,-4.09069,0
80.1723,-52.3004,-4.10795,0
80.1584,-52.1541,-4.12456,0
80.1413,-52.0086,-4.14049,0
80.121,-51.8641,-4.15579,0
80.0977,-51.7205,-4.17042,0
80.0713,-51.5781,-4.18439,0
80.042,-51.4367,-4.1977,0
80.0097,-51.2965,-4.21035,0
79.9744,-51.1576,-4.22235,0
79.9363,-51.02,-4.23369,0
79.8955,-50.8837,-4.24437,0
79.8555,-50.7482,-4.2543,0
79.8235,-50.612,-4.26331,0
79.7887,-50.4766,-4.2717,0
79.7502,-50.3424,-4.2795,0
79.7066,-50.2098,-4.28675,0
79.6604,-50.0783,-4.29339,0
79.6112,-49.9481,-4.29941,0
79.5593,-49.8193,-4.30482,0
79.5048,-49.6917,-4.30962,0
79.4475,-49.5656,-4.31379,0
79.3877,-49.441,-4.31737,0
79.3252,-49.3179,-4.32032,0
79.2602,-49.1963,-4.32267,0
79.1927,-49.0764,-4.32443,0
79.1416,-48.9485,-4.3252,0
73.9342,-58.1022,-2.42731,0
74.0838,-58.1331,-2.44294,0
74.2346,-58.1597,-2.45942,0
74.3865,-58.1816,-2.47674,0
74.5393,-58.1991,-2.49487,0
74.6929,-58.2118,-2.51382,0
74.8468,-58.2185,-2.53398,0
75.0013,-58.2208,-2.55476,0
75.1568,-58.2222,-2.57517,0
75.3124,-58.2183,-2.59649,0
75.468,-58.209,-2.61867,0
75.6232,-58.1944,-2.64171,0
75.7779,-58.1742,-2.66556,0
75.932,-58.1487,-2.69022,0
76.0849,-58.1176,-2.71565,0
76.2368,-58.0812,-2.74181,0
76.3872,-58.0392,-2.76868,0
76.536,-57.9919,-2.79623,0
76.683,-57.9392,-2.82441,0
76.8036,-57.8331,-2.86554,174
76.8124,-57.5223,-2.95789,174
76.8964,-57.37,-3.00836,174
77.0453,-57.3351,-3.02827,174
77.3882,-57.6069,-2.97122,0
77.5285,-57.5367,-2.99919,0
77.666,-57.4611,-3.0277,0
77.8003,-57.3803,-3.05671,0
77.9314,-57.2943,-3.08618,0
78.0589,-57.2034,-3.11607,0
78.1828,-57.1075,-3.14632,0
78.3028,-57.0069,-3.1769,0
78.4187,-56.9018,-3.20773,0
78.5303,-56.7924,-3.23879,0
78.6375,-56.6787,-3.27003,0
78.7402,-56.5611,-3.30138,0
78.8381,-56.4397,-3.33279,0
78.9312,-56.3148,-3.36424,0
79.0195,-56.1865,-3.39565,0
79.1027,-56.0551,-3.42699,0
79.1808,-55.9208,-3.4582,0
79.2578,-55.787,-3.48855,0
79.3405,-55.6579,-3.51699,0
79.4185,-55.5262,-3.54528,0
79.4919,-55.3919,-3.5734,0
79.5605,-55.2553,-3.6013,0
79.6243,-55.1166,-3.62895,0
79.6834,-54.9759,-3.65632,0
79.7374,-54.8335,-3.68336,0
79.7809,-54.6867,-3.71074,0
79.8132,-54.5362,-3.73839,0
79.8419,-54.3856,-3.76537,0
79.867,-54.2352,-3.79169,0
79.8884,-54.0849,-3.81734,0
79.9063,-53.935,-3.84233,0
79.9207,-53.7854,-3.86662,0
79.9316,-53.6364,-3.89024,0
79.9391,-53.4878,-3.91317,0
79.9445,-53.3402,-3.93531,0
79.9598,-53.1964,-3.95577,0
79.9692,-53.052,-3.97585,0
79.9741,-52.9077,-3.99539,0
79.9757,-52.7639,-4.01431,0
79.974,-52.6205,-4.03261,0
79.9691,-52.4776,-4.05028,0
79.9609,-52.3354,-4.06734,0
79.9497,-52.1939,-4.08376,0
79.9352,-52.0532,-4.09954,0
79.9177,-51.9132,-4.1147,0
79.8973,-51.7742,-4.12923,0
79.8738,-51.6362,-4.14311,0
79.8473,-51.4992,-4.15636,0
79.8181,-51.3633,-4.16899,0
79.7859,-51.2285,-4.18097,0
79.7499,-51.095,-4.19237,0
79.7094,-50.963,-4.2032,0
79.6772,-50.8308,-4.21299,0
79.6451,-50.6991,-4.22207,0
79.6101,-50.5683,-4.23058,0
79.5722,-50.4385,-4.23848,0
79.5316,-50.3098,-4.24579,0
79.4883,-50.1822,-4.25252,0
79.4423,-50.0557,-4.25864,0
79.3934,-49.9305,-4.26418,0
79.3421,-49.8066,-4.26912,0
79.2881,-49.684,-4.27347,0
79.2316,-49.5628,-4.27722,0
79.1725,-49.443,-4.28039,0
79.1109,-49.3247,-4.28298,0
79.0469,-49.208,-4.28496,0
79.0002,-49.0828,-4.28582,0
78.966,-48.9503,-4.28569,0
73.9648,-58.1089,-2.43045,0
74.1147,-58.1389,-2.44626,0
74.2657,-58.1645,-2.46291,0
74.4177,-58.1856,-2.48039,0
74.5708,-58.2021,-2.4987,0
74.7244,-58.2138,-2.51781,0
74.8782,-58.2177,-2.53865,0
75.0331,-58.2215,-2.55888,0
75.1888,-58.2218,-2.57948,0
75.3444,-58.2168,-2.60097,0
75.4998,-58.2065,-2.62334,0
75.655,-58.1907,-2.64654,0
75.8096,-58.1695,-2.67056,0
75.9634,-58.1428,-2.69538,0
76.1162,-58.1106,-2.72096,0
76.2678,-58.073,-2.74727,0
76.418,-58.03,-2.77428,0
76.5663,-57.9815,-2.80196,0
76.7129,-57.9278,-2.83027,0
76.8083,-57.7728,-2.88377,174
76.8258,-57.4832,-2.97035,174
76.9236,-57.3571,-3.01396,174
77.0786,-57.332,-3.03127,174
77.4173,-57.5929,-2.97693,0
77.557,-57.5216,-3.005,0
77.6938,-57.445,-3.03362,0
77.8276,-57.3631,-3.06273,0
77.9579,-57.276,-3.09229,0
78.0848,-57.1841,-3.12226,0
78.2078,-57.0872,-3.15258,0
78.327,-56.9857,-3.18321,0
78.4419,-56.8797,-3.2141,0
78.5527,-56.7693,-3.2452,0
78.659,-56.6549,-3.27646,0
78.7606,-56.5365,-3.30783,0
78.8576,-56.4143,-3.33925,0
78.9498,-56.2887,-3.3707,0
79.0369,-56.1597,-3.4021,0
79.1191,-56.0277,-3.43341,0
79.1962,-55.8929,-3.4646,0
79.2752,-55.7607,-3.49439,0
79.3569,-55.6311,-3.52281,0
79.434,-55.4988,-3.55107,0
79.5063,-55.364,-3.57915,0
79.5741,-55.227,-3.607,0
79.6369,-55.0878,-3.63459,0
79.6948,-54.9468,-3.66189,0
79.748,-54.8041,-3.68887,0
79.7878,-54.6558,-3.71648,0
79.8195,-54.5052,-3.74398,0
79.8473,-54.3547,-3.77083,0
79.8717,-54.2043,-3.79701,0
79.8923,-54.0541,-3.82253,0
79.9095,-53.9042,-3.84737,0
79.9232,-53.7548,-3.87153,0
79.9334,-53.6058,-3.895,0
79.9402,-53.4574,-3.9178,0
79.9479,-53.3107,-3.93957,0
79.9627,-53.1668,-3.95991,0
79.9705,-53.0224,-3.97991,0
79.9747,-52.8781,-3.99933,0
79.9756,-52.7344,-4.01812,0
79.9733,-52.5911,-4.0363,0
79.9676,-52.4483,-4.05384,0
79.9588,-52.3063,-4.07076,0
79.947,-52.1649,-4.08705,0
79.9319,-52.0243,-4.10271,0
79.9137,-51.8846,-4.11773,0
79.8927,-51.7458,-4.13213,0
79.8686,-51.608,-4.14589,0
79.8416,-51.4712,-4.15901,0
79.8117,-51.3355,-4.1715,0
79.779,-51.2009,-4.18335,0
79.7419,-51.0678,-4.19464,0
79.7015,-50.936,-4.20531,0
79.6709,-50.8037,-4.2149,0
79.6381,-50.6721,-4.22386,0
79.6025,-50.5416,-4.23224,0
79.5641,-50.412,-4.24003,0
79.523,-50.2835,-4.24722,0
79.4791,-50.1561,-4.25382,0
79.4324,-50.0299,-4.25984,0
79.3831,-49.9049,-4.26525,0
79.3312,-49.7813,-4.27007,0
79.2766,-49.659,-4.27429,0
79.2196,-49.5381,-4.27792,0
79.16,-49.4186,-4.28097,0
79.0979,-49.3006,-4.28343,0
79.0334,-49.1842,-4.28529,0
78.9934,-49.0556,-4.28585,0
78.9587,-48.923,-4.28558,0
73.8468,-58.0819,-2.41849,0
73.9955,-58.1154,-2.43363,0
74.1455,-58.1446,-2.44962,0
74.2969,-58.1692,-2.46644,0
74.4491,-58.1894,-2.48409,0
74.6023,-58.2049,-2.50256,0
74.7561,-58.2157,-2.52184,0
74.9098,-58.2175,-2.54316,0
75.0651,-58.222,-2.56304,0
75.2207,-58.2212,-2.58383,0
75.3763,-58.2152,-2.60549,0
75.5318,-58.2037,-2.62804,0
75.6868,-58.1868,-2.65141,0
75.8413,-58.1644,-2.6756,0
75.9949,-58.1366,-2.70057,0
76.1475,-58.1033,-2.72631,0
76.2988,-58.0646,-2.75277,0
76.4485,-58.0205,-2.77992,0
76.5966,-57.9709,-2.80773,0
76.7427,-57.9161,-2.83616,0
76.8169,-57.7208,-2.89977,174
76.8436,-57.4526,-2.98057,174
76.9516,-57.3458,-3.01911,174
77.1549,-57.3995,-3.01659,174
77.4462,-57.5787,-2.98265,0
77.5853,-57.5063,-3.01083,0
77.7216,-57.4285,-3.03956,0
77.8545,-57.3456,-3.06877,0
77.9842,-57.2575,-3.09841,0
78.1104,-57.1646,-3.12846,0
78.2326,-57.0667,-3.15885,0
78.3509,-56.9643,-3.18953,0
78.465,-56.8574,-3.22047,0
78.5748,-56.7462,-3.25161,0
78.6802,-56.6309,-3.2829,0
78.7809,-56.5117,-3.31428,0
78.877,-56.3888,-3.34572,0
78.968,-56.2625,-3.37715,0
79.0542,-56.1329,-3.40854,0
79.1353,-56.0003,-3.43984,0
79.2113,-55.8649,-3.47098,0
79.2923,-55.7343,-3.50024,0
79.3731,-55.6041,-3.52863,0
79.4492,-55.4713,-3.55686,0
79.5206,-55.336,-3.58489,0
79.5873,-55.1985,-3.61269,0
79.6491,-55.059,-3.64023,0
79.7061,-54.9176,-3.66747,0
79.7583,-54.7745,-3.69437,0
79.7945,-54.6249,-3.72218,0
79.8255,-54.4743,-3.74955,0
79.8527,-54.3238,-3.77626,0
79.8763,-54.1734,-3.80231,0
79.8962,-54.0233,-3.82768,0
79.9127,-53.8735,-3.85238,0
79.9256,-53.7241,-3.87641,0
79.9351,-53.5753,-3.89974,0
79.9412,-53.427,-3.92239,0
79.9512,-53.2811,-3.94379,0
79.9648,-53.1372,-3.96404,0
79.9716,-52.9927,-3.98395,0
79.9752,-52.8486,-4.00324,0
79.9754,-52.7049,-4.02191,0
79.9723,-52.5617,-4.03994,0
79.9661,-52.4191,-4.05736,0
79.9566,-52.2772,-4.07416,0
79.9441,-52.136,-4.09032,0
79.9284,-51.9956,-4.10585,0
79.9097,-51.856,-4.12075,0
79.888,-51.7174,-4.13501,0
79.8633,-51.5798,-4.14863,0
79.8356,-51.4432,-4.16162,0
79.8052,-51.3077,-4.17399,0
79.7719,-51.1734,-4.18571,0
79.7337,-51.0406,-4.19689,0
79.6952,-50.9088,-4.20734,0
79.6644,-50.7766,-4.21679,0
79.631,-50.6452,-4.22564,0
79.5948,-50.5148,-4.23389,0
79.5559,-50.3855,-4.24156,0
79.5141,-50.2572,-4.24863,0
79.4697,-50.1301,-4.25511,0
79.4226,-50.0041,-4.26099,0
79.3727,-49.8794,-4.26628,0
79.3202,-49.756,-4.27098,0
79.2652,-49.634,-4.27508,0
79.2076,-49.5134,-4.2786,0
79.1474,-49.3942,-4.28153,0
79.0848,-49.2766,-4.28385,0
79.0198,-49.1605,-4.2856,0
78.9865,-49.0284,-4.28584,0
73.9327,-57.8149,-2.47069,0
74.0755,-57.8432,-2.48583,0
74.2195,-57.8673,-2.50175,0
74.3644,-57.8871,-2.51846,0
74.5102,-57.9025,-2.53594,0
74.6567,-57.9136,-2.55419,0
74.8037,-57.9201,-2.57318,0
74.9498,-57.9152,-2.59497,0
75.0955,-57.9047,-2.61777,0
75.241,-57.8905,-2.64091,0
75.3885,-57.8807,-2.66212,0
75.5358,-57.8658,-2.68412,0
75.6824,-57.8459,-2.70688,0
75.8284,-57.8208,-2.7304,0
75.9735,-57.7907,-2.75461,0
76.1174,-57.7554,-2.77952,0
76.2601,-57.7151,-2.80508,0
76.4011,-57.6698,-2.83128,0
76.5405,-57.6195,-2.85805,0
76.6778,-57.5643,-2.88538,0
76.8131,-57.5042,-2.91323,0
76.9009,-57.3592,-2.96249,174
77.0621,-57.3453,-2.97666,174
77.2044,-57.2955,-2.99951,0
77.3315,-57.2201,-3.0282,0
77.4613,-57.1483,-3.0552,0
77.5883,-57.0716,-3.08267,0
77.7122,-56.9901,-3.11055,0
77.8328,-56.904,-3.13883,0
77.9501,-56.8134,-3.16744,0
78.0637,-56.7185,-3.19635,0
78.1735,-56.6193,-3.22551,0
78.2794,-56.5161,-3.25488,0
78.3812,-56.409,-3.2844,0
78.4789,-56.2982,-3.31404,0
78.5722,-56.1839,-3.34375,0
78.661,-56.0663,-3.37348,0
78.7453,-55.9455,-3.4032,0
78.8251,-55.822,-3.43281,0
78.9124,-55.7051,-3.46004,0
78.9957,-55.5854,-3.48719,0
79.0747,-55.463,-3.51425,0
79.1494,-55.338,-3.54117,0
79.2198,-55.2106,-3.56793,0
79.2856,-55.081,-3.59448,0
79.3471,-54.9494,-3.62082,0
79.404,-54.816,-3.64688,0
79.4563,-54.681,-3.67266,0
79.5041,-54.5444,-3.69811,0
79.5473,-54.4066,-3.72321,0
79.5859,-54.2676,-3.74794,0
79.6198,-54.1278,-3.77226,0
79.6493,-53.9871,-3.79615,0
79.6741,-53.8459,-3.8196,0
79.6944,-53.7043,-3.84256,0
79.7102,-53.5625,-3.86504,0
79.7215,-53.4206,-3.887,0
79.7406,-53.282,-3.90737,0
79.7534,-53.1426,-3.92745,0
79.7629,-53.0033,-3.94696,0
79.7685,-52.8641,-3.96593,0
79.7707,-52.7253,-3.98431,0
79.7698,-52.5869,-4.00212,0
79.7659,-52.449,-4.0193,0
79.7583,-52.3116,-4.03592,0
79.7473,-52.1749,-4.05195,0
79.7332,-52.0389,-4.06739,0
79.7158,-51.9037,-4.08222,0
79.6952,-51.7694,-4.09646,0
79.6716,-51.6361,-4.11008,0
79.645,-51.5038,-4.12311,0
79.6153,-51.3726,-4.13551,0
79.5827,-51.2426,-4.14732,0
79.5473,-51.1138,-4.15852,0
79.5193,-50.985,-4.16863,0
79.49,-50.8569,-4.17812,0
79.4591,-50.7294,-4.18697,0
79.4255,-50.6028,-4.19526,0
79.3893,-50.4772,-4.20296,0
79.3503,-50.3526,-4.2101,0
79.3087,-50.229,-4.21666,0
79.2644,-50.1066,-4.22265,0
79.2175,-49.9854,-4.22806,0
79.168,-49.8653,-4.2329,0
79.1161,-49.7466,-4.23717,0
79.0616,-49.6292,-4.24086,0
79.0046,-49.5132,-4.24398,0
78.9453,-49.3986,-4.24653,0
78.885,-49.2848,-4.24845,0
78.8536,-49.1566,-4.24871,0
78.8197,-49.0283,-4.24839,0
73.9619,-57.8211,-2.47374,0
74.105,-57.8485,-2.48903,0
74.2491,-57.8717,-2.50512,0
74.3944,-57.8906,-2.52199,0
74.5403,-57.9052,-2.53962,0
74.687,-57.9153,-2.55802,0
74.8339,-57.9203,-2.57734,0
74.9798,-57.9134,-2.5996,0
75.1253,-57.9019,-2.62253,0
75.2714,-57.8889,-2.64521,0
75.4188,-57.878,-2.66658,0
75.5659,-57.8621,-2.68873,0
75.7125,-57.8411,-2.71165,0
75.8584,-57.815,-2.73531,0
76.0032,-57.7838,-2.75967,0
76.1468,-57.7476,-2.78472,0
76.2891,-57.7062,-2.81041,0
76.4298,-57.6599,-2.83673,0
76.5688,-57.6086,-2.86362,0
76.7058,-57.5523,-2.89106,0
76.8406,-57.4912,-2.91902,0
76.9287,-57.3475,-2.96776,174
77.103,-57.3548,-2.9763,0
77.2302,-57.2797,-3.00555,0
77.3584,-57.2058,-3.0337,0
77.4877,-57.1329,-3.06081,0
77.6141,-57.0552,-3.08837,0
77.7372,-56.9728,-3.11633,0
77.8573,-56.8858,-3.14469,0
77.9737,-56.7943,-3.17336,0
78.0866,-56.6984,-3.20233,0
78.1956,-56.5984,-3.23153,0
78.3006,-56.4944,-3.26093,0
78.4017,-56.3865,-3.29048,0
78.4984,-56.275,-3.32013,0
78.5908,-56.16,-3.34986,0
78.6787,-56.0417,-3.37959,0
78.762,-55.9204,-3.40929,0
78.8434,-55.7982,-3.43841,0
78.9298,-55.6808,-3.46562,0
79.0123,-55.5605,-3.49276,0
79.0904,-55.4375,-3.5198,0
79.1641,-55.312,-3.54668,0
79.2336,-55.1841,-3.57341,0
79.2986,-55.0542,-3.59992,0
79.3591,-54.9222,-3.6262,0
79.4152,-54.7884,-3.6522,0
79.4666,-54.653,-3.67791,0
79.5134,-54.5162,-3.70329,0
79.5556,-54.3781,-3.72832,0
79.5933,-54.239,-3.75296,0
79.6263,-54.0989,-3.7772,0
79.6547,-53.9582,-3.80101,0
79.6786,-53.8169,-3.82435,0
79.698,-53.6752,-3.84722,0
79.7128,-53.5334,-3.8696,0
79.7237,-53.3916,-3.8914,0
79.7435,-53.2533,-3.91155,0
79.7557,-53.1139,-3.93151,0
79.7643,-52.9747,-3.9509,0
79.7692,-52.8356,-3.96976,0
79.7708,-52.6968,-3.98802,0
79.7693,-52.5585,-4.0057,0
79.7646,-52.4207,-4.02276,0
79.7562,-52.2835,-4.03926,0
79.7448,-52.1469,-4.05518,0
79.7298,-52.011,-4.07049,0
79.7119,-51.876,-4.0852,0
79.6907,-51.7419,-4.0993,0
79.6664,-51.6088,-4.11281,0
79.6391,-51.4767,-4.1257,0
79.6088,-51.3458,-4.13799,0
79.5757,-51.2161,-4.14967,0
79.541,-51.0874,-4.16068,0
79.5134,-50.9586,-4.17063,0
79.4838,-50.8306,-4.17999,0
79.4525,-50.7033,-4.18872,0
79.4184,-50.577,-4.19688,0
79.3816,-50.4515,-4.20447,0
79.3419,-50.3271,-4.2115,0
79.2998,-50.2038,-4.21794,0
79.2549,-50.0816,-4.22381,0
79.2075,-49.9606,-4.2291,0
79.1577,-49.8408,-4.23383,0
79.1051,-49.7224,-4.23797,0
79.0501,-49.6052,-4.24155,0
78.9927,-49.4895,-4.24454,0
78.9329,-49.3752,-4.24698,0
78.8787,-49.2585,-4.24856,0
78.8468,-49.1303,-4.2487,0
78.8123,-49.002,-4.24825,0
73.8491,-57.7963,-2.46215,0
73.9912,-57.827,-2.47682,0
74.1345,-57.8536,-2.49228,0
74.279,-57.8759,-2.50852,0
74.4243,-57.894,-2.52554,0
74.5704,-57.9076,-2.54334,0
74.7171,-57.9168,-2.5619,0
74.8639,-57.9193,-2.58186,0
75.0097,-57.9114,-2.60426,0
75.1552,-57.899,-2.62732,0
75.3017,-57.8871,-2.64953,0
75.4491,-57.8752,-2.67107,0
75.5961,-57.8582,-2.69338,0
75.7426,-57.8362,-2.71645,0
75.8881,-57.809,-2.74026,0
76.0328,-57.7768,-2.76477,0
76.1762,-57.7395,-2.78995,0
76.3182,-57.6971,-2.81577,0
76.4586,-57.6497,-2.84221,0
76.5972,-57.5974,-2.86922,0
76.7337,-57.5402,-2.89676,0
76.8533,-57.4509,-2.93194,174
76.959,-57.3402,-2.97185,174
77.1294,-57.3398,-2.98228,0
77.256,-57.2637,-3.0116,0
77.3852,-57.1912,-3.03924,0
77.5138,-57.1173,-3.06643,0
77.6396,-57.0387,-3.09408,0
77.7622,-56.9553,-3.12213,0
77.8815,-56.8673,-3.15055,0
77.9972,-56.7749,-3.17929,0
78.1093,-56.6782,-3.20831,0
78.2175,-56.5774,-3.23755,0
78.3218,-56.4725,-3.26698,0
78.4219,-56.3639,-3.29657,0
78.5177,-56.2516,-3.32624,0
78.6092,-56.1359,-3.35596,0
78.6962,-56.017,-3.3857,0
78.7785,-55.8951,-3.41539,0
78.8615,-55.7744,-3.44401,0
78.9471,-55.6563,-3.4712,0
79.0286,-55.5354,-3.49832,0
79.1059,-55.4119,-3.52532,0
79.1788,-55.2859,-3.55218,0
79.2473,-55.1576,-3.57887,0
79.3114,-55.0272,-3.60534,0
79.3711,-54.8948,-3.63156,0
79.4261,-54.7607,-3.65751,0
79.4766,-54.625,-3.68316,0
79.5225,-54.4879,-3.70847,0
79.5637,-54.3496,-3.73341,0
79.6004,-54.2103,-3.75798,0
79.6326,-54.0701,-3.78213,0
79.66,-53.9292,-3.80584,0
79.683,-53.7878,-3.82909,0
79.7014,-53.6461,-3.85187,0
79.7153,-53.5042,-3.87413,0
79.7302,-53.3638,-3.89539,0
79.7463,-53.2247,-3.91569,0
79.7578,-53.0853,-3.93553,0
79.7656,-52.9461,-3.95481,0
79.7698,-52.807,-3.97356,0
79.7707,-52.6684,-3.99171,0
79.7686,-52.5302,-4.00924,0
79.7632,-52.3925,-4.02619,0
79.7541,-52.2553,-4.04258,0
79.742,-52.1189,-4.05837,0
79.7264,-51.9832,-4.07356,0
79.7077,-51.8484,-4.08815,0
79.6859,-51.7145,-4.10213,0
79.661,-51.5816,-4.11551,0
79.6331,-51.4498,-4.12828,0
79.6023,-51.319,-4.14044,0
79.5685,-51.1896,-4.15199,0
79.5355,-51.0609,-4.16278,0
79.5074,-50.9323,-4.1726,0
79.4776,-50.8044,-4.18182,0
79.4457,-50.6773,-4.19044,0
79.411,-50.5511,-4.19849,0
79.3736,-50.4259,-4.20596,0
79.3335,-50.3017,-4.21286,0
79.2909,-50.1786,-4.21919,0
79.2455,-50.0566,-4.22494,0
79.1975,-49.9359,-4.23012,0
79.1469,-49.8164,-4.23472,0
79.094,-49.6982,-4.23875,0
79.0385,-49.5813,-4.24221,0
78.9806,-49.4659,-4.24509,0
78.9202,-49.3519,-4.24741,0
78.8724,-49.2322,-4.24863,0
78.84,-49.1039,-4.24865,0
73.9313,-57.5513,-2.51051,0
74.0679,-57.5773,-2.52516,0
74.2056,-57.5992,-2.54056,0
74.3443,-57.6171,-2.55669,0
74.4837,-57.6309,-2.57356,0
74.6237,-57.6404,-2.59114,0
74.7642,-57.6458,-2.60944,0
74.9041,-57.6426,-2.62971,0
75.0433,-57.632,-2.65157,0
75.1822,-57.6171,-2.67404,0
75.3206,-57.5978,-2.6971,0
75.4584,-57.5742,-2.72071,0
75.5959,-57.5481,-2.74436,0
75.7346,-57.5235,-2.76681,0
75.8725,-57.4943,-2.78993,0
76.0093,-57.4602,-2.8137,0
76.1448,-57.4215,-2.83807,0
76.2789,-57.378,-2.86302,0
76.4113,-57.3299,-2.88854,0
76.542,-57.2771,-2.91455,0
76.6706,-57.2198,-2.94107,0
76.7971,-57.1581,-2.96802,0
76.9212,-57.0919,-2.99539,0
77.0429,-57.0215,-3.02313,0
77.1619,-56.9468,-3.05121,0
77.278,-56.868,-3.07959,0
77.3974,-56.7936,-3.10604,0
77.5148,-56.7163,-3.1325,0
77.6293,-56.6346,-3.15932,0
77.7405,-56.5487,-3.18646,0
77.8484,-56.4588,-3.21387,0
77.9528,-56.3649,-3.24151,0
78.0536,-56.2673,-3.26935,0
78.1505,-56.1661,-3.29734,0
78.2435,-56.0614,-3.32545,0
78.3326,-55.9534,-3.35362,0
78.4174,-55.8423,-3.38181,0
78.5067,-55.7355,-3.40815,0
78.594,-55.6271,-3.43412,0
78.6775,-55.516,-3.46007,0
78.7571,-55.402,-3.48596,0
78.8328,-55.2856,-3.51176,0
78.9045,-55.1667,-3.53743,0
78.972,-55.0456,-3.56295,0
79.0355,-54.9224,-3.58829,0
79.0947,-54.7973,-3.61342,0
79.1496,-54.6704,-3.6383,0
79.2003,-54.542,-3.66291,0
79.2466,-54.4121,-3.68723,0
79.2887,-54.281,-3.71122,0
79.3264,-54.1488,-3.73486,0
79.3598,-54.0157,-3.75813,0
79.3889,-53.8819,-3.78099,0
79.4137,-53.7475,-3.80344,0
79.4461,-53.6166,-3.8242,0
79.4825,-53.4873,-3.84374,0
79.5157,-53.3572,-3.86286,0
79.5327,-53.2231,-3.88279,0
79.5458,-53.0889,-3.90223,0
79.5555,-52.9547,-3.92113,0
79.5619,-52.8207,-3.93949,0
79.565,-52.6869,-3.95732,0
79.5648,-52.5535,-3.97459,0
79.5613,-52.4205,-3.9913,0
79.5548,-52.2881,-4.00744,0
79.5449,-52.1562,-4.02302,0
79.532,-52.025,-4.03802,0
79.516,-51.8945,-4.05245,0
79.4969,-51.7648,-4.06632,0
79.4749,-51.6361,-4.07959,0
79.4498,-51.5083,-4.09227,0
79.422,-51.3816,-4.10439,0
79.3912,-51.256,-4.11591,0
79.3681,-51.1304,-4.12628,0
