49.3312,-52.925,-0.107507,0
49.5141,-52.9439,-0.11964,0
49.6978,-52.9587,-0.131847,0
49.8822,-52.9693,-0.144089,0
50.0671,-52.9757,-0.156369,0
50.2493,-52.9475,-0.173469,0
50.4291,-52.9041,-0.192214,0
50.6072,-52.8567,-0.210798,0
50.7875,-52.8267,-0.225988,0
50.967,-52.793,-0.241042,0
51.1457,-52.7544,-0.256135,0
51.3231,-52.711,-0.271257,0
51.4992,-52.6628,-0.286398,0
51.6738,-52.6099,-0.301545,0
51.847,-52.5523,-0.316681,0
52.0183,-52.49,-0.331804,0
52.1877,-52.4232,-0.346891,0
52.3552,-52.3519,-0.36193,0
52.5205,-52.2761,-0.376926,0
52.6712,-52.1688,-0.395759,0
52.8098,-52.0398,-0.416984,0
52.9445,-51.909,-0.437761,0
53.0754,-51.7764,-0.458088,0
53.2025,-51.6422,-0.477961,0
53.3259,-51.5065,-0.497375,0
53.4453,-51.3694,-0.516344,0
53.5612,-51.2309,-0.534865,0
53.6733,-51.0912,-0.552927,0
53.7817,-50.9503,-0.570544,0
53.8887,-50.8115,-0.587267,0
53.9945,-50.6744,-0.603151,0
54.097,-50.5362,-0.61861,0
54.196,-50.3969,-0.633654,0
54.2917,-50.2567,-0.648293,0
54.3842,-50.1155,-0.662502,0
54.4733,-49.9735,-0.676301,0
54.5591,-49.8307,-0.689694,0
54.6418,-49.6872,-0.702678,0
54.7212,-49.543,-0.715256,0
54.7974,-49.3983,-0.727419,0
54.8705,-49.2529,-0.739196,0
54.9404,-49.1071,-0.750558,0
55.0072,-48.9608,-0.76153,0
55.0713,-48.8145,-0.772053,0
55.1346,-48.6692,-0.781945,0
55.1946,-48.5233,-0.791467,0
55.2549,-48.379,-0.80027,0
55.323,-48.2401,-0.80757,0
55.3883,-48.1002,-0.814533,0
55.4501,-47.959,-0.821252,0
55.5087,-47.8167,-0.827663,0
55.5646,-47.6736,-0.833757,0
55.6177,-47.5296,-0.839509,0
54.7979,-47.0402,-0.927502,174
54.7628,-46.8866,-0.938998,174
54.8852,-46.7917,-0.935264,174
55.0048,-46.6917,-0.931511,174
55.0288,-46.5596,-0.936013,174
55.877,-46.6515,-0.867077,0
55.9105,-46.503,-0.87051,0
55.4792,-46.2512,-0.913594,174
55.2658,-46.0646,-0.936699,174
55.2406,-45.9225,-0.942914,174
55.3297,-45.8001,-0.938901,174
56.0407,-45.7552,-0.882219,0
45.258,-50.6953,0.140975,174
45.5644,-50.5331,0.0613891,174
45.8153,-50.4313,0.00125771,174
46.0374,-50.357,-0.0491321,174
46.2292,-50.3186,-0.0882819,174
46.3771,-50.348,-0.109131,174
46.5083,-50.4047,-0.122445,174
46.6039,-50.5328,-0.118336,174
46.6957,-50.677,-0.110552,174
46.797,-50.8098,-0.105443,174
46.9099,-50.9239,-0.104523,174
47.0253,-51.0391,-0.103221,174
47.1601,-51.1091,-0.111459,174
47.3163,-51.1167,-0.132367,174
47.4639,-51.1459,-0.147894,174
47.5946,-51.2327,-0.150995,174
47.6919,-51.4586,-0.12591,174
47.8188,-51.596,-0.118849,174
47.834,-52.295,-0.00256523,0
48.0012,-52.3384,-0.0150018,0
48.1695,-52.3783,-0.027492,0
48.3388,-52.4145,-0.0400359,0
48.7338,-50.4763,-0.415083,174
48.8645,-50.4516,-0.432749,174
48.962,-50.8896,-0.366799,174
49.024,-52.5419,-0.0870965,0
49.1975,-52.5663,-0.0986199,0
49.372,-52.5869,-0.110207,0
49.5472,-52.6036,-0.121838,0
49.7232,-52.6162,-0.133532,0
49.8998,-52.6248,-0.145256,0
50.0769,-52.6294,-0.157013,0
50.251,-52.6006,-0.173639,0
50.423,-52.5592,-0.191584,0
50.5935,-52.514,-0.209382,0
50.7625,-52.4653,-0.227018,0
50.9299,-52.4129,-0.244479,0
51.0956,-52.357,-0.261779,0
51.2633,-52.312,-0.276628,0
51.4304,-52.2655,-0.291012,0
51.5961,-52.2146,-0.305402,0
51.7603,-52.1592,-0.319782,0
51.9229,-52.0995,-0.334147,0
52.0836,-52.0355,-0.348473,0
52.2426,-51.9672,-0.362761,0
52.3994,-51.8948,-0.376994,0
52.5541,-51.8183,-0.391159,0
52.6912,-51.706,-0.410051,0
52.8205,-51.5827,-0.429929,0
52.9462,-51.4576,-0.449382,0
53.0682,-51.3308,-0.46842,0
53.1867,-51.2025,-0.487028,0
53.3017,-51.0728,-0.505226,0
53.4131,-50.9417,-0.522985,0
53.5232,-50.8123,-0.53987,0
53.6317,-50.6842,-0.555959,0
53.737,-50.5547,-0.571657,0
53.8391,-50.424,-0.58695,0
53.9378,-50.2921,-0.601847,0
54.0335,-50.1592,-0.616345,0
54.1259,-50.0253,-0.630446,0
54.2152,-49.8904,-0.644157,0
54.3013,-49.7547,-0.657468,0
54.3843,-49.6181,-0.670392,0
54.4642,-49.4808,-0.682927,0
54.5411,-49.3427,-0.695065,0
54.6148,-49.204,-0.706823,0
54.6855,-49.0648,-0.71819,0
54.7533,-48.925,-0.729181,0
54.818,-48.7847,-0.739782,0
54.8797,-48.6439,-0.750021,0
54.9389,-48.503,-0.759826,0
54.9989,-48.3641,-0.768801,0
55.062,-48.2283,-0.776716,0
55.1266,-48.0938,-0.783835,0
55.1884,-47.9584,-0.790636,0
55.2475,-47.8221,-0.797116,0
55.3038,-47.6849,-0.803273,0
55.3575,-47.5469,-0.809118,0
55.4084,-47.4081,-0.81464,0
54.7631,-46.9974,-0.890797,174
54.7713,-46.8614,-0.898355,174
54.901,-46.7685,-0.893232,174
54.9758,-46.654,-0.893201,174
55.0194,-46.5287,-0.895761,174
55.6567,-46.5609,-0.841008,0
55.6885,-46.4177,-0.844289,0
55.3665,-46.1974,-0.880155,174
55.219,-46.0277,-0.898662,174
55.2159,-45.8909,-0.903064,174
55.3941,-45.7821,-0.890275,174
55.8138,-45.6962,-0.855114,0
45.1601,-50.6636,0.154837,0
45.4059,-50.5974,0.099698,174
45.6672,-50.4914,0.0366747,174
45.9066,-50.4001,-0.0196313,174
46.1229,-50.3289,-0.0682825,174
46.2905,-50.3276,-0.0974744,174
46.433,-50.3649,-0.115981,174
46.5501,-50.4485,-0.122601,174
46.6405,-50.5902,-0.115311,174
46.7333,-50.7361,-0.107187,174
46.842,-50.8555,-0.105119,174
46.9559,-50.9701,-0.104047,174
47.0426,-51.1662,-0.0851876,174
47.223,-51.1122,-0.119946,174
47.3785,-51.1195,-0.140557,174
47.5181,-51.1742,-0.150529,174
47.6354,-51.3129,-0.142996,174
47.7445,-51.5051,-0.124817,174
47.8605,-51.699,-0.106618,174
47.901,-52.3129,-0.00755547,0
48.0687,-52.3549,-0.0200066,0
48.2373,-52.3933,-0.0325262,0
48.6474,-50.5483,-0.393552,174
48.7896,-50.4371,-0.427608,174
48.9132,-50.4824,-0.432309,174
48.9205,-52.5254,-0.0802312,0
49.0935,-52.5522,-0.0917107,0
49.2675,-52.5751,-0.103268,0
49.4423,-52.5941,-0.114875,0
49.6178,-52.6091,-0.126525,0
49.7941,-52.6202,-0.138234,0
49.9709,-52.6272,-0.149972,0
50.1474,-52.6236,-0.162829,0
50.3202,-52.5844,-0.180866,0
50.4916,-52.5415,-0.198752,0
50.6616,-52.4949,-0.216481,0
50.8299,-52.4446,-0.234054,0
50.9966,-52.3908,-0.251447,0
51.1627,-52.3376,-0.268019,0
51.3305,-52.2938,-0.282404,0
51.4971,-52.2456,-0.296789,0
51.6622,-52.1929,-0.311179,0
51.8258,-52.1357,-0.325554,0
51.9877,-52.0743,-0.339904,0
52.1477,-52.0086,-0.354221,0
52.3058,-51.9386,-0.368483,0
52.4618,-51.8645,-0.382697,0
52.6122,-51.779,-0.397956,0
52.7436,-51.6567,-0.418088,0
52.8713,-51.5327,-0.437795,0
52.9956,-51.4069,-0.457077,0
53.1162,-51.2795,-0.475944,0
53.2334,-51.1506,-0.494387,0
53.3469,-51.0203,-0.512409,0
53.457,-50.8886,-0.530007,0
53.5672,-50.761,-0.546384,0
53.6744,-50.6323,-0.562311,0
53.7784,-50.5023,-0.577853,0
53.8791,-50.3712,-0.59298,0
53.9766,-50.2389,-0.607717,0
54.071,-50.1056,-0.622062,0
54.1621,-49.9712,-0.636003,0
54.2502,-49.836,-0.649543,0
54.335,-49.6999,-0.662707,0
54.4168,-49.563,-0.67547,0
54.4955,-49.4254,-0.687844,0
54.5711,-49.2871,-0.699831,0
54.6436,-49.1482,-0.711437,0
54.7131,-49.0087,-0.722653,0
54.7796,-48.8687,-0.733488,0
54.8431,-48.7282,-0.743942,0
54.9037,-48.5873,-0.754015,0
54.9621,-48.4465,-0.76363,0
55.0245,-48.3096,-0.772028,0
55.0883,-48.1744,-0.779611,0
55.1517,-48.0395,-0.786608,0
55.2124,-47.9038,-0.793278,0
55.2704,-47.7671,-0.799631,0
55.3256,-47.6296,-0.805661,0
55.3783,-47.4912,-0.811374,0
55.4281,-47.3521,-0.816769,0
54.7539,-46.9378,-0.895183,174
54.8033,-46.8175,-0.898342,174
54.9451,-46.7273,-0.891883,174
54.9753,-46.5982,-0.896049,174
55.6363,-46.6463,-0.838898,0
55.6698,-46.5034,-0.842365,0
55.7005,-46.36,-0.845505,0
55.2862,-46.1238,-0.889656,174
55.209,-45.971,-0.901308,174
55.252,-45.8423,-0.901235,174
55.8007,-45.7829,-0.854406,0
45.2333,-50.6747,0.142698,174
45.5131,-50.5539,0.0737832,174
45.7672,-50.4508,0.0127229,174
45.9949,-50.371,-0.0395628,174
46.1991,-50.3142,-0.0837194,174
46.3496,-50.3397,-0.105731,174
46.4874,-50.3841,-0.122138,174
46.5861,-50.505,-0.11977,174
46.6774,-50.6483,-0.11215,174
46.7751,-50.7875,-0.10558,174
46.8875,-50.9014,-0.104734,174
47.0024,-51.0164,-0.103508,174
47.1268,-51.1138,-0.105918,174
47.2857,-51.1152,-0.128313,174
47.4373,-51.1324,-0.146506,174
47.5697,-51.2123,-0.151101,174
47.6746,-51.4045,-0.132754,174
47.7972,-51.5532,-0.123372,174
47.8975,-51.8323,-0.088582,174
47.9682,-52.3302,-0.0125506,0
48.1363,-52.3707,-0.0250262,0
48.3054,-52.4076,-0.0375701,0
48.7058,-50.4992,-0.40818,174
48.8408,-50.4377,-0.43274,174
48.9569,-50.5889,-0.418228,174
48.9898,-52.5366,-0.0848406,0
49.1633,-52.5618,-0.0963494,0
49.3376,-52.5832,-0.107922,0
49.5127,-52.6006,-0.119553,0
49.6885,-52.614,-0.131222,0
49.865,-52.6235,-0.142946,0
50.042,-52.6289,-0.154699,0
50.217,-52.6083,-0.170085,0
50.3892,-52.5676,-0.188063,0
50.5601,-52.5232,-0.205895,0
50.7294,-52.4751,-0.223556,0
50.8971,-52.4235,-0.241066,0
51.0631,-52.3682,-0.258386,0
51.2303,-52.3206,-0.273791,0
51.3976,-52.275,-0.288176,0
51.5636,-52.2249,-0.302565,0
51.7281,-52.1704,-0.316955,0
51.891,-52.1116,-0.33132,0
52.0522,-52.0484,-0.345656,0
52.2114,-51.981,-0.359953,0
52.3687,-51.9094,-0.374196,0
52.5238,-51.8336,-0.388381,0
52.6654,-51.7301,-0.406096,0
52.7954,-51.6071,-0.426047,0
52.9217,-51.4823,-0.445593,0
53.0445,-51.3559,-0.464704,0
53.1637,-51.2279,-0.483405,0
53.2794,-51.0984,-0.501677,0
53.3915,-50.9676,-0.519523,0
53.5015,-50.8374,-0.536652,0
53.6107,-50.7095,-0.552824,0
53.7166,-50.5803,-0.568595,0
53.8192,-50.4498,-0.583976,0
53.9187,-50.3182,-0.598947,0
54.0149,-50.1855,-0.613517,0
54.108,-50.0517,-0.627702,0
54.1979,-49.917,-0.641491,0
54.2847,-49.7815,-0.65488,0
54.3683,-49.645,-0.667878,0
54.4488,-49.5078,-0.680495,0
54.5262,-49.3699,-0.692707,0
54.6005,-49.2314,-0.704543,0
54.6719,-49.0922,-0.715983,0
54.7402,-48.9525,-0.727053,0
54.8055,-48.8123,-0.737726,0
54.8678,-48.6716,-0.748034,0
54.9273,-48.5307,-0.757941,0
54.9862,-48.3908,-0.767194,0
55.0497,-48.2549,-0.775207,0
55.1141,-48.1203,-0.782463,0
55.1765,-47.9851,-0.789328,0
55.236,-47.849,-0.795861,0
55.293,-47.712,-0.802087,0
55.3471,-47.5741,-0.80799,0
55.3986,-47.4355,-0.813581,0
54.7711,-47.0282,-0.888257,174
54.7593,-46.8842,-0.897968,174
54.8683,-46.7847,-0.894974,174
54.9857,-46.6845,-0.890818,174
55.0025,-46.5509,-0.896107,174
55.6502,-46.589,-0.840334,0
55.6825,-46.4459,-0.843669,0
55.4069,-46.2343,-0.87534,174
55.2327,-46.0574,-0.896513,174
55.206,-45.9158,-0.90321,174
55.3446,-45.8018,-0.894142,174
55.8096,-45.7247,-0.854894,0
45.3977,-50.504,0.139774,0
45.5644,-50.5394,0.11358,174
45.8155,-50.4373,0.0516549,174
46.0421,-50.3559,-0.00201614,174
46.2307,-50.3228,-0.0407765,174
46.3755,-50.3578,-0.0605643,174
46.5039,-50.4205,-0.0725615,174
46.5999,-50.5489,-0.0679443,174
46.6919,-50.6937,-0.0594272,174
46.8267,-50.7505,-0.0716304,174
46.9475,-50.8413,-0.0753662,174
47.0617,-50.9541,-0.0738065,174
47.1814,-51.0605,-0.0735247,174
47.3376,-51.0643,-0.0954044,174
47.4764,-51.118,-0.105638,174
47.6044,-51.212,-0.10681,174
47.7077,-51.4127,-0.0854778,174
47.8289,-51.5704,-0.0733754,174
47.8986,-52.0049,-0.00543632,0
48.0593,-52.0464,-0.0173797,0
48.2211,-52.0844,-0.0293865,0
48.5941,-50.579,-0.339895,174
48.7409,-50.4444,-0.37982,174
48.8688,-50.4416,-0.393578,174
48.9739,-50.7679,-0.345302,174
49.0425,-52.2301,-0.0883318,0
49.2091,-52.2529,-0.0993865,0
49.3764,-52.272,-0.110505,0
49.5445,-52.2873,-0.121662,0
49.7132,-52.2988,-0.132868,0
49.8825,-52.3065,-0.144103,0
50.0522,-52.3102,-0.155383,0
50.2199,-52.2885,-0.170397,0
50.385,-52.2496,-0.187624,0
50.5487,-52.2071,-0.204714,0
50.7111,-52.1611,-0.221652,0
50.872,-52.1117,-0.238429,0
51.0312,-52.0588,-0.255055,0
51.1888,-52.0026,-0.271496,0
51.3448,-51.943,-0.287775,0
51.4989,-51.8802,-0.303864,0
51.6513,-51.8142,-0.319762,0
51.8059,-51.7568,-0.333561,0
51.9591,-51.6961,-0.347219,0
52.1106,-51.6314,-0.360827,0
52.2602,-51.5627,-0.374387,0
52.4077,-51.4902,-0.387887,0
52.5533,-51.4138,-0.40132,0
52.6824,-51.3064,-0.419015,0
52.8039,-51.1883,-0.437751,0
52.922,-51.0686,-0.456091,0
53.0366,-50.9472,-0.474035,0
53.1495,-50.8268,-0.491183,0
53.261,-50.7076,-0.507521,0
53.3694,-50.5869,-0.523483,0
53.4746,-50.4649,-0.539054,0
53.5768,-50.3415,-0.554255,0
53.6759,-50.2168,-0.569074,0
53.7719,-50.091,-0.583508,0
53.8648,-49.9641,-0.597575,0
53.9548,-49.8361,-0.611252,0
54.0416,-49.7072,-0.624557,0
54.1255,-49.5773,-0.637482,0
54.2065,-49.4466,-0.650041,0
54.2844,-49.3151,-0.662219,0
54.3593,-49.1828,-0.674025,0
54.4313,-49.0498,-0.685461,0
54.5009,-48.9167,-0.696437,0
54.568,-48.7831,-0.707023,0
54.6321,-48.649,-0.717233,0
54.6934,-48.5144,-0.727087,0
54.7539,-48.3806,-0.73632,0
54.8179,-48.25,-0.744396,0
54.8792,-48.1188,-0.752131,0
54.9381,-47.9868,-0.759533,0
54.9945,-47.8541,-0.766594,0
55.0482,-47.7208,-0.773307,0
55.1022,-47.5882,-0.779377,0
55.1542,-47.455,-0.785051,0
55.2037,-47.3211,-0.790407,0
54.7609,-46.9952,-0.849327,174
54.7655,-46.8581,-0.857563,174
54.8985,-46.7665,-0.851412,174
54.9541,-46.6461,-0.853142,174
55.0158,-46.5266,-0.853755,174
55.4446,-46.5035,-0.816017,0
55.4755,-46.3653,-0.819191,0
55.5037,-46.2265,-0.822053,0
55.2089,-46.0251,-0.856732,174
55.2146,-45.8901,-0.860445,174
55.5762,-45.8085,-0.828376,0
55.5978,-45.6687,-0.829582,0
45.3239,-50.4449,0.145291,0
45.4478,-50.5432,0.136048,0
45.6673,-50.4976,0.0881258,174
45.9113,-50.3989,0.0282643,174
46.1275,-50.3278,-0.021671,174
46.2916,-50.3325,-0.0499532,174
46.4315,-50.3748,-0.0675256,174
46.546,-50.4643,-0.0726239,174
46.6365,-50.6066,-0.0646298,174
46.7426,-50.7241,-0.0626078,174
46.8796,-50.7762,-0.0756681,174
46.9931,-50.8865,-0.0747876,174
47.1084,-50.9997,-0.073067,174
47.2452,-51.0597,-0.082937,174
47.3956,-51.0785,-0.10117,174
47.5276,-51.1554,-0.106212,174
47.6495,-51.2757,-0.10174,174
47.7549,-51.4794,-0.0799142,174
47.87,-51.6755,-0.0600253,174
47.963,-52.022,-0.0102215,0
48.1241,-52.0621,-0.0221941,0
48.2862,-52.0987,-0.0342205,0
48.6556,-50.5113,-0.358705,174
48.7947,-50.4207,-0.389711,174
48.9176,-50.4708,-0.393221,174
48.9433,-52.2146,-0.08174,0
49.1093,-52.2397,-0.0927605,0
49.2762,-52.261,-0.103845,0
49.4438,-52.2786,-0.114977,0
49.6122,-52.2924,-0.126159,0
49.7812,-52.3023,-0.13738,0
49.9505,-52.3084,-0.148635,0
50.1205,-52.3101,-0.160012,0
50.2864,-52.2733,-0.177326,0
50.4509,-52.233,-0.194504,0
50.6141,-52.1891,-0.211535,0
50.7759,-52.1417,-0.228415,0
50.9361,-52.0908,-0.245129,0
51.0947,-52.0366,-0.261677,0
51.2516,-51.979,-0.278063,0
51.4069,-51.9182,-0.29426,0
51.5604,-51.8541,-0.31027,0
51.7134,-51.7911,-0.325387,0
51.8677,-51.7329,-0.339054,0
52.0202,-51.6706,-0.352697,0
52.1709,-51.6043,-0.366281,0
52.3197,-51.534,-0.379816,0
52.4665,-51.4599,-0.393298,0
52.6081,-51.3762,-0.407619,0
52.7316,-51.2592,-0.426589,0
52.8516,-51.1404,-0.445168,0
52.9684,-51.02,-0.463346,0
53.0818,-50.898,-0.48113,0
53.1947,-50.7791,-0.4978,0
53.3048,-50.6593,-0.513981,0
53.412,-50.5381,-0.529777,0
53.5161,-50.4155,-0.545212,0
53.617,-50.2916,-0.560256,0
53.7148,-50.1665,-0.574914,0
53.8096,-50.0402,-0.589201,0
53.9013,-49.9128,-0.603107,0
53.9901,-49.7845,-0.616642,0
54.0757,-49.6551,-0.629797,0
54.1584,-49.5249,-0.64257,0
54.238,-49.3939,-0.654972,0
54.3148,-49.262,-0.666999,0
54.3885,-49.1295,-0.678659,0
54.4596,-48.9964,-0.689928,0
54.5283,-48.8632,-0.700729,0
54.5941,-48.7293,-0.711174,0
54.6571,-48.595,-0.721242,0
54.7173,-48.4602,-0.730944,0
54.7799,-48.3282,-0.739601,0
54.8428,-48.1974,-0.747546,0
54.9032,-48.0659,-0.755148,0
54.961,-47.9336,-0.762409,0
55.0163,-47.8007,-0.769333,0
55.0698,-47.6674,-0.775832,0
55.1234,-47.5348,-0.781696,0
55.1744,-47.4014,-0.787238,0
55.2227,-47.2671,-0.792477,0
54.7517,-46.9357,-0.853931,174
54.8041,-46.8166,-0.856724,174
54.9345,-46.7228,-0.850709,174
54.9683,-46.595,-0.854557,174
55.4248,-46.586,-0.813976,0
55.4573,-46.4481,-0.817331,0
55.4872,-46.3096,-0.820383,0
55.2976,-46.1255,-0.844952,174
55.1973,-45.9682,-0.859681,174
55.2593,-45.8429,-0.857558,174
55.5852,-45.7524,-0.828893,0
45.3734,-50.4846,0.14159,0
45.5129,-50.5603,0.126345,174
45.7674,-50.4569,0.0634615,174
45.9996,-50.3698,0.00780617,174
46.2005,-50.3184,-0.0361213,174
46.3479,-50.3495,-0.0571078,174
46.4808,-50.404,-0.0712891,174
46.582,-50.5209,-0.0695168,174
46.6736,-50.6649,-0.0611729,174
46.8008,-50.7378,-0.0696213,174
46.9253,-50.8192,-0.0756264,174
47.0391,-50.9318,-0.0741449,174
47.1417,-51.0838,-0.063754,174
47.3073,-51.0628,-0.0913358,174
47.4499,-51.1046,-0.104286,174
47.5791,-51.1933,-0.106638,174
47.6886,-51.3664,-0.0910798,174
47.8073,-51.5278,-0.0781203,174
47.9103,-51.7925,-0.0443684,174
48.0276,-52.0385,-0.0150262,0
48.1891,-52.0772,-0.0270135,0
48.3517,-52.1124,-0.0390643,0
48.7133,-50.4644,-0.373304,174
48.8451,-50.428,-0.393603,174
48.9634,-50.5465,-0.384152,174
49.0098,-52.2251,-0.0861639,0
49.1763,-52.2487,-0.0972137,0
49.3434,-52.2686,-0.108307,0
49.5114,-52.2846,-0.11947,0
49.68,-52.2969,-0.130661,0
49.8491,-52.3053,-0.141896,0
50.0188,-52.3098,-0.153156,0
50.1873,-52.2957,-0.166989,0
50.3526,-52.2576,-0.184245,0
50.5166,-52.2158,-0.201359,0
50.6793,-52.1705,-0.218332,0
50.8404,-52.1217,-0.235143,0
50.9999,-52.0695,-0.251794,0
51.1579,-52.0139,-0.268283,0
51.3142,-51.955,-0.284587,0
51.4688,-51.8928,-0.30071,0
51.6214,-51.8274,-0.316647,0
51.7755,-51.7682,-0.330881,0
51.9291,-51.7083,-0.344538,0
52.0809,-51.6444,-0.358156,0
52.2309,-51.5765,-0.37172,0
52.3788,-51.5047,-0.385241,0
52.5248,-51.4291,-0.398679,0
52.6581,-51.3294,-0.415285,0
52.7802,-51.2117,-0.434094,0
52.899,-51.0923,-0.452507,0
53.0144,-50.9712,-0.470534,0
53.1273,-50.8501,-0.487931,0
53.2394,-50.7312,-0.504343,0
53.3483,-50.6108,-0.520368,0
53.4541,-50.489,-0.536022,0
53.557,-50.3658,-0.551301,0
53.6566,-50.2415,-0.566188,0
53.7533,-50.1159,-0.5807,0
53.8468,-49.9892,-0.594836,0
53.9373,-49.8614,-0.608595,0
54.0248,-49.7326,-0.62197,0
54.1093,-49.603,-0.634972,0
54.1908,-49.4724,-0.647599,0
54.2693,-49.341,-0.65985,0
54.3448,-49.2089,-0.671735,0
54.4173,-49.076,-0.683239,0
54.4875,-48.943,-0.694308,0
54.555,-48.8095,-0.704968,0
54.6197,-48.6755,-0.715256,0
54.6816,-48.5409,-0.725173,0
54.741,-48.4061,-0.734694,0
54.8055,-48.2758,-0.742829,0
54.8674,-48.1447,-0.750641,0
54.9267,-48.0128,-0.758107,0
54.9835,-47.8803,-0.765231,0
55.0378,-47.7471,-0.772013,0
55.0916,-47.6143,-0.778224,0
55.1441,-47.4813,-0.783957,0
55.1941,-47.3475,-0.789382,0
54.7702,-47.0265,-0.846511,174
54.7559,-46.8817,-0.856941,174
54.8618,-46.7813,-0.853767,174
54.98,-46.6816,-0.848943,174
54.9952,-46.5477,-0.854552,174
55.4383,-46.5307,-0.815358,0
55.4697,-46.3925,-0.818595,0
55.4984,-46.2539,-0.82152,0
55.231,-46.0564,-0.853608,174
55.2067,-45.9154,-0.860437,174
55.5716,-45.836,-0.828102,0
55.5938,-45.6963,-0.829367,0
45.5486,-50.2967,0.130594,0
45.6693,-50.3897,0.121605,0
45.8157,-50.4434,0.102293,174
46.0467,-50.3547,0.0452019,174
46.2322,-50.3269,0.00692406,174
46.3708,-50.3733,-0.0102434,174
46.4926,-50.4497,-0.018866,174
46.5958,-50.5652,-0.0171322,174
46.688,-50.7106,-0.00787247,174
46.8406,-50.7274,-0.0298573,174
46.9718,-50.7912,-0.0396801,174
47.0972,-50.8712,-0.0451216,174
47.1935,-51.0376,-0.0303074,174
47.3534,-51.0281,-0.0554871,174
47.4861,-51.0992,-0.0616706,174
47.6137,-51.1929,-0.0624328,174
47.7219,-51.3732,-0.0442364,174
47.8384,-51.5474,-0.027597,174
47.9584,-51.7361,-0.00808281,0
48.1131,-51.7758,-0.0195867,0
48.2688,-51.8121,-0.0311395,0
48.6048,-50.5258,-0.308218,174
48.7464,-50.4259,-0.342246,174
48.8731,-50.4315,-0.354447,174
48.9907,-50.57,-0.340271,174
49.0597,-51.942,-0.0894695,0
49.2198,-51.9633,-0.100099,0
49.3805,-51.9811,-0.110773,0
49.542,-51.9953,-0.121501,0
49.704,-52.0058,-0.132258,0
49.8665,-52.0125,-0.143044,0
50.0295,-52.0156,-0.153869,0
50.1911,-52,-0.167389,0
50.3498,-51.9634,-0.183957,0
50.5073,-51.9233,-0.200392,0
50.6635,-51.8798,-0.216681,0
50.8183,-51.833,-0.232834,0
50.9715,-51.7828,-0.24883,0
51.1233,-51.7295,-0.264665,0
51.2734,-51.6729,-0.280324,0
51.4219,-51.6132,-0.295817,0
51.5686,-51.5503,-0.311139,0
51.7136,-51.4845,-0.326257,0
51.8566,-51.4156,-0.341198,0
51.998,-51.3438,-0.355939,0
52.1373,-51.2691,-0.370475,0
52.2746,-51.1916,-0.384806,0
52.4133,-51.1184,-0.397736,0
52.5502,-51.0423,-0.410485,0
52.6724,-50.9397,-0.427009,0
52.7881,-50.8286,-0.444304,0
52.9021,-50.7182,-0.460822,0
53.0132,-50.6062,-0.476999,0
53.1213,-50.4926,-0.492809,0
53.2264,-50.3775,-0.508254,0
53.3286,-50.2611,-0.523346,0
53.4279,-50.1433,-0.538073,0
53.5241,-50.0242,-0.552448,0
53.6175,-49.9039,-0.566452,0
53.708,-49.7825,-0.580095,0
53.7955,-49.6602,-0.593346,0
53.8806,-49.5371,-0.606198,0
53.9628,-49.413,-0.618679,0
54.0421,-49.2881,-0.630798,0
54.1187,-49.1624,-0.642551,0
54.1924,-49.0359,-0.653942,0
54.2634,-48.9087,-0.664977,0
54.3316,-48.7808,-0.675656,0
54.3971,-48.6523,-0.685973,0
54.4598,-48.5232,-0.695939,0
54.5208,-48.3943,-0.705397,0
54.5855,-48.269,-0.713605,0
54.6479,-48.1429,-0.721486,0
54.7078,-48.0161,-0.72904,0
54.7652,-47.8885,-0.736252,0
54.8201,-47.7603,-0.743137,0
54.8724,-47.6314,-0.749699,0
54.9224,-47.5018,-0.75592,0
54.9699,-47.3717,-0.761818,0
55.015,-47.241,-0.767394,0
54.7486,-46.9891,-0.809035,174
54.7632,-46.856,-0.816403,174
54.9,-46.7659,-0.809116,174
54.9458,-46.6424,-0.811851,174
55.0264,-46.5287,-0.810146,174
55.2462,-46.4499,-0.792629,0
55.2761,-46.3162,-0.795715,0
55.3036,-46.1821,-0.798488,0
55.2174,-46.0261,-0.81289,174
55.2432,-45.8944,-0.814597,174
55.3748,-45.7782,-0.804509,0
55.3955,-45.643,-0.805671,0
45.4773,-50.2399,0.135911,0
45.5968,-50.3343,0.127,0
45.7146,-50.432,0.119573,0
45.912,-50.4042,0.0780529,174
46.1321,-50.3266,0.0250415,174
46.2898,-50.3424,-0.000907555,174
46.4197,-50.4039,-0.0137909,174
46.5397,-50.4841,-0.0212229,174
46.6325,-50.6231,-0.0135263,174
46.7527,-50.7105,-0.0185128,174
46.8933,-50.753,-0.0338669,174
47.0246,-50.8167,-0.0434753,174
47.1434,-50.9159,-0.0442816,174
47.267,-51.0079,-0.0464545,174
47.4088,-51.0497,-0.0595868,174
47.5371,-51.1367,-0.0620455,174
47.6626,-51.2421,-0.0601504,174
47.7653,-51.454,-0.0352225,174
47.8794,-51.652,-0.0136356,174
48.0205,-51.7525,-0.0126922,0
48.1756,-51.7908,-0.0242156,0
48.3316,-51.8257,-0.0357977,0
48.6637,-50.4747,-0.324222,174
48.7995,-50.4072,-0.351368,174
48.9218,-50.4599,-0.354081,174
49.0247,-50.8822,-0.285022,174
49.1238,-51.951,-0.0937322,0
49.2842,-51.9709,-0.104377,0
49.4452,-51.9873,-0.11507,0
49.607,-51.9999,-0.125807,0
49.7692,-52.0089,-0.136589,0
49.932,-52.0142,-0.147389,0
50.095,-52.0158,-0.158229,0
50.255,-51.9857,-0.174059,0
50.4133,-51.9477,-0.190568,0
50.5702,-51.9062,-0.20696,0
50.7259,-51.8614,-0.22319,0
50.88,-51.8132,-0.239279,0
51.0327,-51.7618,-0.255212,0
51.1838,-51.7071,-0.270978,0
51.3333,-51.6493,-0.286574,0
51.481,-51.5883,-0.301994,0
51.627,-51.5242,-0.317233,0
51.7713,-51.4571,-0.332287,0
51.9137,-51.3871,-0.34714,0
52.0541,-51.3141,-0.361804,0
52.1927,-51.2383,-0.376257,0
52.3304,-51.1623,-0.39006,0
52.4686,-51.0882,-0.402868,0
52.6026,-51.0068,-0.416247,0
52.7188,-50.8943,-0.434152,0
52.8343,-50.7844,-0.450983,0
52.9471,-50.6734,-0.467365,0
53.057,-50.5607,-0.483395,0
53.1639,-50.4465,-0.499054,0
53.2678,-50.3309,-0.514362,0
53.3688,-50.2139,-0.529303,0
53.4668,-50.0956,-0.543888,0
53.562,-49.976,-0.558112,0
53.6542,-49.8553,-0.57197,0
53.7434,-49.7334,-0.58547,0
53.8301,-49.6108,-0.598556,0
53.9139,-49.4874,-0.611252,0
53.995,-49.363,-0.623591,0
54.0733,-49.2377,-0.635563,0
54.1487,-49.1117,-0.64717,0
54.2212,-48.9849,-0.65842,0
54.2912,-48.8574,-0.669308,0
54.3583,-48.7293,-0.679846,0
54.4226,-48.6005,-0.690016,0
54.4841,-48.4712,-0.699836,0
54.5471,-48.3441,-0.708737,0
54.6109,-48.2185,-0.716813,0
54.6723,-48.0921,-0.724562,0
54.7311,-47.965,-0.73197,0
54.7875,-47.8371,-0.739055,0
54.8414,-47.7086,-0.745807,0
54.8928,-47.5794,-0.752233,0
54.9418,-47.4496,-0.758332,0
54.9884,-47.3193,-0.764094,0
55.0324,-47.1884,-0.769538,0
54.7405,-46.9301,-0.813708,174
54.7988,-46.8135,-0.81574,174
54.9302,-46.7202,-0.808927,174
54.9621,-46.5921,-0.813028,174
55.227,-46.5296,-0.790636,0
55.2585,-46.3962,-0.793903,0
55.2874,-46.2624,-0.796867,0
55.3138,-46.1282,-0.799523,0
55.2015,-45.9683,-0.816471,174
55.361,-45.8588,-0.803674,0
55.3834,-45.724,-0.805012,0
45.525,-50.2781,0.132352,0
45.6454,-50.3716,0.123392,0
45.7675,-50.463,0.114443,174
46.0042,-50.3687,0.0552766,174
46.2019,-50.3225,0.0116718,174
46.3463,-50.3595,-0.00818211,174
46.4686,-50.4346,-0.0172249,174
46.5779,-50.5371,-0.018845,174
46.6697,-50.6817,-0.00976822,174
46.8148,-50.7148,-0.0278611,174
46.946,-50.7786,-0.0377901,174
47.0748,-50.8494,-0.0455085,174
47.1899,-50.9607,-0.0433745,174
47.3257,-51.0195,-0.0529784,174
47.4612,-51.0808,-0.0614536,174
47.5884,-51.1744,-0.0623282,174
47.7025,-51.3286,-0.0497853,174
47.8174,-51.5026,-0.0330957,174
47.9281,-51.7279,-0.00582695,0
48.0827,-51.7682,-0.0173162,0
48.2382,-51.8052,-0.0288592,0
48.5652,-50.6244,-0.285457,174
48.72,-50.4367,-0.337404,174
48.8492,-50.4201,-0.354117,174
48.9684,-50.5241,-0.346691,174
49.0283,-51.9384,-0.0871697,0
49.1882,-51.9594,-0.0979998,0
49.3488,-51.9779,-0.108664,0
49.5101,-51.9928,-0.119382,0
49.672,-52.004,-0.130134,0
49.8345,-52.0115,-0.14092,0
49.9974,-52.0153,-0.151745,0
50.1597,-52.0068,-0.164118,0
50.3187,-51.9708,-0.18071,0
50.4765,-51.9314,-0.19717,0
50.6329,-51.8886,-0.213493,0
50.7879,-51.8424,-0.22967,0
50.9415,-51.793,-0.245695,0
51.0936,-51.7402,-0.261559,0
51.244,-51.6842,-0.277262,0
51.3927,-51.6251,-0.29279,0
51.5398,-51.5629,-0.308137,0
51.6852,-51.4976,-0.323307,0
51.8287,-51.4294,-0.338273,0
51.9703,-51.3581,-0.353054,0
52.11,-51.284,-0.367634,0
52.2477,-51.2071,-0.381999,0
52.3861,-51.133,-0.395217,0
52.5234,-51.0575,-0.407985,0
52.6496,-50.9618,-0.423483,0
52.7653,-50.8501,-0.441008,0
52.8799,-50.74,-0.457609,0
52.9916,-50.6283,-0.473845,0
53.1002,-50.515,-0.489728,0
53.2059,-50.4003,-0.505246,0
53.3088,-50.2841,-0.520412,0
53.4085,-50.1665,-0.535212,0
53.5055,-50.0477,-0.54965,0
53.5994,-49.9276,-0.563722,0
53.6904,-49.8065,-0.577438,0
53.7785,-49.6843,-0.590778,0
53.8641,-49.5614,-0.603693,0
53.9468,-49.4375,-0.616252,0
54.0267,-49.3128,-0.628444,0
54.1038,-49.1872,-0.64027,0
54.1781,-49.0609,-0.651735,0
54.2497,-48.9338,-0.662844,0
54.3184,-48.806,-0.673586,0
54.3844,-48.6776,-0.683976,0
54.4477,-48.5487,-0.694001,0
54.5082,-48.4191,-0.703688,0
54.573,-48.2937,-0.712023,0
54.6359,-48.1678,-0.719963,0
54.6962,-48.0411,-0.727575,0
54.754,-47.9137,-0.73486,0
54.8095,-47.7856,-0.741808,0
54.8623,-47.6568,-0.748434,0
54.9128,-47.5274,-0.754719,0
54.9608,-47.3974,-0.76068,0
55.0063,-47.2668,-0.766325,0
54.7755,-47.0273,-0.803982,174
54.7482,-46.8776,-0.816413,174
54.8549,-46.7777,-0.812662,174
54.9408,-46.668,-0.810899,174
55.0008,-46.5484,-0.811618,174
55.2399,-46.4761,-0.791989,0
55.2705,-46.3425,-0.795129,0
55.2984,-46.2085,-0.797975,0
55.3236,-46.0741,-0.800505,0
55.2274,-45.9184,-0.815454,174
55.3703,-45.8047,-0.80425,0
55.3916,-45.6696,-0.805461,0
45.6889,-50.1036,0.122044,0
45.8055,-50.1932,0.113377,0
45.918,-50.2897,0.107293,0
46.0514,-50.3535,0.0925258,174
46.2312,-50.3354,0.0559895,174
46.3579,-50.404,0.0445622,174
46.4779,-50.4857,0.0372274,174
46.5826,-50.6001,0.038917,174
46.6821,-50.7321,0.0452648,174
46.8545,-50.7045,0.0116994,174
46.9852,-50.768,0.00195171,174
47.1163,-50.8313,-0.00724773,174
47.2463,-50.8996,-0.0146804,174
47.3682,-50.9953,-0.0151997,174
47.4957,-51.0807,-0.0177885,174
47.623,-51.174,-0.0181983,174
47.7356,-51.3353,-0.00311237,174
47.866,-51.445,0.000481644,0
48.0141,-51.4862,-0.0105535,0
48.1632,-51.5242,-0.0216375,0
48.3133,-51.5589,-0.0327703,0
48.6136,-50.4864,-0.274361,174
48.7516,-50.4093,-0.304465,174
48.8773,-50.423,-0.315036,174
48.9957,-50.5464,-0.302951,174
49.0753,-51.6827,-0.0889715,0
49.2295,-51.6974,-0.10028,0
49.3843,-51.7116,-0.111017,0
49.5396,-51.7247,-0.121335,0
49.6955,-51.7343,-0.131686,0
49.8517,-51.7403,-0.142072,0
50.0085,-51.7427,-0.152472,0
50.1644,-51.7325,-0.164606,0
50.3173,-51.6979,-0.180558,0
50.469,-51.6599,-0.196388,0
50.6195,-51.6188,-0.212082,0
50.7684,-51.5743,-0.227638,0
50.9162,-51.5267,-0.243054,0
51.0624,-51.4759,-0.258312,0
51.2071,-51.422,-0.27341,0
51.3503,-51.3651,-0.288346,0
51.4918,-51.3052,-0.303122,0
51.6316,-51.2423,-0.317712,0
51.7698,-51.1766,-0.332121,0
51.906,-51.1079,-0.34634,0
52.0404,-51.0365,-0.360368,0
52.173,-50.9624,-0.374206,0
52.3036,-50.8855,-0.387834,0
52.4299,-50.8016,-0.402033,0
52.5537,-50.7149,-0.416066,0
52.6695,-50.6154,-0.431696,0
52.78,-50.51,-0.447712,0
52.8878,-50.4031,-0.463376,0
52.9927,-50.2947,-0.478688,0
53.0949,-50.1848,-0.493649,0
53.1944,-50.0736,-0.508263,0
53.291,-49.9611,-0.522521,0
53.3848,-49.8473,-0.536427,0
53.4759,-49.7323,-0.549977,0
53.5643,-49.6162,-0.56318,0
53.6499,-49.499,-0.576032,0
53.7327,-49.3808,-0.588532,0
53.8128,-49.2617,-0.600676,0
53.8902,-49.1416,-0.612477,0
53.9649,-49.0207,-0.623923,0
54.0369,-48.8991,-0.635021,0
54.1062,-48.7766,-0.645783,0
54.1728,-48.6535,-0.656183,0
54.2369,-48.5297,-0.666257,0
54.2985,-48.4055,-0.675915,0
54.3641,-48.2852,-0.684245,0
54.4273,-48.1641,-0.692248,0
54.488,-48.0422,-0.699938,0
54.5464,-47.9195,-0.707302,0
54.6023,-47.7961,-0.714343,0
54.6559,-47.672,-0.721061,0
54.7071,-47.5472,-0.727463,0
54.7558,-47.4218,-0.733537,0
54.8022,-47.2958,-0.739299,0
54.8462,-47.1692,-0.744738,0
54.7414,-46.985,-0.768225,174
54.7609,-46.854,-0.775211,174
54.9217,-46.7721,-0.764262,174
54.9488,-46.6423,-0.769245,174
55.0302,-46.5289,-0.767155,0
55.0599,-46.3995,-0.770685,0
55.0891,-46.2702,-0.773688,0
55.1158,-46.1405,-0.776388,0
55.1398,-46.0103,-0.778791,0
55.163,-45.8801,-0.780715,0
55.1865,-45.7498,-0.782023,0
55.2081,-45.6192,-0.782966,0
45.6202,-50.0489,0.127181,0
45.7355,-50.1399,0.118582,0
45.852,-50.2299,0.110277,0
45.9629,-50.3294,0.105252,0
46.1366,-50.3255,0.0718608,174
46.2847,-50.3583,0.0500585,174
46.4061,-50.4367,0.0415266,174
46.522,-50.5269,0.0366572,174
46.6237,-50.6498,0.0406117,174
46.7624,-50.6976,0.0256944,174
46.9069,-50.73,0.00771786,174
47.0378,-50.7934,-0.00180855,174
47.1692,-50.8566,-0.0107896,174
47.2842,-50.9694,-0.00751884,174
47.4205,-51.0254,-0.0172602,174
47.5465,-51.118,-0.0180247,174
47.6722,-51.2212,-0.0160838,174
47.778,-51.4188,0.00705391,0
47.9254,-51.462,-0.00394707,0
48.0739,-51.5019,-0.0150018,0
48.2234,-51.5385,-0.0261053,0
48.3738,-51.5719,-0.0372478,0
48.6712,-50.4421,-0.289352,174
48.8038,-50.3982,-0.312184,174
48.9261,-50.4497,-0.314825,174
49.0311,-50.835,-0.250134,174
49.1372,-51.689,-0.0935174,0
49.2916,-51.7023,-0.104831,0
49.4466,-51.7173,-0.115163,0
49.6021,-51.729,-0.125485,0
49.7581,-51.7371,-0.135851,0
49.9147,-51.7417,-0.146247,0
50.0715,-51.7427,-0.156657,0
50.226,-51.719,-0.171027,0
50.3784,-51.683,-0.18693,0
50.5295,-51.6438,-0.202707,0
50.6795,-51.6013,-0.218351,0
50.828,-51.5556,-0.233845,0
50.9752,-51.5067,-0.249201,0
51.1207,-51.4546,-0.264391,0
51.2648,-51.3995,-0.279435,0
51.4073,-51.3414,-0.294304,0
51.5481,-51.2803,-0.309001,0
51.6873,-51.2162,-0.323522,0
51.8247,-51.1493,-0.337853,0
51.9602,-51.0796,-0.351999,0
52.0939,-51.0071,-0.365949,0
52.2256,-50.9318,-0.379704,0
52.3547,-50.8523,-0.393542,0
52.48,-50.7671,-0.407692,0
52.602,-50.6776,-0.42195,0
52.7141,-50.5733,-0.438166,0
52.8236,-50.4673,-0.454045,0
52.9302,-50.3598,-0.469572,0
53.0341,-50.2507,-0.484748,0
53.1352,-50.1403,-0.499562,0
53.2335,-50.0286,-0.514035,0
53.329,-49.9155,-0.528156,0
53.4217,-49.8012,-0.541916,0
53.5118,-49.6858,-0.555324,0
53.599,-49.5692,-0.568381,0
53.6834,-49.4516,-0.581096,0
53.7652,-49.3331,-0.593449,0
53.8443,-49.2136,-0.605461,0
53.9205,-49.0932,-0.617116,0
53.9941,-48.972,-0.628425,0
54.0651,-48.85,-0.639382,0
54.1334,-48.7272,-0.650002,0
54.1988,-48.6038,-0.66027,0
54.2618,-48.4798,-0.670197,0
54.3252,-48.3573,-0.679294,0
54.3898,-48.2367,-0.687497,0
54.452,-48.1152,-0.695383,0
54.5118,-47.993,-0.702931,0
54.5692,-47.87,-0.710168,0
54.6241,-47.7463,-0.717082,0
54.6768,-47.6219,-0.723669,0
54.727,-47.4969,-0.729938,0
54.7748,-47.3713,-0.735895,0
54.8202,-47.245,-0.741525,0
54.8632,-47.1182,-0.746833,0
54.7291,-46.9246,-0.773618,174
54.7971,-46.8117,-0.774335,174
54.9157,-46.7143,-0.768397,174
54.968,-46.5929,-0.770084,174
55.0425,-46.4769,-0.768615,0
55.072,-46.3476,-0.771926,0
55.1001,-46.2182,-0.774802,0
55.1257,-46.0883,-0.777385,0
55.1488,-45.958,-0.779675,0
55.1723,-45.8278,-0.781315,0
55.1955,-45.6974,-0.782433,0
45.6662,-50.0858,0.123743,0
45.7824,-50.1757,0.115086,0
45.8962,-50.2701,0.108275,0
46.0081,-50.3688,0.103196,0
46.2032,-50.327,0.0597348,174
46.3339,-50.389,0.046337,174
46.4543,-50.4695,0.0386118,174
46.5626,-50.5759,0.0381397,174
46.6632,-50.704,0.0434536,174
46.8273,-50.6954,0.0145462,174
46.9594,-50.7555,0.0038253,174
47.0905,-50.8188,-0.00548054,174
47.2221,-50.882,-0.0142432,174
47.3406,-50.9868,-0.0126974,174
47.4708,-51.0624,-0.0176376,174
47.5978,-51.1556,-0.0181651,174
47.7162,-51.2911,-0.00886028,174
47.837,-51.4366,0.00264473,0
47.9849,-51.4784,-0.00838066,0
48.1338,-51.517,-0.01945,0
48.2837,-51.5524,-0.0305779,0
48.581,-50.5365,-0.261006,174
48.7253,-50.42,-0.299542,174
48.8533,-50.4123,-0.314636,174
48.9734,-50.5021,-0.309384,174
49.045,-51.6794,-0.0867449,0
49.1991,-51.6947,-0.0980633,0
49.3538,-51.7086,-0.109001,0
49.509,-51.7224,-0.119308,0
49.6648,-51.7327,-0.129645,0
49.8209,-51.7394,-0.140021,0
49.9777,-51.7425,-0.150422,0
50.1342,-51.7389,-0.161452,0
50.2873,-51.7049,-0.177429,0
50.4392,-51.6677,-0.193283,0
50.5899,-51.6271,-0.209006,0
50.7393,-51.5833,-0.224596,0
50.8872,-51.5363,-0.240036,0
51.0338,-51.4861,-0.255319,0
51.1787,-51.4329,-0.270461,0
51.3223,-51.3766,-0.285427,0
51.4641,-51.3172,-0.300226,0
51.6042,-51.2549,-0.31485,0
51.7427,-51.1897,-0.329294,0
51.8794,-51.1217,-0.343556,0
52.0141,-51.0508,-0.357624,0
52.1471,-50.9772,-0.371501,0
52.278,-50.9009,-0.385163,0
52.4052,-50.8184,-0.399255,0
52.5296,-50.7322,-0.413312,0
52.6473,-50.6359,-0.428503,0
52.7585,-50.5309,-0.444587,0
52.8667,-50.4243,-0.460324,0
52.9723,-50.3161,-0.475705,0
53.0751,-50.2066,-0.490739,0
53.175,-50.0956,-0.505422,0
53.2722,-49.9833,-0.519743,0
53.3666,-49.8697,-0.533722,0
53.4582,-49.755,-0.547346,0
53.5471,-49.6391,-0.560617,0
53.6332,-49.5221,-0.573532,0
53.7166,-49.4041,-0.5861,0
53.7973,-49.2852,-0.598317,0
53.8752,-49.1653,-0.610182,0
53.9504,-49.0446,-0.621696,0
54.023,-48.923,-0.632873,0
54.0928,-48.8007,-0.643693,0
54.1599,-48.6777,-0.654167,0
54.2245,-48.5541,-0.664299,0
54.2863,-48.4298,-0.674079,0
54.3514,-48.309,-0.682634,0
54.4151,-48.188,-0.690705,0
54.4763,-48.0662,-0.698449,0
54.5352,-47.9437,-0.705881,0
54.5916,-47.8204,-0.71298,0
54.6455,-47.6965,-0.719767,0
54.6973,-47.5718,-0.726232,0
54.7465,-47.4465,-0.732375,0
54.7933,-47.3206,-0.73819,0
54.8377,-47.1942,-0.743698,0
54.7876,-47.0307,-0.760471,174
54.7447,-46.875,-0.775427,174
54.9498,-46.8093,-0.759105,174
54.9402,-46.6668,-0.768708,174
55.0148,-46.5515,-0.767525,174
55.0542,-46.425,-0.770016,0
55.0836,-46.2957,-0.773117,0
55.1107,-46.166,-0.775876,0
55.1353,-46.036,-0.778337,0
55.1583,-45.9057,-0.780397,0
55.182,-45.7755,-0.781799,0
55.2041,-45.6449,-0.7828,0
45.8201,-49.9234,0.114066,0
45.9327,-50.0097,0.105687,0
46.0439,-50.0987,0.0987043,0
46.1528,-50.1929,0.0937482,0
46.264,-50.285,0.0886457,0
46.3776,-50.375,0.0833918,0
46.4936,-50.4628,0.0779914,0
46.6118,-50.5483,0.0724445,0
46.7323,-50.6315,0.0667658,0
46.8682,-50.6817,0.0530447,174
46.9984,-50.7449,0.0433711,174
47.1291,-50.8079,0.0342634,174
47.2568,-50.8809,0.0282034,174
47.3803,-50.9704,0.0266293,174
47.5052,-51.0622,0.0259532,174
47.6405,-51.1249,0.0187971,0
47.7812,-51.1711,0.00838203,0
47.9231,-51.2138,-0.0022039,0
48.066,-51.2533,-0.0128533,0
48.2099,-51.2897,-0.0235516,0
48.3547,-51.323,-0.034284,0
48.622,-50.4499,-0.240339,174
48.7569,-50.3928,-0.266806,174
48.8814,-50.4152,-0.275499,174
49.0007,-50.5242,-0.26558,174
49.0898,-51.4413,-0.0884978,0
49.2386,-51.4551,-0.0994109,0
49.3878,-51.4657,-0.110329,0
49.5374,-51.4733,-0.121188,0
49.6875,-51.4821,-0.131154,0
49.838,-51.4874,-0.141159,0
49.989,-51.4893,-0.151174,0
50.1396,-51.4836,-0.162013,0
50.287,-51.4509,-0.177394,0
50.4333,-51.415,-0.192658,0
50.5784,-51.3758,-0.2078,0
50.7222,-51.3336,-0.222804,0
50.8647,-51.2882,-0.237673,0
51.0058,-51.2398,-0.252399,0
51.1455,-51.1885,-0.266979,0
51.2837,-51.1341,-0.281398,0
51.4203,-51.0769,-0.295651,0
51.5553,-51.0168,-0.309743,0
51.6887,-50.9538,-0.323664,0
51.8203,-50.8881,-0.337399,0
51.9486,-50.8161,-0.351633,0
52.0747,-50.741,-0.365739,0
52.1987,-50.6632,-0.379655,0
52.3205,-50.5829,-0.393395,0
52.4402,-50.5,-0.406926,0
52.5577,-50.4147,-0.420256,0
52.667,-50.3175,-0.435143,0
52.7716,-50.2152,-0.450344,0
52.8737,-50.1115,-0.465197,0
52.973,-50.0062,-0.479728,0
53.0697,-49.8996,-0.493918,0
53.1638,-49.7917,-0.50777,0
53.2552,-49.6825,-0.521291,0
53.3438,-49.5721,-0.534465,0
53.4299,-49.4606,-0.547311,0
53.5133,-49.348,-0.559806,0
53.5941,-49.2343,-0.57197,0
53.6722,-49.1197,-0.583801,0
53.7477,-49.0042,-0.59529,0
53.8207,-48.8878,-0.606447,0
53.8909,-48.7706,-0.617262,0
53.9587,-48.6526,-0.627751,0
54.0238,-48.5339,-0.637897,0
54.0863,-48.4145,-0.647721,0
54.1525,-48.2989,-0.656183,0
54.2165,-48.1825,-0.664308,0
54.2781,-48.0653,-0.672131,0
54.3374,-47.9473,-0.679626,0
54.3944,-47.8285,-0.686813,0
54.449,-47.7089,-0.693693,0
54.5012,-47.5887,-0.700256,0
54.5511,-47.4678,-0.706496,0
54.5987,-47.3463,-0.712438,0
54.644,-47.2242,-0.718063,0
54.6869,-47.1015,-0.723371,0
54.7275,-46.9783,-0.728376,0
54.7658,-46.8545,-0.733073,0
54.8017,-46.7303,-0.737443,0
54.8354,-46.6056,-0.741511,0
54.8666,-46.4805,-0.74528,0
54.8956,-46.355,-0.748727,0
54.9222,-46.2291,-0.751867,0
54.9466,-46.1029,-0.754699,0
54.9671,-45.9762,-0.757389,0
54.9899,-45.8499,-0.759225,0
55.0125,-45.7236,-0.760495,0
55.0328,-45.5969,-0.761457,0
45.7537,-49.8707,0.119022,0
45.8651,-49.9584,0.110711,0
45.9784,-50.0437,0.102293,0
46.0873,-50.1368,0.0967414,0
46.1972,-50.2302,0.091717,0
46.3094,-50.3214,0.086551,0
46.4239,-50.4105,0.0812482,0
46.5408,-50.4974,0.0757795,0
46.6599,-50.582,0.0701789,0
46.7812,-50.6642,0.0644367,0
46.9205,-50.7071,0.0490908,174
47.0508,-50.7702,0.0396456,174
47.1809,-50.8354,0.0313146,174
47.296,-50.9464,0.0347179,174
47.5649,-50.5827,-0.0756424,174
47.5586,-51.0903,0.0236799,0
47.6968,-51.1441,0.0146857,0
47.8381,-51.1886,0.00413399,0
47.9804,-51.23,-0.00647636,0
48.1237,-51.2683,-0.0171404,0
48.268,-51.3035,-0.0278582,0
48.4131,-51.3355,-0.038615,0
48.6768,-50.4253,-0.251446,174
48.8079,-50.391,-0.272653,174
48.9303,-50.4396,-0.275602,174
49.0374,-50.7884,-0.215697,174
49.1495,-51.4472,-0.0928826,0
49.2984,-51.4598,-0.103801,0
49.4478,-51.4691,-0.114719,0
49.5977,-51.4773,-0.125187,0
49.7479,-51.4847,-0.135168,0
49.8986,-51.4886,-0.145173,0
50.0495,-51.4891,-0.155212,0
50.1989,-51.4709,-0.168205,0
50.3459,-51.4369,-0.183542,0
50.4917,-51.3996,-0.198752,0
50.6362,-51.3592,-0.21384,0
50.7795,-51.3157,-0.228796,0
50.9216,-51.2692,-0.24361,0
51.062,-51.2196,-0.258278,0
51.2012,-51.167,-0.272785,0
51.3387,-51.1115,-0.28714,0
51.4747,-51.0531,-0.301335,0
51.6091,-50.9918,-0.315358,0
51.7418,-50.9278,-0.329201,0
51.8722,-50.8597,-0.343093,0
51.9995,-50.7862,-0.357311,0
52.1248,-50.7101,-0.371354,0
52.2479,-50.6313,-0.385197,0
52.3689,-50.5499,-0.398854,0
52.4877,-50.466,-0.412311,0
52.6031,-50.3779,-0.42589,0
52.7094,-50.2766,-0.441291,0
52.813,-50.1737,-0.456349,0
52.914,-50.0694,-0.471081,0
53.0122,-49.9636,-0.485471,0
53.1079,-49.8564,-0.499523,0
53.2008,-49.748,-0.513244,0
53.2911,-49.6383,-0.526618,0
53.3787,-49.5274,-0.539665,0
53.4637,-49.4155,-0.552365,0
53.5461,-49.3025,-0.564728,0
53.6258,-49.1884,-0.576764,0
53.7029,-49.0734,-0.588454,0
53.7773,-48.9575,-0.599811,0
53.8491,-48.8408,-0.610827,0
53.9184,-48.7233,-0.621511,0
53.9851,-48.605,-0.631867,0
54.0492,-48.486,-0.641887,0
54.1131,-48.3681,-0.651169,0
54.1785,-48.2522,-0.659484,0
54.2416,-48.1355,-0.667492,0
54.3022,-48.018,-0.675182,0
54.3605,-47.8996,-0.682555,0
54.4166,-47.7806,-0.689611,0
54.4702,-47.6607,-0.696369,0
54.5216,-47.5402,-0.702804,0
54.5705,-47.4191,-0.708918,0
54.6172,-47.2973,-0.714738,0
54.6615,-47.175,-0.720231,0
54.7035,-47.0521,-0.725417,0
54.7287,-46.9231,-0.732189,174
54.7805,-46.8047,-0.73486,0
54.8155,-46.6802,-0.739118,0
54.8482,-46.5554,-0.743063,0
54.8786,-46.4301,-0.746701,0
54.9066,-46.3045,-0.750021,0
54.9323,-46.1785,-0.753039,0
54.9557,-46.0521,-0.755749,0
54.9752,-45.9253,-0.758332,0
54.9993,-45.7993,-0.759767,0
55.021,-45.6728,-0.760915,0
45.7981,-49.9062,0.115706,0
45.9104,-49.9929,0.107347,0
46.0228,-50.08,0.0996662,0
46.1312,-50.1745,0.0947346,0
46.242,-50.2671,0.0896613,0
46.3551,-50.3575,0.0844416,0
46.4705,-50.4457,0.0790705,0
46.5884,-50.5317,0.0735529,0
46.7084,-50.6153,0.0678889,0
46.8371,-50.6819,0.0582978,174
46.9728,-50.7325,0.0452287,174
47.1033,-50.7955,0.0360107,174
47.2318,-50.8659,0.0292027,174
47.3551,-50.9551,0.0274539,174
47.4805,-51.0441,0.0260387,174
47.6136,-51.1137,0.0204084,0
47.7534,-51.1624,0.0104572,0
47.8952,-51.2056,-0.000123825,0
48.0378,-51.2458,-0.0107537,0
48.1816,-51.2828,-0.0214373,0
48.3262,-51.3167,-0.0321746,0
48.5914,-50.4874,-0.229332,174
48.7307,-50.4034,-0.261803,174
48.8574,-50.4045,-0.275158,174
48.9784,-50.4802,-0.272266,174
49.0606,-51.4381,-0.0863543,0
49.2093,-51.4527,-0.0972625,0
49.3584,-51.4639,-0.10818,0
49.5079,-51.4718,-0.119108,0
49.658,-51.4807,-0.129196,0
49.8084,-51.4867,-0.139186,0
49.9592,-51.4893,-0.149201,0
50.1103,-51.4883,-0.159245,0
50.2581,-51.4576,-0.174377,0
50.4045,-51.4223,-0.189665,0
50.5499,-51.3838,-0.204826,0
50.694,-51.3421,-0.219865,0
50.8367,-51.2974,-0.234767,0
50.9781,-51.2496,-0.249518,0
51.1181,-51.1988,-0.264118,0
51.2566,-51.145,-0.278571,0
51.3935,-51.0883,-0.292868,0
51.5288,-51.0288,-0.306984,0
51.6625,-50.9664,-0.320934,0
51.7945,-50.9013,-0.334714,0
51.9235,-50.8306,-0.348825,0
52.0501,-50.756,-0.362975,0
52.1745,-50.6787,-0.37694,0
52.2967,-50.5989,-0.39071,0
52.4169,-50.5165,-0.404284,0
52.5347,-50.4317,-0.417648,0
52.6461,-50.3374,-0.432111,0
52.7513,-50.2355,-0.447375,0
52.8538,-50.132,-0.462302,0
52.9538,-50.027,-0.476896,0
53.0509,-49.9207,-0.491154,0
53.1455,-49.813,-0.505075,0
53.2374,-49.7041,-0.518654,0
53.3266,-49.5939,-0.531896,0
53.4131,-49.4826,-0.544806,0
53.4971,-49.3702,-0.557375,0
53.5784,-49.2568,-0.569606,0
53.657,-49.1423,-0.581496,0
53.7331,-49.027,-0.593054,0
53.8065,-48.9108,-0.604279,0
53.8773,-48.7937,-0.615163,0
53.9455,-48.6758,-0.62571,0
54.0112,-48.5573,-0.635929,0
54.0742,-48.438,-0.645812,0
54.1397,-48.3217,-0.654543,0
54.2041,-48.2054,-0.662736,0
54.2662,-48.0884,-0.670617,0
54.3259,-47.9705,-0.678176,0
54.3834,-47.8519,-0.685427,0
54.4384,-47.7325,-0.692365,0
54.4911,-47.6124,-0.698981,0
54.5416,-47.4917,-0.70529,0
54.5895,-47.3703,-0.711296,0
54.6352,-47.2483,-0.716979,0
54.6787,-47.1257,-0.722355,0
54.7197,-47.0025,-0.727409,0
54.7541,-46.8773,-0.732715,174
54.7948,-46.7548,-0.736608,0
54.8289,-46.6302,-0.740739,0
54.8606,-46.5051,-0.744557,0
54.8901,-46.3797,-0.748073,0
54.9172,-46.2539,-0.751266,0
54.942,-46.1278,-0.754162,0
54.9635,-46.0012,-0.756852,0
54.9852,-45.8747,-0.758942,0
55.0082,-45.7485,-0.760265,0
55.0291,-45.6218,-0.761291,0
45.9427,-49.7548,0.106605,0
46.0516,-49.838,0.0984895,0
46.1616,-49.9203,0.0906965,0
46.267,-50.0107,0.085882,0
46.3748,-50.0991,0.0809309,0
46.4848,-50.1854,0.0758332,0
46.5971,-50.2695,0.0705939,0
46.7116,-50.3514,0.0652229,0
46.8281,-50.4311,0.0597102,0
46.9469,-50.5084,0.0540559,0
47.0677,-50.5833,0.0482746,0
47.1905,-50.6558,0.0423566,0
47.3153,-50.7257,0.0363117,0
47.4421,-50.7931,0.030135,0
47.6725,-50.5206,-0.0590101,174
47.7033,-50.9127,0.015677,0
47.8393,-50.9567,0.00550606,0
47.9765,-50.9977,-0.00471855,0
48.1145,-51.0357,-0.0149969,0
48.2534,-51.0707,-0.0253338,0
48.3934,-51.1026,-0.0357098,0
48.6274,-50.4348,-0.201961,174
48.7621,-50.3762,-0.229265,174
48.8855,-50.4074,-0.235961,174
49.0056,-50.502,-0.228395,174
49.1034,-51.2158,-0.0880584,0
49.247,-51.2289,-0.0985955,0
49.3911,-51.2389,-0.109133,0
49.5355,-51.2457,-0.119684,0
49.6802,-51.2493,-0.130231,0
49.8252,-51.2519,-0.140309,0
49.9707,-51.2534,-0.149968,0
50.1164,-51.2514,-0.15964,0
50.2587,-51.2206,-0.174445,0
50.3999,-51.1865,-0.189186,0
50.54,-51.1492,-0.203801,0
50.6789,-51.109,-0.218293,0
50.8166,-51.0657,-0.232658,0
50.9529,-51.0195,-0.246887,0
51.0879,-50.9704,-0.260969,0
51.2214,-50.9184,-0.274904,0
51.3531,-50.8625,-0.288898,0
51.4824,-50.8016,-0.303166,0
51.6099,-50.7379,-0.317272,0
51.7355,-50.6714,-0.331222,0
51.8594,-50.6022,-0.345021,0
51.9812,-50.5304,-0.358639,0
52.101,-50.456,-0.372082,0
52.2188,-50.3792,-0.385348,0
52.3345,-50.2998,-0.39842,0
52.448,-50.2181,-0.411301,0
52.5593,-50.134,-0.423981,0
52.663,-50.0392,-0.438127,0
52.7622,-49.9397,-0.452555,0
52.8588,-49.8388,-0.466677,0
52.953,-49.7365,-0.480466,0
53.0445,-49.6328,-0.493932,0
53.1334,-49.5279,-0.507077,0
53.2198,-49.4218,-0.519894,0
53.3037,-49.3145,-0.532394,0
53.385,-49.2061,-0.544562,0
53.4638,-49.0967,-0.556418,0
53.5402,-48.9863,-0.567936,0
53.6138,-48.875,-0.579138,0
53.685,-48.7628,-0.590007,0
53.7537,-48.6497,-0.600563,0
53.8198,-48.5359,-0.610788,0
53.8834,-48.4213,-0.62069,0
53.9501,-48.31,-0.629323,0
54.0148,-48.1982,-0.637565,0
54.0772,-48.0855,-0.6455,0
54.1373,-47.9719,-0.653127,0
54.1952,-47.8576,-0.660451,0
54.2507,-47.7425,-0.667477,0
54.3041,-47.6266,-0.674186,0
54.3551,-47.5101,-0.680593,0
54.4038,-47.3929,-0.686701,0
54.4503,-47.275,-0.692497,0
54.4945,-47.1565,-0.69799,0
54.5364,-47.0375,-0.703185,0
54.5761,-46.9179,-0.708068,0
54.6134,-46.7978,-0.712658,0
54.6485,-46.6773,-0.716935,0
54.6814,-46.5562,-0.720915,0
54.712,-46.4348,-0.724587,0
54.7402,-46.3129,-0.727956,0
54.7652,-46.1905,-0.731169,0
54.7865,-46.0674,-0.73426,0
54.8054,-45.9441,-0.737038,0
54.8295,-45.822,-0.738581,0
54.8514,-45.6993,-0.739797,0
54.871,-45.5763,-0.740724,0
45.8784,-49.7039,0.11139,0
45.9862,-49.7885,0.103367,0
46.0959,-49.8708,0.0952082,0
46.2037,-49.9569,0.0887727,0
46.3101,-50.0465,0.0839045,0
46.4187,-50.134,0.0788947,0
46.5296,-50.2194,0.0737482,0
46.6428,-50.3027,0.0684553,0
46.758,-50.3837,0.0630207,0
46.8755,-50.4624,0.0574543,0
46.9951,-50.5388,0.0517512,0
47.1167,-50.6127,0.0459162,0
47.2404,-50.6842,0.0399445,0
47.3661,-50.7531,0.0338459,0
47.591,-50.5117,-0.0486621,174
47.623,-50.883,0.0212531,0
47.7578,-50.9307,0.0116047,0
47.8943,-50.9735,0.0014045,0
48.0318,-51.0133,-0.00884453,0
48.1702,-51.0501,-0.0191424,0
48.3096,-51.0839,-0.0294939,0
48.5298,-50.5739,-0.161698,174
48.6823,-50.4085,-0.213661,174
48.8121,-50.3838,-0.233113,174
48.9345,-50.4295,-0.23641,174
49.0431,-50.7514,-0.179757,174
49.161,-51.2214,-0.0922967,0
49.3048,-51.2333,-0.102829,0
49.4491,-51.242,-0.113376,0
49.5936,-51.2476,-0.123918,0
49.7384,-51.2499,-0.13446,0
49.8836,-51.2529,-0.144191,0
50.0292,-51.253,-0.153859,0
50.1737,-51.2396,-0.165573,0
50.3155,-51.2073,-0.180378,0
50.4563,-51.1719,-0.195065,0
50.5959,-51.1334,-0.209636,0
50.7343,-51.092,-0.224074,0
50.8715,-51.0475,-0.23839,0
51.0073,-51.0001,-0.25256,0
51.1417,-50.9499,-0.266589,0
51.2746,-50.8967,-0.280461,0
51.4052,-50.8384,-0.29464,0
51.5338,-50.7764,-0.308845,0
51.6606,-50.7115,-0.322897,0
51.7855,-50.6439,-0.336789,0
51.9085,-50.5737,-0.350514,0
52.0295,-50.5009,-0.364059,0
52.1485,-50.4255,-0.377429,0
