67.7247,-50.3308,-2.30211,0
67.7486,-50.2455,-2.30696,0
67.7707,-50.1596,-2.31156,0
67.7912,-50.0732,-2.31588,0
67.8098,-49.9863,-2.31993,0
67.8266,-49.8991,-2.3237,0
67.8417,-49.8114,-2.32719,0
67.855,-49.7234,-2.33041,0
67.8666,-49.6351,-2.33335,0
67.8762,-49.5465,-2.336,0
67.8841,-49.4576,-2.33837,0
67.8902,-49.3685,-2.34045,0
67.8944,-49.2793,-2.34225,0
67.8968,-49.1898,-2.34376,0
67.8974,-49.1003,-2.34498,0
67.896,-49.0107,-2.34591,0
67.893,-48.921,-2.34655,0
67.888,-48.8313,-2.3469,0
67.8811,-48.7417,-2.34694,0
66.378,-52.53,-1.99641,0
66.4459,-52.4692,-2.00916,0
66.512,-52.4067,-2.02185,0
66.5763,-52.3426,-2.03445,0
66.6388,-52.2769,-2.04694,0
66.6995,-52.2097,-2.05934,0
66.7583,-52.1411,-2.0716,0
66.8152,-52.0711,-2.08376,0
66.8702,-51.9998,-2.09578,0
66.9234,-51.9272,-2.10767,0
66.9744,-51.8535,-2.1194,0
67.0235,-51.7786,-2.13099,0
67.0706,-51.7026,-2.14241,0
66.3911,-51.1154,-2.36336,174
66.4031,-51.04,-2.37809,174
66.4737,-51.0039,-2.37581,174
67.2384,-51.3892,-2.18636,0
67.2752,-51.3088,-2.19689,0
67.3099,-51.2277,-2.2072,0
67.3425,-51.1459,-2.21733,0
67.373,-51.0636,-2.22724,0
67.4012,-50.9808,-2.23694,0
67.4269,-50.8971,-2.24659,0
67.4591,-50.8168,-2.25397,0
67.4928,-50.7371,-2.26032,0
67.525,-50.6568,-2.26642,0
67.5555,-50.5757,-2.27227,0
67.5844,-50.4941,-2.27787,0
67.6116,-50.4118,-2.2832,0
67.637,-50.3289,-2.28828,0
67.6609,-50.2455,-2.2931,0
67.683,-50.1616,-2.29765,0
67.7034,-50.0772,-2.30194,0
67.722,-49.9924,-2.30596,0
67.7389,-49.9071,-2.30972,0
67.7541,-49.8215,-2.3132,0
67.7675,-49.7355,-2.3164,0
67.7791,-49.6492,-2.31934,0
67.789,-49.5625,-2.322,0
67.7971,-49.4757,-2.32438,0
67.8034,-49.3886,-2.32648,0
67.808,-49.3013,-2.3283,0
67.8107,-49.2139,-2.32984,0
67.8116,-49.1263,-2.33109,0
67.8108,-49.0387,-2.33206,0
67.808,-48.951,-2.33275,0
67.8036,-48.8633,-2.33314,0
67.7973,-48.7756,-2.33325,0
67.7891,-48.688,-2.33308,0
67.7791,-48.6005,-2.33261,0
67.7674,-48.5131,-2.33186,0
67.7537,-48.4258,-2.33081,0
67.739,-48.3386,-2.32934,0
67.7225,-48.2515,-2.32756,0
67.7041,-48.1647,-2.32548,0
67.6823,-48.0787,-2.32344,0
67.6575,-47.9935,-2.32136,0
67.6308,-47.9087,-2.31901,0
67.6023,-47.8245,-2.31636,0
67.572,-47.7409,-2.31344,0
67.5398,-47.6578,-2.31025,0
67.5059,-47.5754,-2.30677,0
67.4702,-47.4937,-2.303,0
67.4327,-47.4127,-2.29896,0
67.3921,-47.3332,-2.29495,0
67.3482,-47.2554,-2.29102,0
67.3026,-47.1787,-2.28684,0
67.2552,-47.103,-2.28243,0
67.2061,-47.0284,-2.27779,0
67.1552,-46.955,-2.27291,0
67.1027,-46.8828,-2.2678,0
67.0485,-46.8119,-2.26247,0
66.9927,-46.7422,-2.25691,0
66.9353,-46.6738,-2.25113,0
66.8765,-46.6068,-2.24514,0
66.8159,-46.5411,-2.23893,0
66.7558,-46.4753,-2.23197,0
66.6941,-46.4107,-2.2248,0
66.6308,-46.3476,-2.2174,0
66.5662,-46.2859,-2.2098,0
66.5001,-46.2257,-2.20198,0
66.4325,-46.1671,-2.19398,0
66.3637,-46.11,-2.18576,0
66.2935,-46.0546,-2.17736,0
66.222,-46.0007,-2.16877,0
66.1492,-45.9486,-2.15999,0
66.0799,-45.891,-2.14904,0
66.0098,-45.8341,-2.13761,0
65.9379,-45.7789,-2.12603,0
65.8644,-45.7256,-2.11433,0
65.7895,-45.6742,-2.10249,0
65.713,-45.6248,-2.09053,0
66.3869,-52.5223,-1.99805,0
66.4545,-52.4612,-2.0108,0
66.5203,-52.3985,-2.02347,0
66.5844,-52.3342,-2.03606,0
66.6466,-52.2684,-2.04853,0
66.7071,-52.201,-2.06091,0
66.7657,-52.1322,-2.07318,0
66.8224,-52.062,-2.08531,0
66.8772,-51.9906,-2.09731,0
66.93,-51.9178,-2.10919,0
66.9808,-51.8439,-2.1209,0
67.0297,-51.7689,-2.13246,0
67.0765,-51.6928,-2.14387,0
66.3915,-51.1048,-2.36564,174
66.4067,-51.0318,-2.37935,174
66.5011,-51.0108,-2.37048,174
67.2433,-51.3789,-2.18773,0
67.2798,-51.2984,-2.19822,0
67.3142,-51.2172,-2.20852,0
67.3465,-51.1354,-2.21862,0
67.3767,-51.053,-2.2285,0
67.4048,-50.9701,-2.23817,0
67.4299,-50.8863,-2.24783,0
67.4635,-50.8066,-2.2548,0
67.497,-50.7268,-2.26112,0
67.529,-50.6464,-2.26718,0
67.5593,-50.5653,-2.273,0
67.588,-50.4835,-2.27857,0
67.615,-50.4012,-2.28386,0
67.6402,-50.3183,-2.28892,0
67.6638,-50.2348,-2.29371,0
67.6857,-50.1508,-2.29822,0
67.7058,-50.0664,-2.30247,0
67.7242,-49.9815,-2.30646,0
67.7409,-49.8962,-2.31018,0
67.7559,-49.8105,-2.31362,0
67.7691,-49.7244,-2.3168,0
67.7805,-49.6381,-2.3197,0
67.7901,-49.5514,-2.32232,0
67.798,-49.4645,-2.32467,0
67.8041,-49.3774,-2.32673,0
67.8084,-49.2901,-2.32851,0
67.8109,-49.2027,-2.33002,0
67.8116,-49.1151,-2.33123,0
67.8105,-49.0275,-2.33217,0
67.8076,-48.9398,-2.33281,0
67.8028,-48.8521,-2.33318,0
67.7963,-48.7644,-2.33325,0
67.7879,-48.6768,-2.33304,0
67.7777,-48.5892,-2.33254,0
67.7658,-48.5018,-2.33174,0
67.7519,-48.4146,-2.33066,0
67.737,-48.3274,-2.32913,0
67.7202,-48.2404,-2.32731,0
67.7016,-48.1536,-2.3252,0
67.6793,-48.0677,-2.3232,0
67.6541,-47.9826,-2.32108,0
67.6273,-47.8979,-2.31868,0
67.5985,-47.8138,-2.316,0
67.5679,-47.7302,-2.31305,0
67.5355,-47.6472,-2.30981,0
67.5014,-47.5649,-2.3063,0
67.4655,-47.4833,-2.3025,0
67.4277,-47.4024,-2.29842,0
67.3865,-47.3232,-2.29445,0
67.3425,-47.2455,-2.29049,0
67.2966,-47.1689,-2.28629,0
67.249,-47.0934,-2.28185,0
67.1996,-47.0189,-2.27718,0
67.1486,-46.9457,-2.27227,0
67.0959,-46.8736,-2.26713,0
67.0415,-46.8028,-2.26177,0
66.9855,-46.7333,-2.25618,0
66.9279,-46.6651,-2.25038,0
66.8688,-46.5983,-2.24435,0
66.8082,-46.5327,-2.23806,0
66.7479,-46.4669,-2.23106,0
66.686,-46.4025,-2.22385,0
66.6226,-46.3396,-2.21644,0
66.5577,-46.2781,-2.20881,0
66.4915,-46.2181,-2.20097,0
66.4238,-46.1597,-2.19293,0
66.3547,-46.1028,-2.18469,0
66.2844,-46.0476,-2.17627,0
66.2127,-45.9939,-2.16766,0
66.1398,-45.942,-2.15885,0
66.071,-45.8836,-2.14758,0
66.0006,-45.8269,-2.13613,0
65.9286,-45.7719,-2.12454,0
65.855,-45.7189,-2.1128,0
65.7798,-45.6677,-2.10096,0
65.703,-45.6186,-2.08899,0
66.3266,-52.5741,-1.98688,0
66.3956,-52.5145,-1.99969,0
66.463,-52.4533,-2.01243,0
66.5287,-52.3904,-2.02509,0
66.5925,-52.3258,-2.03766,0
66.6545,-52.2598,-2.05013,0
66.7148,-52.1922,-2.0625,0
66.7731,-52.1233,-2.07474,0
66.8295,-52.0529,-2.08686,0
66.8841,-51.9813,-2.09885,0
66.9366,-51.9084,-2.1107,0
66.9872,-51.8344,-2.1224,0
67.0358,-51.7592,-2.13394,0
67.0823,-51.6829,-2.14532,0
66.3918,-51.0942,-2.36791,174
66.4103,-51.0237,-2.3806,174
66.5289,-51.0177,-2.36506,174
67.248,-51.3687,-2.18909,0
67.2843,-51.2881,-2.19956,0
67.3184,-51.2068,-2.20982,0
67.3505,-51.1249,-2.21989,0
67.3804,-51.0424,-2.22975,0
67.4083,-50.9594,-2.23939,0
67.4337,-50.8759,-2.24887,0
67.4679,-50.7964,-2.25562,0
67.5013,-50.7165,-2.26191,0
67.533,-50.636,-2.26795,0
67.5631,-50.5548,-2.27373,0
67.5915,-50.473,-2.27926,0
67.6183,-50.3906,-2.28453,0
67.6433,-50.3076,-2.28955,0
67.6667,-50.224,-2.2943,0
67.6884,-50.14,-2.29878,0
67.7083,-50.0555,-2.303,0
67.7265,-49.9705,-2.30695,0
67.7429,-49.8852,-2.31063,0
67.7577,-49.7994,-2.31405,0
67.7706,-49.7134,-2.31718,0
67.7818,-49.627,-2.32005,0
67.7913,-49.5403,-2.32263,0
67.7989,-49.4534,-2.32494,0
67.8048,-49.3662,-2.32697,0
67.8088,-49.2789,-2.32872,0
67.8111,-49.1914,-2.33019,0
67.8116,-49.1039,-2.33137,0
67.8102,-49.0162,-2.33227,0
67.8071,-48.9285,-2.33288,0
67.8021,-48.8408,-2.3332,0
67.7953,-48.7531,-2.33324,0
66.313,-52.4422,-1.99525,0
66.3791,-52.3831,-2.00767,0
66.4434,-52.3225,-2.02002,0
66.5062,-52.2602,-2.03227,0
66.5672,-52.1965,-2.04444,0
66.6264,-52.1313,-2.05651,0
66.6838,-52.0646,-2.06846,0
66.7394,-51.9967,-2.08029,0
66.7931,-51.9274,-2.09201,0
66.8449,-51.8569,-2.10359,0
66.8949,-51.7853,-2.11502,0
66.9429,-51.7125,-2.12632,0
66.3767,-51.1879,-2.32481,174
66.3761,-51.102,-2.34447,174
66.3974,-51.0335,-2.35666,174
66.4655,-50.996,-2.35473,174
67.1533,-51.3341,-2.18031,0
67.1894,-51.256,-2.19058,0
67.2234,-51.1771,-2.20065,0
67.2553,-51.0976,-2.21052,0
67.2852,-51.0175,-2.22021,0
67.3144,-50.9375,-2.22938,0
67.3454,-50.8587,-2.23737,0
67.3827,-50.7826,-2.24316,0
67.4179,-50.7056,-2.24886,0
67.4494,-50.6269,-2.25484,0
67.4792,-50.5476,-2.26056,0
67.5074,-50.4677,-2.26603,0
67.5341,-50.3872,-2.27126,0
67.5589,-50.3061,-2.27623,0
67.5823,-50.2245,-2.28093,0
67.6038,-50.1424,-2.28539,0
67.6237,-50.0598,-2.28958,0
67.642,-49.9767,-2.29351,0
67.6584,-49.8933,-2.29717,0
67.6733,-49.8095,-2.30058,0
67.6863,-49.7253,-2.30371,0
67.6977,-49.6408,-2.30657,0
67.7073,-49.5561,-2.30916,0
67.7152,-49.4711,-2.31149,0
67.7213,-49.3859,-2.31353,0
67.7257,-49.3005,-2.3153,0
67.7283,-49.2149,-2.3168,0
67.7292,-49.1293,-2.31801,0
67.7282,-49.0435,-2.31896,0
67.7255,-48.9577,-2.31961,0
67.721,-48.8719,-2.31999,0
67.7148,-48.7862,-2.32008,0
67.7067,-48.7004,-2.3199,0
67.697,-48.6148,-2.31943,0
67.6853,-48.5293,-2.31867,0
67.6719,-48.444,-2.31764,0
67.6572,-48.3587,-2.31621,0
67.6409,-48.2736,-2.31445,0
67.6226,-48.1888,-2.31247,0
67.5999,-48.1051,-2.3107,0
67.5756,-48.0218,-2.30866,0
67.5495,-47.939,-2.30634,0
67.5216,-47.8566,-2.30375,0
67.4919,-47.7749,-2.30089,0
67.4603,-47.6937,-2.29775,0
67.4271,-47.6132,-2.29433,0
67.3906,-47.534,-2.29097,0
67.3515,-47.4562,-2.2876,0
67.3104,-47.3794,-2.28399,0
67.2675,-47.3035,-2.28015,0
67.223,-47.2286,-2.27608,0
67.1768,-47.1547,-2.27177,0
67.1288,-47.0819,-2.26724,0
67.0791,-47.0103,-2.26249,0
67.0278,-46.9398,-2.2575,0
66.975,-46.8705,-2.25229,0
66.9205,-46.8025,-2.24687,0
66.8645,-46.7358,-2.24122,0
66.807,-46.6704,-2.23537,0
66.748,-46.6063,-2.2293,0
66.6891,-46.542,-2.2225,0
66.6289,-46.4791,-2.21549,0
66.5672,-46.4175,-2.20826,0
66.5041,-46.3573,-2.20084,0
66.4395,-46.2986,-2.19321,0
66.3736,-46.2414,-2.18538,0
66.3063,-46.1858,-2.17737,0
66.2377,-46.1317,-2.16916,0
66.168,-46.0792,-2.16077,0
66.0969,-46.0283,-2.15221,0
66.0246,-45.9791,-2.14346,0
65.9523,-45.93,-2.1341,0
65.8823,-45.8766,-2.12284,0
65.8108,-45.8251,-2.11145,0
65.7378,-45.7754,-2.09994,0
65.6634,-45.7276,-2.08833,0
66.3216,-52.4347,-1.99685,0
66.3874,-52.3754,-2.00925,0
66.4516,-52.3146,-2.02159,0
66.5141,-52.2521,-2.03384,0
66.5748,-52.1882,-2.046,0
66.6339,-52.1228,-2.05804,0
66.6911,-52.056,-2.06999,0
66.7464,-51.9879,-2.08181,0
66.7999,-51.9184,-2.0935,0
66.8515,-51.8478,-2.10507,0
66.9012,-51.776,-2.11649,0
66.9489,-51.7031,-2.12775,0
66.3734,-51.1743,-2.32838,174
66.3765,-51.0915,-2.34678,174
66.4016,-51.0258,-2.35772,174
66.491,-51.0017,-2.34973,174
67.158,-51.3241,-2.18164,0
67.1938,-51.2459,-2.19189,0
67.2276,-51.1669,-2.20193,0
67.2593,-51.0873,-2.21178,0
67.289,-51.0072,-2.22143,0
67.318,-50.9272,-2.23053,0
67.3503,-50.849,-2.23812,0
67.3874,-50.7728,-2.24388,0
67.422,-50.6955,-2.24965,0
67.4533,-50.6168,-2.25559,0
67.483,-50.5374,-2.26128,0
67.511,-50.4574,-2.26672,0
67.5373,-50.3768,-2.27191,0
67.562,-50.2956,-2.27685,0
67.5851,-50.214,-2.28152,0
67.6064,-50.1318,-2.28594,0
67.6262,-50.0491,-2.2901,0
67.6441,-49.966,-2.294,0
67.6604,-49.8826,-2.29763,0
67.6751,-49.7987,-2.301,0
67.6879,-49.7145,-2.30409,0
67.6991,-49.63,-2.30692,0
67.7084,-49.5452,-2.30948,0
67.7161,-49.4602,-2.31176,0
67.722,-49.3749,-2.31377,0
67.7261,-49.2895,-2.31551,0
67.7285,-49.2039,-2.31697,0
67.7291,-49.1183,-2.31815,0
67.728,-49.0325,-2.31906,0
67.7251,-48.9467,-2.31968,0
67.7204,-48.8609,-2.32002,0
67.7139,-48.7752,-2.32008,0
67.7056,-48.6895,-2.31986,0
67.6955,-48.6038,-2.31935,0
67.6837,-48.5184,-2.31856,0
67.6701,-48.433,-2.31749,0
67.6552,-48.3478,-2.31601,0
67.6387,-48.2627,-2.31421,0
67.6198,-48.1781,-2.31226,0
67.597,-48.0944,-2.31046,0
67.5723,-48.0111,-2.30838,0
67.5459,-47.9284,-2.30603,0
67.5179,-47.8461,-2.3034,0
67.4878,-47.7644,-2.3005,0
67.4562,-47.6834,-2.29733,0
67.4227,-47.6029,-2.29388,0
67.3858,-47.524,-2.29054,0
67.3462,-47.4463,-2.28715,0
67.305,-47.3696,-2.28352,0
67.262,-47.2938,-2.27965,0
67.2172,-47.219,-2.27554,0
67.1706,-47.1453,-2.2712,0
67.1225,-47.0727,-2.26665,0
67.0727,-47.0012,-2.26185,0
67.0212,-46.9308,-2.25685,0
66.968,-46.8617,-2.25161,0
66.9134,-46.7939,-2.24615,0
66.8573,-46.7273,-2.24048,0
66.7995,-46.6621,-2.2346,0
66.7405,-46.598,-2.22845,0
66.6816,-46.5339,-2.22162,0
66.6211,-46.4711,-2.21457,0
66.5592,-46.4097,-2.20733,0
66.4959,-46.3497,-2.19987,0
66.4311,-46.2912,-2.19221,0
66.3651,-46.2342,-2.18437,0
66.2976,-46.1787,-2.17633,0
66.2289,-46.1249,-2.1681,0
66.1589,-46.0726,-2.15969,0
66.0877,-46.0219,-2.1511,0
66.0153,-45.9729,-2.14233,0
65.9434,-45.9231,-2.13266,0
65.8732,-45.8699,-2.12139,0
65.8016,-45.8186,-2.10998,0
65.7283,-45.7691,-2.09845,0
65.6537,-45.7216,-2.08682,0
66.2628,-52.485,-1.98597,0
66.3302,-52.4272,-1.99844,0
66.3957,-52.3677,-2.01085,0
66.4598,-52.3066,-2.02317,0
66.522,-52.244,-2.03541,0
66.5826,-52.1799,-2.04755,0
66.6413,-52.1143,-2.05958,0
66.6983,-52.0473,-2.07151,0
66.7534,-51.979,-2.08332,0
66.8066,-51.9094,-2.095,0
66.858,-51.8387,-2.10654,0
66.9073,-51.7667,-2.11794,0
66.9549,-51.6937,-2.12919,0
66.3739,-51.1636,-2.3308,174
66.3769,-51.081,-2.34907,174
66.4068,-51.0187,-2.35849,174
66.5186,-51.0086,-2.34416,174
67.1627,-51.3141,-2.18297,0
67.1983,-51.2358,-2.19318,0
67.2317,-51.1567,-2.20321,0
67.2632,-51.0771,-2.21303,0
67.2928,-50.9969,-2.22262,0
67.3216,-50.9169,-2.23168,0
67.3552,-50.8392,-2.23886,0
67.392,-50.763,-2.24462,0
67.4262,-50.6854,-2.25043,0
67.4572,-50.6066,-2.25633,0
67.4866,-50.5272,-2.26199,0
67.5145,-50.4471,-2.2674,0
67.5406,-50.3664,-2.27256,0
67.5652,-50.2852,-2.27746,0
67.588,-50.2034,-2.2821,0
67.6091,-50.1212,-2.28649,0
67.6286,-50.0385,-2.29062,0
67.6463,-49.9554,-2.29447,0
67.6625,-49.8718,-2.29807,0
67.6768,-49.7879,-2.30141,0
67.6895,-49.7037,-2.30446,0
67.7003,-49.6191,-2.30726,0
67.7095,-49.5343,-2.30978,0
67.7169,-49.4492,-2.31203,0
67.7227,-49.364,-2.31402,0
67.7266,-49.2785,-2.31571,0
67.7287,-49.193,-2.31714,0
67.7291,-49.1073,-2.31828,0
67.7277,-49.0215,-2.31915,0
67.7246,-48.9357,-2.31973,0
67.7196,-48.8499,-2.32005,0
67.7129,-48.7642,-2.32007,0
66.2509,-52.3586,-1.99415,0
66.3155,-52.3012,-2.00624,0
66.3783,-52.2423,-2.01826,0
66.4395,-52.1818,-2.03021,0
66.499,-52.1199,-2.04206,0
66.5568,-52.0565,-2.05381,0
66.6129,-51.9918,-2.06546,0
66.6672,-51.9257,-2.077,0
66.7196,-51.8584,-2.08841,0
66.7703,-51.7899,-2.09969,0
66.8191,-51.7203,-2.11085,0
66.3878,-51.2815,-2.27655,174
66.3581,-51.1712,-2.30706,174
66.3728,-51.0968,-2.32223,174
66.3968,-51.0304,-2.33369,174
66.475,-50.9994,-2.32855,174
67.072,-51.2816,-2.17453,0
67.1074,-51.2055,-2.18456,0
67.1414,-51.1291,-2.19423,0
67.1741,-51.0524,-2.20355,0
67.2048,-50.975,-2.21267,0
67.2335,-50.8971,-2.22157,0
67.2695,-50.8227,-2.22798,0
67.3059,-50.7484,-2.23363,0
67.3407,-50.6732,-2.23909,0
67.3738,-50.5972,-2.24435,0
67.4053,-50.5204,-2.24941,0
67.4334,-50.4423,-2.25465,0
67.4594,-50.3635,-2.25976,0
67.4837,-50.2841,-2.26462,0
67.5066,-50.2042,-2.26923,0
67.5277,-50.1238,-2.27358,0
67.5471,-50.0429,-2.27768,0
67.5649,-49.9617,-2.28152,0
67.581,-49.88,-2.2851,0
67.5955,-49.7979,-2.28843,0
67.6083,-49.7155,-2.29149,0
67.6193,-49.6328,-2.29428,0
67.6287,-49.5499,-2.29682,0
67.6364,-49.4667,-2.29908,0
67.6423,-49.3833,-2.30107,0
67.6466,-49.2997,-2.3028,0
67.6491,-49.2159,-2.30425,0
67.6498,-49.1321,-2.30543,0
67.6488,-49.0482,-2.30633,0
67.6461,-48.9642,-2.30697,0
67.6416,-48.8802,-2.30734,0
67.6355,-48.7963,-2.30741,0
67.6275,-48.7124,-2.30722,0
67.6178,-48.6286,-2.30675,0
67.6063,-48.545,-2.306,0
67.5932,-48.4615,-2.30496,0
67.5784,-48.3781,-2.30359,0
67.5625,-48.2948,-2.30185,0
67.543,-48.2123,-2.3002,0
67.5209,-48.1304,-2.29846,0
67.4969,-48.049,-2.29646,0
67.4713,-47.968,-2.29419,0
67.444,-47.8875,-2.29163,0
67.4148,-47.8076,-2.28883,0
67.382,-47.7291,-2.2862,0
67.3472,-47.6514,-2.28337,0
67.3106,-47.5746,-2.28032,0
67.2722,-47.4987,-2.27702,0
67.2321,-47.4236,-2.27351,0
67.1903,-47.3495,-2.26975,0
67.1468,-47.2763,-2.26578,0
67.1016,-47.2042,-2.26157,0
67.0548,-47.1332,-2.25714,0
67.0062,-47.0632,-2.25249,0
66.9562,-46.9944,-2.24762,0
66.9046,-46.9268,-2.24254,0
66.8513,-46.8603,-2.23724,0
66.7967,-46.7952,-2.23173,0
66.7405,-46.7313,-2.22601,0
66.6828,-46.6687,-2.22008,0
66.6255,-46.606,-2.21343,0
66.5666,-46.5445,-2.20658,0
66.5062,-46.4844,-2.19951,0
66.4446,-46.4257,-2.19226,0
66.3815,-46.3684,-2.18481,0
66.3171,-46.3126,-2.17716,0
66.2513,-46.2583,-2.16933,0
66.1844,-46.2055,-2.16132,0
66.1162,-46.1543,-2.15312,0
66.0468,-46.1047,-2.14475,0
65.9762,-46.0567,-2.13621,0
65.9046,-46.0103,-2.1275,0
65.8319,-45.9656,-2.11864,0
65.7598,-45.9196,-2.10872,0
65.6887,-45.8715,-2.09752,0
65.6161,-45.8253,-2.08622,0
66.2593,-52.3513,-1.9957,0
66.3236,-52.2937,-2.00779,0
66.3862,-52.2346,-2.0198,0
66.4472,-52.1739,-2.03174,0
66.5065,-52.1118,-2.04357,0
66.5641,-52.0483,-2.05531,0
66.6199,-51.9834,-2.06695,0
66.674,-51.9172,-2.07847,0
66.7262,-51.8497,-2.08987,0
66.7766,-51.7811,-2.10114,0
66.8252,-51.7113,-2.11227,0
66.382,-51.2656,-2.28119,174
66.36,-51.1615,-2.30905,174
66.3746,-51.0874,-2.32412,174
66.4023,-51.0235,-2.3344,174
66.4924,-51,-2.32572,174
67.0767,-51.2719,-2.17583,0
67.1118,-51.1957,-2.18583,0
67.1457,-51.1193,-2.19543,0
67.178,-51.0425,-2.20472,0
67.2086,-50.9651,-2.21382,0
67.2372,-50.8871,-2.2227,0
67.2742,-50.8132,-2.22871,0
67.3105,-50.7388,-2.23434,0
67.3451,-50.6635,-2.23978,0
67.378,-50.5874,-2.24501,0
67.4092,-50.5105,-2.25003,0
67.4368,-50.4322,-2.25531,0
67.4626,-50.3533,-2.26039,0
67.4868,-50.2739,-2.26522,0
67.5093,-50.1939,-2.26979,0
67.5302,-50.1135,-2.27412,0
67.5495,-50.0325,-2.27819,0
67.5671,-49.9512,-2.282,0
67.583,-49.8695,-2.28555,0
67.5973,-49.7874,-2.28883,0
67.6098,-49.7049,-2.29186,0
67.6206,-49.6222,-2.29462,0
67.6298,-49.5392,-2.29712,0
67.6372,-49.456,-2.29935,0
67.643,-49.3725,-2.30131,0
67.6469,-49.2889,-2.303,0
67.6492,-49.2052,-2.30442,0
67.6498,-49.1213,-2.30556,0
67.6486,-49.0374,-2.30643,0
67.6456,-48.9534,-2.30703,0
67.6409,-48.8695,-2.30736,0
67.6345,-48.7855,-2.3074,0
67.6263,-48.7017,-2.30717,0
67.6165,-48.6179,-2.30667,0
67.6048,-48.5343,-2.30588,0
67.5913,-48.4508,-2.30481,0
67.5765,-48.3674,-2.30338,0
67.5603,-48.2842,-2.3016,0
67.5402,-48.2018,-2.29999,0
67.5179,-48.1199,-2.29821,0
67.4938,-48.0385,-2.29618,0
67.468,-47.9576,-2.29387,0
67.4402,-47.8772,-2.29129,0
67.4109,-47.7974,-2.28846,0
67.3776,-47.7191,-2.28584,0
67.3426,-47.6415,-2.28299,0
67.3058,-47.5648,-2.2799,0
67.2672,-47.489,-2.27659,0
67.2269,-47.414,-2.27303,0
67.1848,-47.34,-2.26926,0
67.1411,-47.267,-2.26524,0
67.0957,-47.195,-2.26102,0
67.0486,-47.1241,-2.25656,0
66.9999,-47.0543,-2.25188,0
66.9497,-46.9856,-2.24698,0
66.8978,-46.9182,-2.24186,0
66.8444,-46.8519,-2.23654,0
66.7895,-46.7869,-2.231,0
66.7332,-46.7232,-2.22526,0
66.6756,-46.6606,-2.21923,0
66.618,-46.598,-2.21256,0
66.5589,-46.5367,-2.20568,0
66.4984,-46.4768,-2.1986,0
66.4365,-46.4183,-2.19132,0
66.3734,-46.3612,-2.18384,0
66.3087,-46.3056,-2.17617,0
66.2428,-46.2515,-2.16832,0
66.1757,-46.1989,-2.16027,0
66.1073,-46.1479,-2.15205,0
66.0378,-46.0984,-2.14366,0
65.9671,-46.0506,-2.1351,0
65.8953,-46.0045,-2.12638,0
65.8224,-45.96,-2.11749,0
65.7507,-45.9133,-2.10729,0
65.6795,-45.8655,-2.09608,0
65.6067,-45.8195,-2.08476,0
66.2021,-52.4001,-1.98511,0
66.2677,-52.344,-1.99726,0
66.3317,-52.2862,-2.00933,0
66.3941,-52.2269,-2.02133,0
66.4549,-52.1661,-2.03325,0
66.5141,-52.1037,-2.04508,0
66.5713,-52.04,-2.05681,0
66.627,-51.975,-2.06844,0
66.6808,-51.9086,-2.07994,0
66.7328,-51.841,-2.09133,0
66.783,-51.7722,-2.10258,0
66.8314,-51.7022,-2.11369,0
66.3823,-51.2543,-2.28387,174
66.3619,-51.1519,-2.31103,174
66.3765,-51.078,-2.32599,174
66.4078,-51.0167,-2.33509,174
66.51,-51.0005,-2.32286,174
67.0813,-51.2621,-2.17713,0
67.1162,-51.1859,-2.1871,0
67.15,-51.1095,-2.19663,0
67.1821,-51.0326,-2.20591,0
67.2123,-50.9551,-2.21497,0
67.2414,-50.8774,-2.22363,0
67.279,-50.8037,-2.22944,0
67.3149,-50.7292,-2.23506,0
67.3494,-50.6538,-2.24046,0
67.382,-50.5776,-2.24567,0
67.413,-50.5005,-2.25069,0
67.4402,-50.4221,-2.25599,0
67.4659,-50.3432,-2.26102,0
67.4898,-50.2637,-2.26583,0
67.5121,-50.1836,-2.27037,0
67.5328,-50.1031,-2.27466,0
67.5519,-50.0221,-2.27869,0
67.5692,-49.9407,-2.28247,0
67.5849,-49.859,-2.28598,0
67.5989,-49.7768,-2.28924,0
67.6113,-49.6943,-2.29223,0
67.6219,-49.6116,-2.29496,0
67.6308,-49.5285,-2.29742,0
67.638,-49.4453,-2.29962,0
67.6435,-49.3618,-2.30154,0
67.6473,-49.2782,-2.3032,0
67.6495,-49.1944,-2.30458,0
67.6497,-49.1106,-2.30569,0
67.6483,-49.0266,-2.30654,0
67.6452,-48.9427,-2.3071,0
67.6402,-48.8587,-2.30738,0
67.6336,-48.7748,-2.30739,0
66.1919,-52.2788,-1.99309,0
66.2548,-52.2231,-2.00488,0
66.3161,-52.1658,-2.0166,0
66.3759,-52.107,-2.02823,0
66.434,-52.0468,-2.03979,0
66.4904,-51.9852,-2.05124,0
66.5452,-51.9223,-2.0626,0
66.5983,-51.8581,-2.07385,0
66.6495,-51.7926,-2.08498,0
66.6991,-51.726,-2.09599,0
66.7468,-51.6583,-2.10687,0
66.346,-51.2462,-2.26627,174
66.3589,-51.1688,-2.28326,174
66.3733,-51.0944,-2.29877,174
66.3981,-51.0286,-2.31011,174
66.4845,-51.0029,-2.30211,174
66.9961,-51.2324,-2.16853,0
67.0319,-51.1589,-2.17803,0
67.0657,-51.0847,-2.18735,0
67.0977,-51.0099,-2.19647,0
67.1278,-50.9345,-2.20539,0
67.1595,-50.8601,-2.21322,0
67.1966,-50.7882,-2.21895,0
67.2321,-50.7155,-2.22448,0
67.2661,-50.642,-2.22982,0
67.2984,-50.5676,-2.23494,0
67.3291,-50.4925,-2.23988,0
67.3582,-50.4167,-2.24461,0
67.3856,-50.3401,-2.24913,0
67.4113,-50.2629,-2.25344,0
67.4337,-50.1847,-2.25794,0
67.4543,-50.1059,-2.2622,0
67.4733,-50.0268,-2.26621,0
67.4907,-49.9472,-2.26997,0
67.5065,-49.8671,-2.27347,0
67.5205,-49.7868,-2.27672,0
67.533,-49.7061,-2.27971,0
67.5438,-49.6251,-2.28245,0
67.553,-49.5439,-2.28491,0
67.5605,-49.4624,-2.28713,0
67.5662,-49.3807,-2.28907,0
67.5702,-49.2989,-2.29075,0
67.5727,-49.2169,-2.29217,0
67.5734,-49.1348,-2.29332,0
67.5723,-49.0526,-2.2942,0
67.5697,-48.9705,-2.2948,0
67.5652,-48.8882,-2.29514,0
67.559,-48.8061,-2.29521,0
67.5512,-48.7239,-2.29501,0
67.5416,-48.6419,-2.29453,0
67.5304,-48.56,-2.29379,0
67.5173,-48.4783,-2.29276,0
67.5027,-48.3968,-2.29144,0
67.4864,-48.3154,-2.28983,0
67.4664,-48.2349,-2.28839,0
67.4447,-48.1548,-2.28669,0
67.4213,-48.0751,-2.28472,0
67.3951,-47.9963,-2.28274,0
67.3664,-47.9183,-2.28067,0
67.3359,-47.841,-2.27838,0
67.3036,-47.7644,-2.27585,0
67.2696,-47.6886,-2.2731,0
67.2337,-47.6135,-2.2701,0
67.1963,-47.5393,-2.26689,0
67.1571,-47.466,-2.26345,0
67.1162,-47.3936,-2.25978,0
67.0737,-47.3221,-2.2559,0
67.0296,-47.2517,-2.25178,0
66.9837,-47.1823,-2.24746,0
66.9364,-47.1139,-2.24291,0
66.8875,-47.0467,-2.23816,0
66.837,-46.9807,-2.23318,0
66.7851,-46.9158,-2.228,0
66.7316,-46.8521,-2.22263,0
66.6767,-46.7897,-2.21704,0
66.6205,-46.7286,-2.21123,0
66.5643,-46.6673,-2.20473,0
66.5068,-46.6073,-2.19803,0
66.4478,-46.5486,-2.19113,0
66.3875,-46.4913,-2.18403,0
66.3259,-46.4354,-2.17675,0
66.263,-46.3809,-2.16927,0
66.1987,-46.3279,-2.16162,0
66.1333,-46.2763,-2.15379,0
66.0666,-46.2263,-2.14578,0
65.9988,-46.1779,-2.1376,0
65.9298,-46.131,-2.12925,0
65.8598,-46.0858,-2.12075,0
65.7887,-46.0421,-2.11209,0
65.7166,-46.0002,-2.10326,0
65.6436,-45.9599,-2.09431,0
65.5713,-45.9181,-2.08421,0
66.2001,-52.2718,-1.99461,0
66.2627,-52.2158,-2.00638,0
66.3239,-52.1584,-2.0181,0
66.3834,-52.0994,-2.02972,0
66.4412,-52.039,-2.04126,0
66.4975,-51.9772,-2.05271,0
66.5521,-51.9141,-2.06405,0
66.6048,-51.8498,-2.07528,0
66.656,-51.7841,-2.08641,0
66.7053,-51.7174,-2.09739,0
66.7528,-51.6495,-2.10825,0
66.3506,-51.2384,-2.26755,174
66.3608,-51.1592,-2.2853,174
66.3751,-51.0849,-2.3007,174
66.4036,-51.0217,-2.31081,174
66.502,-51.0034,-2.29916,174
67.0008,-51.223,-2.16976,0
67.0363,-51.1494,-2.17924,0
67.0698,-51.0751,-2.18853,0
67.1016,-51.0002,-2.19762,0
67.1316,-50.9248,-2.20653,0
67.1643,-50.8509,-2.21397,0
67.2012,-50.7789,-2.21967,0
67.2366,-50.7061,-2.22517,0
67.2703,-50.6325,-2.23049,0
67.3024,-50.558,-2.23559,0
67.333,-50.4828,-2.24049,0
67.3619,-50.4069,-2.2452,0
67.389,-50.3302,-2.2497,0
67.4143,-50.2529,-2.25403,0
67.4363,-50.1746,-2.25851,0
67.4568,-50.0958,-2.26274,0
67.4756,-50.0166,-2.26671,0
67.4928,-49.9369,-2.27044,0
67.5084,-49.8569,-2.2739,0
67.5223,-49.7765,-2.27713,0
67.5345,-49.6957,-2.28008,0
67.5451,-49.6147,-2.28278,0
67.5541,-49.5334,-2.28521,0
67.5612,-49.4519,-2.28739,0
67.5668,-49.3702,-2.2893,0
67.5707,-49.2884,-2.29094,0
67.5728,-49.2064,-2.29233,0
67.5734,-49.1243,-2.29344,0
67.572,-49.0421,-2.29428,0
67.5691,-48.9599,-2.29486,0
67.5645,-48.8777,-2.29517,0
67.5581,-48.7955,-2.2952,0
67.5501,-48.7134,-2.29496,0
67.5402,-48.6314,-2.29445,0
67.5287,-48.5495,-2.29367,0
67.5155,-48.4678,-2.29261,0
67.5008,-48.3863,-2.29123,0
67.4839,-48.3051,-2.28966,0
67.4638,-48.2246,-2.28819,0
67.4419,-48.1446,-2.28645,0
67.4182,-48.0649,-2.28445,0
67.3915,-47.9862,-2.28249,0
67.3625,-47.9084,-2.2804,0
67.3319,-47.8312,-2.27807,0
67.2994,-47.7547,-2.27551,0
67.2651,-47.6789,-2.27272,0
67.2291,-47.604,-2.2697,0
67.1914,-47.5299,-2.26646,0
67.152,-47.4567,-2.263,0
67.1109,-47.3844,-2.25929,0
67.0681,-47.3131,-2.25537,0
67.0238,-47.2427,-2.25124,0
66.9778,-47.1735,-2.24689,0
66.9302,-47.1053,-2.24232,0
66.8811,-47.0382,-2.23753,0
66.8305,-46.9723,-2.23253,0
66.7783,-46.9075,-2.22733,0
66.7247,-46.844,-2.22191,0
66.6695,-46.7818,-2.21631,0
66.6134,-46.7206,-2.21041,0
66.557,-46.6595,-2.20389,0
66.4993,-46.5997,-2.19715,0
66.4402,-46.5412,-2.19022,0
66.3797,-46.484,-2.18311,0
66.3178,-46.4283,-2.1758,0
66.2548,-46.374,-2.16831,0
66.1904,-46.3212,-2.16063,0
66.1248,-46.2698,-2.15278,0
66.058,-46.22,-2.14474,0
65.99,-46.1718,-2.13654,0
65.9209,-46.1251,-2.12817,0
65.8508,-46.0801,-2.11965,0
65.7796,-46.0367,-2.11096,0
65.7073,-45.9949,-2.10213,0
65.6341,-45.9549,-2.09314,0
65.562,-45.9125,-2.0828,0
66.1442,-52.3192,-1.98429,0
66.2082,-52.2647,-1.99612,0
66.2706,-52.2085,-2.00789,0
66.3316,-52.1509,-2.01959,0
66.3909,-52.0917,-2.03121,0
66.4486,-52.0312,-2.04273,0
66.5046,-51.9692,-2.05417,0
66.559,-51.9059,-2.0655,0
66.6115,-51.8414,-2.07671,0
66.6624,-51.7756,-2.08782,0
66.7115,-51.7087,-2.09879,0
66.7588,-51.6407,-2.10964,0
66.3605,-51.2347,-2.26703,174
66.3626,-51.1496,-2.28733,174
66.3769,-51.0755,-2.30261,174
66.409,-51.0148,-2.31151,174
66.5197,-51.004,-2.29616,174
67.0055,-51.2136,-2.17099,0
67.0407,-51.1399,-2.18045,0
67.0741,-51.0656,-2.18971,0
67.1055,-50.9906,-2.19878,0
67.1353,-50.915,-2.20764,0
67.1691,-50.8417,-2.21472,0
67.2059,-50.7696,-2.22039,0
67.241,-50.6967,-2.22587,0
67.2745,-50.623,-2.23115,0
67.3064,-50.5484,-2.23624,0
67.3367,-50.4731,-2.24111,0
67.3654,-50.3971,-2.24578,0
67.3924,-50.3204,-2.25026,0
67.4172,-50.2429,-2.25461,0
67.4391,-50.1645,-2.25906,0
67.4594,-50.0857,-2.26325,0
67.4779,-50.0064,-2.2672,0
67.4949,-49.9267,-2.2709,0
67.5102,-49.8466,-2.27434,0
67.524,-49.7661,-2.27752,0
67.5359,-49.6854,-2.28044,0
67.5463,-49.6043,-2.2831,0
67.555,-49.523,-2.2855,0
67.562,-49.4415,-2.28765,0
67.5674,-49.3597,-2.28952,0
67.5711,-49.2778,-2.29114,0
67.573,-49.1958,-2.29249,0
67.5733,-49.1137,-2.29356,0
67.5718,-49.0316,-2.29437,0
67.5687,-48.9493,-2.29492,0
67.5638,-48.8671,-2.29519,0
67.5572,-48.785,-2.29519,0
66.1355,-52.2028,-1.99209,0
66.1969,-52.1485,-2.00358,0
66.2568,-52.0928,-2.015,0
66.3151,-52.0357,-2.02635,0
66.3718,-51.9771,-2.03762,0
66.427,-51.9172,-2.04879,0
66.4805,-51.8559,-2.05987,0
66.5323,-51.7934,-2.07085,0
66.5826,-51.7298,-2.08171,0
66.6309,-51.6649,-2.09245,0
66.6781,-51.5993,-2.10293,0
66.3489,-51.2453,-2.24145,174
66.3611,-51.1675,-2.25893,174
66.3752,-51.0928,-2.27479,174
66.4023,-51.0287,-2.28551,174
66.4965,-51.0078,-2.27469,174
66.9248,-51.1862,-2.16235,0
66.9598,-51.1145,-2.17166,0
66.9931,-51.0422,-2.18076,0
67.0245,-50.9692,-2.18968,0
67.0541,-50.8956,-2.19842,0
67.0902,-50.8253,-2.20469,0
67.1265,-50.755,-2.21028,0
67.1612,-50.6839,-2.21568,0
67.1943,-50.6119,-2.2209,0
67.2259,-50.5392,-2.22591,0
67.2559,-50.4657,-2.23073,0
67.2843,-50.3915,-2.23534,0
67.311,-50.3166,-2.23975,0
67.3362,-50.2411,-2.24397,0
67.3596,-50.1649,-2.24797,0
67.3813,-50.0882,-2.25176,0
67.4013,-50.011,-2.25533,0
67.4191,-49.9331,-2.25883,0
67.4345,-49.8548,-2.26226,0
67.4484,-49.7761,-2.26544,0
67.4605,-49.697,-2.26837,0
67.471,-49.6177,-2.27103,0
67.4799,-49.5381,-2.27345,0
67.4873,-49.4583,-2.2756,0
67.4928,-49.3783,-2.2775,0
67.4967,-49.2981,-2.27914,0
67.4991,-49.2178,-2.28051,0
67.4997,-49.1374,-2.28163,0
67.4986,-49.057,-2.28248,0
67.4959,-48.9764,-2.28307,0
67.4915,-48.8959,-2.28339,0
67.4855,-48.8155,-2.28344,0
67.4777,-48.7351,-2.28324,0
67.4682,-48.6548,-2.28276,0
67.4571,-48.5746,-2.28201,0
67.4443,-48.4945,-2.281,0
67.4298,-48.4147,-2.27972,0
67.4123,-48.3355,-2.27845,0
67.3914,-48.2571,-2.27734,0
67.3687,-48.1791,-2.27601,0
67.3441,-48.1018,-2.27445,0
67.3178,-48.025,-2.27266,0
67.2897,-47.9488,-2.27065,0
67.2599,-47.8732,-2.2684,0
67.2284,-47.7984,-2.26593,0
67.1951,-47.7242,-2.26323,0
67.1601,-47.6509,-2.26031,0
67.1234,-47.5784,-2.25716,0
67.0851,-47.5067,-2.2538,0
67.0451,-47.436,-2.25021,0
67.0036,-47.3661,-2.24641,0
66.9604,-47.2973,-2.24239,0
66.9156,-47.2294,-2.23817,0
66.8694,-47.1627,-2.23371,0
66.8216,-47.0969,-2.22907,0
66.7722,-47.0324,-2.22421,0
66.7214,-46.969,-2.21915,0
66.6692,-46.9067,-2.21389,0
66.6155,-46.8458,-2.20842,0
66.5605,-46.786,-2.20275,0
66.5056,-46.7261,-2.19638,0
66.4494,-46.6675,-2.18983,0
66.3917,-46.6102,-2.18308,0
66.3327,-46.5542,-2.17614,0
66.2725,-46.4996,-2.16902,0
66.2109,-46.4464,-2.16172,0
66.1482,-46.3946,-2.15423,0
66.0842,-46.3443,-2.14657,0
66.0191,-46.2954,-2.13874,0
65.9528,-46.2481,-2.13074,0
65.8854,-46.2023,-2.12258,0
65.8169,-46.1581,-2.11427,0
65.7475,-46.1155,-2.1058,0
65.6769,-46.0746,-2.09718,0
65.6055,-46.0353,-2.08842,0
65.5332,-45.9976,-2.07951,0
66.1434,-52.1959,-1.99357,0
66.2047,-52.1415,-2.00505,0
66.2643,-52.0856,-2.01646,0
66.3224,-52.0282,-2.0278,0
66.379,-51.9695,-2.03905,0
66.434,-51.9094,-2.05022,0
66.4873,-51.848,-2.06128,0
66.5389,-51.7853,-2.07224,0
66.5888,-51.7215,-2.08309,0
66.6371,-51.6565,-2.09381,0
66.684,-51.5908,-2.10425,0
66.3536,-51.2376,-2.24267,174
66.3627,-51.1576,-2.2611,174
66.377,-51.0834,-2.27674,174
66.4078,-51.0218,-2.28622,174
66.5132,-51.0078,-2.27188,174
66.9295,-51.177,-2.16356,0
66.9642,-51.1052,-2.17284,0
66.9973,-51.0328,-2.18193,0
67.0284,-50.9598,-2.19082,0
67.0579,-50.8861,-2.19952,0
67.0949,-50.8164,-2.20542,0
67.131,-50.746,-2.21098,0
67.1655,-50.6747,-2.21636,0
67.1984,-50.6026,-2.22154,0
67.2298,-50.5298,-2.22654,0
67.2596,-50.4562,-2.23133,0
67.2878,-50.3819,-2.23592,0
67.3144,-50.3069,-2.24031,0
67.3392,-50.2313,-2.24449,0
67.3624,-50.1551,-2.24846,0
67.384,-50.0784,-2.25223,0
67.4038,-50.001,-2.25578,0
67.4212,-49.9231,-2.25929,0
67.4364,-49.8447,-2.26268,0
67.45,-49.7659,-2.26584,0
67.462,-49.6869,-2.26872,0
67.4723,-49.6075,-2.27136,0
67.481,-49.5279,-2.27374,0
67.488,-49.448,-2.27586,0
67.4934,-49.368,-2.27772,0
67.4971,-49.2878,-2.27933,0
67.4992,-49.2075,-2.28067,0
67.4996,-49.1271,-2.28175,0
67.4984,-49.0466,-2.28257,0
67.4954,-48.9661,-2.28313,0
67.4908,-48.8856,-2.28341,0
67.4845,-48.8052,-2.28343,0
67.4766,-48.7248,-2.2832,0
67.4669,-48.6445,-2.28268,0
67.4555,-48.5643,-2.28191,0
67.4424,-48.4843,-2.28085,0
67.4278,-48.4045,-2.27952,0
67.4098,-48.3254,-2.27831,0
67.3886,-48.247,-2.27718,0
67.3656,-48.1692,-2.27583,0
67.3409,-48.0919,-2.27424,0
67.3143,-48.0151,-2.27241,0
67.286,-47.939,-2.27037,0
67.2559,-47.8636,-2.26809,0
67.2242,-47.7888,-2.26559,0
67.1906,-47.7148,-2.26287,0
67.1555,-47.6415,-2.25991,0
67.1186,-47.5691,-2.25674,0
67.0801,-47.4976,-2.25335,0
67.0399,-47.4269,-2.24974,0
66.9981,-47.3572,-2.2459,0
66.9547,-47.2885,-2.24186,0
66.9098,-47.2208,-2.2376,0
66.8634,-47.1542,-2.23314,0
66.8153,-47.0886,-2.22845,0
66.7658,-47.0242,-2.22357,0
66.7148,-46.9609,-2.21848,0
66.6624,-46.8989,-2.2132,0
66.6086,-46.838,-2.20771,0
66.5536,-46.7782,-2.20194,0
66.4986,-46.7185,-2.19555,0
66.4421,-46.6601,-2.18897,0
66.3843,-46.6029,-2.1822,0
66.3252,-46.5471,-2.17524,0
66.2647,-46.4927,-2.16809,0
66.203,-46.4397,-2.16076,0
66.1401,-46.3881,-2.15325,0
66.0759,-46.3379,-2.14558,0
66.0106,-46.2893,-2.13773,0
65.9441,-46.2422,-2.12971,0
65.8766,-46.1966,-2.12153,0
65.8081,-46.1526,-2.11319,0
65.7384,-46.1102,-2.1047,0
65.6678,-46.0694,-2.09607,0
65.5963,-46.0303,-2.08728,0
65.5238,-45.9929,-2.07837,0
66.0889,-52.2421,-1.9835,0
66.1514,-52.189,-1.99505,0
66.2123,-52.1344,-2.00652,0
66.2719,-52.0783,-2.01792,0
66.3298,-52.0208,-2.02925,0
66.3862,-51.9618,-2.0405,0
66.4409,-51.9016,-2.05164,0
66.494,-51.84,-2.0627,0
66.5454,-51.7772,-2.07364,0
66.5952,-51.7132,-2.08447,0
66.6432,-51.6482,-2.09516,0
66.3816,-51.3377,-2.21314,174
66.3636,-51.2339,-2.24211,174
66.3645,-51.148,-2.26316,174
66.3788,-51.074,-2.27869,174
66.4141,-51.0155,-2.28664,174
66.53,-51.0078,-2.26904,174
66.934,-51.1679,-2.16476,0
66.9686,-51.096,-2.17401,0
67.0013,-51.0235,-2.18307,0
67.0323,-50.9503,-2.19195,0
67.0623,-50.877,-2.20041,0
67.0996,-50.8074,-2.20614,0
67.1355,-50.7368,-2.21169,0
67.1698,-50.6655,-2.21704,0
67.2027,-50.5933,-2.2222,0
67.2337,-50.5204,-2.22716,0
67.2634,-50.4467,-2.23193,0
67.2913,-50.3723,-2.2365,0
67.3177,-50.2973,-2.24086,0
67.3423,-50.2216,-2.24501,0
67.3653,-50.1453,-2.24896,0
67.3866,-50.0685,-2.2527,0
67.4062,-49.9911,-2.25622,0
67.4232,-49.9131,-2.25974,0
67.4382,-49.8346,-2.26311,0
67.4516,-49.7558,-2.26621,0
67.4634,-49.6767,-2.26907,0
67.4735,-49.5973,-2.27167,0
67.4819,-49.5177,-2.27402,0
67.4888,-49.4378,-2.27612,0
67.494,-49.3577,-2.27794,0
67.4975,-49.2775,-2.27951,0
67.4994,-49.1972,-2.28083,0
67.4995,-49.1168,-2.28187,0
67.4981,-49.0363,-2.28266,0
67.4949,-48.9558,-2.28318,0
67.4901,-48.8753,-2.28343,0
67.4835,-48.7948,-2.28342,0
66.083,-52.1319,-1.99042,0
66.1429,-52.0789,-2.00169,0
66.2013,-52.0246,-2.01288,0
66.2584,-51.9689,-2.02397,0
66.3138,-51.9119,-2.03495,0
66.3679,-51.8536,-2.04583,0
66.4204,-51.7941,-2.05658,0
66.4713,-51.7334,-2.06722,0
66.5207,-51.6716,-2.07772,0
66.5684,-51.6087,-2.08809,0
66.6146,-51.5448,-2.09832,0
66.3535,-51.2457,-2.21589,174
66.3655,-51.1677,-2.23377,174
66.3771,-51.0913,-2.2507,174
66.4081,-51.0298,-2.26027,174
66.5115,-51.0147,-2.246,174
66.6471,-51.0151,-2.22201,174
66.8909,-51.0719,-2.16554,0
66.9235,-51.0013,-2.17445,0
66.9544,-50.9301,-2.18319,0
66.9866,-50.8599,-2.19082,0
67.0235,-50.7919,-2.19647,0
67.059,-50.7231,-2.20194,0
67.0929,-50.6535,-2.20721,0
67.1253,-50.583,-2.21231,0
67.1562,-50.5118,-2.21721,0
67.1855,-50.4399,-2.22193,0
67.2132,-50.3673,-2.22643,0
67.2394,-50.294,-2.23075,0
67.2638,-50.22,-2.23486,0
67.2867,-50.1455,-2.23876,0
67.308,-50.0705,-2.24247,0
67.3275,-49.9949,-2.24596,0
67.3454,-49.9188,-2.24925,0
67.3616,-49.8423,-2.25231,0
67.3761,-49.7654,-2.25517,0
67.3889,-49.6881,-2.2578,0
67.4,-49.6104,-2.26023,0
67.4094,-49.5325,-2.26242,0
67.4166,-49.4543,-2.26448,0
67.422,-49.3759,-2.26633,0
67.4259,-49.2974,-2.26794,0
67.428,-49.2187,-2.26928,0
67.4286,-49.1399,-2.27036,0
67.4275,-49.0611,-2.27118,0
67.4248,-48.9822,-2.27175,0
67.4205,-48.9034,-2.27206,0
67.4144,-48.8245,-2.27211,0
67.4063,-48.7458,-2.27198,0
67.3962,-48.6673,-2.27167,0
67.3845,-48.589,-2.27112,0
67.3709,-48.5109,-2.27035,0
67.3549,-48.4332,-2.26949,0
67.3362,-48.3561,-2.26864,0
67.3156,-48.2794,-2.26757,0
67.2934,-48.2033,-2.26626,0
67.2694,-48.1276,-2.26474,0
67.2436,-48.0525,-2.26299,0
67.216,-47.978,-2.261,0
67.1869,-47.9041,-2.25881,0
67.156,-47.8309,-2.25639,0
67.1234,-47.7585,-2.25375,0
67.0892,-47.6868,-2.25089,0
67.0534,-47.6159,-2.24781,0
67.0159,-47.5458,-2.24452,0
66.9769,-47.4766,-2.24101,0
66.9362,-47.4084,-2.2373,0
66.894,-47.341,-2.23337,0
66.8502,-47.2747,-2.22923,0
66.805,-47.2094,-2.22488,0
66.7581,-47.1452,-2.22034,0
66.71,-47.0821,-2.21559,0
66.6603,-47.0201,-2.21064,0
66.6091,-46.9592,-2.20549,0
66.5568,-46.8996,-2.20015,0
66.503,-46.8411,-2.19459,0
66.4493,-46.7826,-2.18836,0
66.3943,-46.7254,-2.18195,0
66.3379,-46.6694,-2.17534,0
66.2802,-46.6147,-2.16856,0
66.2212,-46.5613,-2.16159,0
66.1611,-46.5093,-2.15444,0
66.0996,-46.4587,-2.14712,0
66.037,-46.4095,-2.13964,0
65.9734,-46.3618,-2.13197,0
65.9085,-46.3156,-2.12416,0
65.8427,-46.2709,-2.11618,0
65.7757,-46.2277,-2.10804,0
65.7077,-46.1861,-2.09976,0
65.6388,-46.146,-2.09134,0
65.569,-46.1076,-2.08277,0
65.4983,-46.0709,-2.07405,0
66.0909,-52.1251,-1.99187,0
66.1505,-52.072,-2.00314,0
66.2087,-52.0175,-2.01431,0
66.2655,-51.9616,-2.02538,0
66.3209,-51.9045,-2.03635,0
66.3747,-51.846,-2.04721,0
66.427,-51.7864,-2.05796,0
66.4777,-51.7255,-2.06858,0
66.527,-51.6636,-2.07906,0
66.5745,-51.6005,-2.08942,0
66.6204,-51.5365,-2.09963,0
66.3573,-51.2373,-2.21744,174
66.3667,-51.1576,-2.2361,174
66.3789,-51.0819,-2.25269,174
66.4148,-51.0237,-2.26056,174
66.5284,-51.0147,-2.24306,174
66.861,-51.1329,-2.15762,0
66.8952,-51.0629,-2.16669,0
66.9275,-50.9922,-2.17558,0
66.9582,-50.9209,-2.18429,0
66.9914,-50.8512,-2.19156,0
67.0281,-50.7831,-2.19718,0
67.0634,-50.7142,-2.20262,0
67.0971,-50.6445,-2.20789,0
67.1293,-50.5739,-2.21295,0
67.16,-50.5026,-2.21782,0
67.1891,-50.4306,-2.22251,0
67.2166,-50.3579,-2.22699,0
67.2426,-50.2845,-2.23129,0
67.2669,-50.2105,-2.23537,0
67.2895,-50.1359,-2.23925,0
67.3105,-50.0608,-2.24293,0
67.3299,-49.9851,-2.24639,0
67.3475,-49.909,-2.24965,0
67.3636,-49.8325,-2.25269,0
67.3778,-49.7555,-2.25551,0
67.3905,-49.6781,-2.25813,0
67.4012,-49.6005,-2.26051,0
67.4104,-49.5225,-2.26269,0
67.4173,-49.4443,-2.26474,0
67.4227,-49.3659,-2.26656,0
67.4262,-49.2873,-2.26813,0
67.4282,-49.2086,-2.26944,0
67.4285,-49.1298,-2.27048,0
67.4272,-49.051,-2.27128,0
67.4243,-48.9721,-2.27181,0
67.4197,-48.8933,-2.27208,0
67.4135,-48.8144,-2.27209,0
67.4052,-48.7358,-2.27195,0
67.3948,-48.6573,-2.27161,0
67.3828,-48.5789,-2.27104,0
67.369,-48.5009,-2.27024,0
67.3526,-48.4232,-2.2694,0
67.3336,-48.3462,-2.26851,0
67.3128,-48.2696,-2.2674,0
67.2904,-48.1935,-2.26608,0
67.2661,-48.1179,-2.26452,0
67.2401,-48.0429,-2.26274,0
67.2124,-47.9685,-2.26074,0
67.183,-47.8947,-2.25851,0
67.152,-47.8216,-2.25606,0
67.1191,-47.7492,-2.2534,0
67.0848,-47.6776,-2.25051,0
67.0487,-47.6068,-2.24741,0
67.011,-47.5369,-2.24409,0
66.9717,-47.4678,-2.24055,0
66.9309,-47.3997,-2.23681,0
66.8884,-47.3325,-2.23285,0
66.8445,-47.2663,-2.22868,0
66.799,-47.2011,-2.22431,0
66.752,-47.137,-2.21974,0
66.7037,-47.074,-2.21496,0
66.6538,-47.0122,-2.20999,0
66.6026,-46.9515,-2.20482,0
66.5499,-46.892,-2.19946,0
66.4962,-46.8335,-2.1938,0
66.4423,-46.7752,-2.18755,0
66.3871,-46.7181,-2.18112,0
66.3305,-46.6623,-2.17448,0
66.2727,-46.6077,-2.16768,0
66.2136,-46.5545,-2.16069,0
66.1533,-46.5027,-2.15352,0
66.0917,-46.4523,-2.14617,0
66.029,-46.4033,-2.13865,0
65.9652,-46.3558,-2.13099,0
65.9002,-46.3097,-2.12314,0
65.8341,-46.2652,-2.11514,0
65.767,-46.2222,-2.10699,0
65.699,-46.1808,-2.09869,0
65.6299,-46.141,-2.09024,0
65.5599,-46.1028,-2.08166,0
65.4891,-46.0662,-2.07293,0
66.0377,-52.1703,-1.98197,0
66.0985,-52.1184,-1.99332,0
66.158,-52.0651,-2.00457,0
66.2162,-52.0104,-2.01573,0
66.2727,-51.9544,-2.02679,0
66.3279,-51.897,-2.03776,0
66.3815,-51.8384,-2.0486,0
66.4337,-51.7786,-2.05933,0
66.4841,-51.7177,-2.06992,0
66.5331,-51.6556,-2.08039,0
66.5805,-51.5924,-2.09073,0
66.3813,-51.3342,-2.1887,174
66.3666,-51.2331,-2.21707,174
66.3679,-51.1475,-2.2384,174
66.3807,-51.0725,-2.25466,174
66.4221,-51.018,-2.26065,174
66.5454,-51.0148,-2.24007,174
66.8655,-51.124,-2.1588,0
66.8994,-51.0539,-2.16785,0
66.9316,-50.9831,-2.17671,0
66.962,-50.9117,-2.1854,0
66.9962,-50.8425,-2.19229,0
67.0327,-50.7743,-2.19789,0
67.0678,-50.7053,-2.20331,0
67.1013,-50.6355,-2.20854,0
67.1334,-50.5648,-2.21359,0
67.1638,-50.4934,-2.21844,0
67.1927,-50.4213,-2.2231,0
67.22,-50.3485,-2.22756,0
67.2458,-50.2751,-2.23181,0
67.2698,-50.201,-2.23588,0
67.2923,-50.1263,-2.23973,0
67.313,-50.0511,-2.24338,0
67.3322,-49.9754,-2.24682,0
67.3497,-49.8992,-2.25005,0
67.3655,-49.8226,-2.25306,0
67.3796,-49.7456,-2.25586,0
67.392,-49.6682,-2.25844,0
67.4026,-49.5905,-2.26081,0
67.4115,-49.5125,-2.26296,0
67.4181,-49.4342,-2.26498,0
67.4231,-49.3558,-2.26677,0
67.4266,-49.2772,-2.26831,0
67.4284,-49.1985,-2.26959,0
67.4284,-49.1197,-2.2706,0
67.427,-49.0409,-2.27135,0
67.4238,-48.962,-2.27186,0
67.419,-48.8831,-2.2721,0
67.4126,-48.8043,-2.27208,0
66.0335,-52.0649,-1.98845,0
66.092,-52.0133,-1.99945,0
66.1492,-51.9603,-2.01039,0
66.205,-51.906,-2.02122,0
66.2593,-51.8504,-2.03196,0
66.3122,-51.7936,-2.04259,0
66.3635,-51.7356,-2.0531,0
66.4134,-51.6764,-2.06349,0
66.4618,-51.6161,-2.07376,0
66.5086,-51.5548,-2.0839,0
66.5537,-51.4924,-2.09391,0
66.3581,-51.2461,-2.19016,174
66.3698,-51.1678,-2.20845,174
66.3792,-51.09,-2.22644,174
66.4246,-51.038,-2.23125,174
66.5397,-51.0299,-2.21264,174
66.7909,-51.0993,-2.15076,0
66.8247,-51.031,-2.15966,0
66.8566,-50.9621,-2.1684,0
66.887,-50.8926,-2.17694,0
66.9232,-50.8263,-2.18303,0
66.9593,-50.7597,-2.18856,0
66.994,-50.6923,-2.1939,0
67.0272,-50.6242,-2.19906,0
67.0588,-50.5552,-2.20404,0
67.089,-50.4855,-2.20883,0
67.1177,-50.415,-2.21343,0
67.1447,-50.3439,-2.21785,0
67.1702,-50.2722,-2.22206,0
67.1941,-50.1998,-2.22609,0
67.2165,-50.1269,-2.2299,0
67.2372,-50.0534,-2.23352,0
67.2564,-49.9794,-2.23694,0
67.2738,-49.9049,-2.24014,0
67.2896,-49.83,-2.24313,0
67.3038,-49.7547,-2.24593,0
67.3162,-49.6791,-2.2485,0
67.327,-49.6031,-2.25086,0
67.3362,-49.5268,-2.253,0
67.3435,-49.4503,-2.25492,0
67.3493,-49.3736,-2.25664,0
67.3532,-49.2967,-2.25813,0
67.3555,-49.2197,-2.25939,0
67.3559,-49.1426,-2.26044,0
67.3548,-49.0654,-2.26125,0
67.3518,-48.9882,-2.26186,0
67.3472,-48.9111,-2.26222,0
67.3408,-48.834,-2.26237,0
67.3326,-48.757,-2.26228,0
67.3227,-48.6802,-2.26197,0
67.3111,-48.6035,-2.26144,0
67.2977,-48.5271,-2.26068,0
67.2812,-48.4513,-2.26005,0
67.2628,-48.3759,-2.25922,0
67.2427,-48.3009,-2.25816,0
67.2209,-48.2264,-2.25689,0
67.1973,-48.1524,-2.25539,0
67.1722,-48.079,-2.25368,0
67.1452,-48.0061,-2.25174,0
67.1167,-47.9339,-2.24959,0
67.0865,-47.8623,-2.24722,0
67.0546,-47.7914,-2.24464,0
67.0212,-47.7213,-2.24184,0
66.9861,-47.6519,-2.23883,0
66.9495,-47.5834,-2.23561,0
66.9112,-47.5157,-2.23218,0
66.8714,-47.449,-2.22853,0
66.8301,-47.3831,-2.22469,0
66.7873,-47.3183,-2.22064,0
66.743,-47.2544,-2.2164,0
66.6973,-47.1916,-2.21194,0
66.6501,-47.1298,-2.2073,0
66.6015,-47.0692,-2.20245,0
66.5516,-47.0097,-2.19742,0
66.5002,-46.9514,-2.1922,0
66.4477,-46.8941,-2.18675,0
66.3952,-46.837,-2.18066,0
66.3413,-46.781,-2.17438,0
66.2861,-46.7262,-2.16792,0
66.2296,-46.6728,-2.16127,0
66.172,-46.6206,-2.15446,0
66.113,-46.5698,-2.14746,0
66.053,-46.5203,-2.14029,0
65.9917,-46.4722,-2.13297,0
65.9295,-46.4256,-2.12548,0
65.866,-46.3804,-2.11782,0
65.8016,-46.3367,-2.11002,0
65.7361,-46.2945,-2.10206,0
65.6696,-46.2538,-2.09396,0
65.6022,-46.2147,-2.08571,0
65.5339,-46.1772,-2.07733,0
65.4648,-46.1412,-2.06882,0
66.0412,-52.0583,-1.98986,0
66.0995,-52.0065,-2.00087,0
66.1565,-51.9534,-2.01178,0
66.212,-51.8989,-2.0226,0
66.2662,-51.8432,-2.03333,0
66.3189,-51.7862,-2.04394,0
66.37,-51.7281,-2.05444,0
66.4197,-51.6687,-2.06483,0
66.4679,-51.6083,-2.07507,0
66.5145,-51.5468,-2.0852,0
66.5594,-51.4843,-2.09518,0
66.362,-51.2377,-2.19173,174
66.371,-51.1577,-2.21082,174
66.3808,-51.0804,-2.22853,174
66.4352,-51.0345,-2.23022,174
66.5563,-51.0296,-2.20973,174
66.7953,-51.0906,-2.15192,0
66.8288,-51.0222,-2.1608,0
66.8606,-50.9532,-2.16949,0
66.8907,-50.8836,-2.17802,0
66.928,-50.8178,-2.18375,0
66.9638,-50.7511,-2.18924,0
66.9983,-50.6836,-2.19457,0
67.0313,-50.6153,-2.19971,0
67.0627,-50.5463,-2.20466,0
67.0927,-50.4765,-2.20944,0
67.1212,-50.406,-2.21401,0
67.1481,-50.3348,-2.2184,0
67.1734,-50.2629,-2.22259,0
67.1971,-50.1905,-2.22658,0
67.2193,-50.1175,-2.23038,0
67.2398,-50.0439,-2.23397,0
67.2588,-49.9698,-2.23736,0
67.2759,-49.8953,-2.24054,0
67.2915,-49.8204,-2.24351,0
67.3055,-49.745,-2.24626,0
67.3177,-49.6693,-2.24881,0
67.3283,-49.5933,-2.25114,0
67.3372,-49.517,-2.25327,0
67.3444,-49.4405,-2.25517,0
67.3498,-49.3637,-2.25684,0
67.3536,-49.2868,-2.2583,0
67.3556,-49.2098,-2.25954,0
67.3559,-49.1327,-2.26055,0
67.3545,-49.0555,-2.26134,0
67.3514,-48.9783,-2.26191,0
67.3465,-48.9012,-2.26225,0
67.3398,-48.8241,-2.26237,0
67.3315,-48.7471,-2.26226,0
67.3214,-48.6703,-2.26192,0
67.3095,-48.5937,-2.26135,0
67.2957,-48.5173,-2.2606,0
67.2789,-48.4416,-2.25995,0
67.2603,-48.3663,-2.25909,0
67.24,-48.2914,-2.258,0
67.218,-48.2169,-2.25671,0
67.1942,-48.143,-2.25519,0
67.1687,-48.0696,-2.25344,0
67.1417,-47.9968,-2.25148,0
67.1129,-47.9246,-2.2493,0
67.0825,-47.8531,-2.24691,0
67.0505,-47.7824,-2.24429,0
67.0168,-47.7123,-2.24146,0
66.9815,-47.6431,-2.23843,0
66.9446,-47.5747,-2.23518,0
66.9062,-47.5071,-2.23173,0
66.8662,-47.4405,-2.22806,0
66.8248,-47.3748,-2.22418,0
66.7817,-47.31,-2.22011,0
66.7372,-47.2463,-2.21584,0
66.6912,-47.1836,-2.21136,0
66.6439,-47.122,-2.20669,0
66.5952,-47.0615,-2.20182,0
66.545,-47.0022,-2.19676,0
66.4935,-46.944,-2.19152,0
66.441,-46.8867,-2.18597,0
66.3884,-46.8297,-2.17987,0
66.3343,-46.7739,-2.17356,0
66.2789,-46.7193,-2.16707,0
66.2223,-46.666,-2.16041,0
66.1645,-46.614,-2.15357,0
66.1055,-46.5633,-2.14655,0
66.0452,-46.5141,-2.13937,0
65.9838,-46.4662,-2.13201,0
65.9213,-46.4197,-2.1245,0
65.8578,-46.3747,-2.11683,0
65.7932,-46.3312,-2.10901,0
65.7276,-46.2892,-2.10103,0
65.661,-46.2487,-2.09291,0
65.5935,-46.2098,-2.08465,0
65.5251,-46.1725,-2.07625,0
65.4558,-46.1367,-2.06772,0
65.9891,-52.1023,-1.9802,0
66.0487,-52.0518,-1.99128,0
66.1069,-51.9998,-2.00228,0
66.1637,-51.9465,-2.01318,0
66.2191,-51.8919,-2.02399,0
66.273,-51.836,-2.03469,0
66.3255,-51.7788,-2.04529,0
66.3765,-51.7205,-2.05578,0
66.4259,-51.661,-2.06614,0
66.4739,-51.6005,-2.07638,0
66.5203,-51.5389,-2.08649,0
66.5652,-51.4763,-2.09645,0
66.3705,-51.2329,-2.19161,174
66.3722,-51.1477,-2.21317,174
66.3826,-51.071,-2.23054,174
66.447,-51.0317,-2.2288,174
66.5729,-51.0293,-2.20677,174
66.7997,-51.0818,-2.15306,0
66.833,-51.0134,-2.16192,0
66.8646,-50.9444,-2.1706,0
66.8955,-50.8752,-2.17881,0
66.9327,-50.8093,-2.18447,0
66.9684,-50.7425,-2.18994,0
67.0027,-50.6749,-2.19524,0
67.0354,-50.6065,-2.20035,0
67.0667,-50.5374,-2.20529,0
67.0965,-50.4675,-2.21004,0
67.1248,-50.3969,-2.21459,0
67.1514,-50.3256,-2.21895,0
67.1766,-50.2537,-2.22312,0
67.2001,-50.1811,-2.22709,0
67.222,-50.108,-2.23085,0
67.2423,-50.0344,-2.23441,0
67.2609,-49.9603,-2.23778,0
67.278,-49.8857,-2.24092,0
67.2934,-49.8107,-2.24387,0
67.3071,-49.7353,-2.2466,0
67.3192,-49.6596,-2.24912,0
67.3295,-49.5835,-2.25143,0
67.3382,-49.5072,-2.25352,0
67.3452,-49.4306,-2.25539,0
67.3504,-49.3539,-2.25705,0
67.3539,-49.2769,-2.25847,0
67.3558,-49.1999,-2.25967,0
67.3559,-49.1228,-2.26067,0
67.3541,-49.0456,-2.26144,0
67.3509,-48.9684,-2.26197,0
67.3457,-48.8913,-2.26229,0
67.3388,-48.8142,-2.26237,0
65.986,-52.0006,-1.98655,0
66.0434,-51.9503,-1.99732,0
66.0992,-51.8986,-2.008,0
66.1537,-51.8457,-2.01859,0
66.207,-51.7915,-2.02909,0
66.2588,-51.736,-2.03947,0
66.309,-51.6794,-2.04975,0
66.3579,-51.6217,-2.05992,0
66.4052,-51.5629,-2.06997,0
66.4511,-51.503,-2.07988,0
66.4953,-51.4422,-2.08967,0
66.538,-51.3803,-2.09932,0
66.5792,-51.3176,-2.10882,0
66.385,-51.0911,-2.20077,174
66.4537,-51.0546,-2.19751,174
66.6932,-51.1244,-2.13642,0
66.7278,-51.0584,-2.14531,0
66.7609,-50.9918,-2.15402,0
