71.3907,-50.1293,-2.84627,0
71.4009,-50.0169,-2.85247,0
71.4088,-49.9046,-2.85832,0
71.4146,-49.7925,-2.86383,0
71.4183,-49.6805,-2.86898,0
71.4197,-49.5688,-2.8738,0
71.4189,-49.4573,-2.87827,0
71.4162,-49.3461,-2.8824,0
71.414,-49.2353,-2.8859,0
71.4097,-49.1247,-2.88905,0
71.4034,-49.0144,-2.89187,0
71.3949,-48.9044,-2.89434,0
71.3845,-48.7946,-2.89648,0
71.372,-48.6853,-2.89826,0
71.3576,-48.5763,-2.89972,0
71.341,-48.4678,-2.90084,0
71.3275,-48.359,-2.9011,0
71.3172,-48.2496,-2.90047,0
71.3047,-48.1403,-2.89949,0
71.2902,-48.0311,-2.89819,0
71.2736,-47.922,-2.89654,0
71.2548,-47.8131,-2.89457,0
71.2341,-47.7044,-2.89225,0
71.2113,-47.5959,-2.88959,0
71.1862,-47.4877,-2.88658,0
71.1592,-47.3798,-2.88325,0
71.1301,-47.2722,-2.87957,0
71.0988,-47.165,-2.87554,0
71.0654,-47.0582,-2.87118,0
71.03,-46.9519,-2.86647,0
70.9924,-46.846,-2.86141,0
70.9527,-46.7407,-2.856,0
70.9109,-46.6359,-2.85026,0
70.867,-46.5317,-2.84417,0
70.821,-46.4281,-2.83773,0
70.773,-46.3252,-2.83095,0
70.7227,-46.223,-2.82383,0
70.6704,-46.1215,-2.81635,0
70.616,-46.0208,-2.80854,0
70.5627,-45.9187,-2.79991,0
70.5193,-45.8079,-2.78907,0
70.4734,-45.6974,-2.77781,0
70.4249,-45.5872,-2.76616,0
70.3738,-45.4772,-2.7541,0
70.3229,-45.3652,-2.74114,0
70.2699,-45.2528,-2.72764,0
70.2142,-45.1408,-2.71369,0
70.1558,-45.0291,-2.69931,0
70.0945,-44.918,-2.68447,0
70.0305,-44.8073,-2.6692,0
69.9637,-44.6973,-2.65347,0
69.8941,-44.5879,-2.63731,0
69.818,-44.4839,-2.6215,0
69.7384,-44.3821,-2.60548,0
69.6559,-44.2817,-2.5891,0
69.5706,-44.1829,-2.57236,0
69.4824,-44.0856,-2.55526,0
69.3916,-43.9901,-2.53782,0
69.2978,-43.8964,-2.52005,0
69.2014,-43.8047,-2.50193,0
69.1022,-43.715,-2.48351,0
69.0003,-43.6274,-2.46477,0
70.1613,-54.0715,-2.35178,0
70.2495,-53.963,-2.37235,0
70.3345,-53.8527,-2.39263,0
70.4163,-53.7408,-2.4126,0
70.495,-53.6275,-2.43226,0
70.5705,-53.5127,-2.45161,0
70.6429,-53.3966,-2.47062,0
70.7045,-53.2723,-2.49087,0
70.7583,-53.1432,-2.51167,0
70.8086,-53.0137,-2.532,0
70.8553,-52.884,-2.5519,0
70.8986,-52.7541,-2.57134,0
70.9385,-52.6242,-2.59031,0
70.9751,-52.4945,-2.60883,0
71.0084,-52.3649,-2.62687,0
71.0384,-52.2356,-2.64445,0
71.0698,-52.1096,-2.66081,0
71.1013,-51.9857,-2.67627,0
71.1299,-51.8621,-2.69126,0
71.1559,-51.7388,-2.70581,0
71.1791,-51.6158,-2.7199,0
71.1997,-51.4933,-2.73355,0
71.2177,-51.3714,-2.74674,0
71.233,-51.2499,-2.75951,0
71.2459,-51.129,-2.77183,0
71.2565,-51.0088,-2.78371,0
71.2645,-50.8893,-2.79516,0
71.2887,-50.7768,-2.80384,0
71.3118,-50.6646,-2.81203,0
71.3325,-50.5523,-2.81987,0
71.3511,-50.4398,-2.82737,0
71.3674,-50.3274,-2.83452,0
71.3815,-50.2149,-2.84133,0
71.3933,-50.1025,-2.84778,0
71.403,-49.9901,-2.85389,0
71.4104,-49.8779,-2.85966,0
71.4157,-49.7658,-2.86508,0
71.4187,-49.6539,-2.87016,0
71.4197,-49.5422,-2.8749,0
71.4185,-49.4307,-2.87929,0
71.4159,-49.3196,-2.88327,0
71.4131,-49.2089,-2.88668,0
71.4084,-49.0983,-2.88975,0
71.4015,-48.9881,-2.89248,0
71.3927,-48.8782,-2.89488,0
71.3817,-48.7685,-2.89693,0
71.3688,-48.6593,-2.89864,0
71.3538,-48.5504,-2.90002,0
71.3368,-48.442,-2.90106,0
71.3252,-48.3329,-2.90098,0
71.3144,-48.2235,-2.90027,0
71.3014,-48.1142,-2.89922,0
71.2864,-48.0051,-2.89783,0
71.2694,-47.896,-2.89611,0
71.2502,-47.7871,-2.89405,0
71.2288,-47.6785,-2.89165,0
71.2055,-47.5701,-2.88891,0
71.18,-47.4619,-2.88582,0
71.1525,-47.3541,-2.8824,0
71.1228,-47.2466,-2.87863,0
71.091,-47.1395,-2.87453,0
71.0572,-47.0328,-2.87008,0
71.0212,-46.9266,-2.86529,0
70.9831,-46.8208,-2.86015,0
70.943,-46.7156,-2.85467,0
70.9006,-46.6109,-2.84883,0
70.8562,-46.5069,-2.84267,0
70.8098,-46.4035,-2.83615,0
70.7611,-46.3007,-2.82928,0
70.7105,-46.1987,-2.82208,0
70.6577,-46.0974,-2.81452,0
70.6027,-45.9969,-2.80663,0
70.5526,-45.8923,-2.79736,0
70.5086,-45.7816,-2.78641,0
70.4621,-45.6711,-2.77507,0
70.4129,-45.5609,-2.76331,0
70.3614,-45.4509,-2.75112,0
70.3105,-45.3383,-2.73795,0
70.2569,-45.2261,-2.72435,0
70.2005,-45.1141,-2.7103,0
70.1414,-45.0026,-2.69581,0
70.0795,-44.8915,-2.68087,0
70.0148,-44.781,-2.66549,0
69.9473,-44.6711,-2.64966,0
69.8767,-44.5623,-2.63344,0
69.7992,-44.4595,-2.61771,0
69.7189,-44.358,-2.6016,0
69.6358,-44.258,-2.58513,0
69.5498,-44.1595,-2.56831,0
69.461,-44.0627,-2.55114,0
69.3695,-43.9676,-2.53361,0
69.2751,-43.8744,-2.51575,0
69.1779,-43.7831,-2.49758,0
69.0781,-43.6939,-2.47906,0
68.9755,-43.6069,-2.46025,0
70.0921,-54.1529,-2.33594,0
70.1827,-54.0458,-2.35672,0
70.2701,-53.9368,-2.37721,0
70.3543,-53.8262,-2.39742,0
70.4354,-53.7139,-2.41733,0
70.5134,-53.6002,-2.43691,0
70.588,-53.4851,-2.45617,0
70.6596,-53.3688,-2.4751,0
70.7177,-53.2416,-2.49587,0
70.7707,-53.1123,-2.51655,0
70.8201,-52.9828,-2.53679,0
70.866,-52.853,-2.55658,0
70.9084,-52.7231,-2.57591,0
70.9476,-52.5933,-2.59478,0
70.9833,-52.4635,-2.61318,0
71.0158,-52.334,-2.63111,0
71.0452,-52.2048,-2.64858,0
71.0776,-52.0801,-2.66454,0
71.1084,-51.9562,-2.67988,0
71.1363,-51.8326,-2.69477,0
71.1616,-51.7094,-2.70921,0
71.1842,-51.5866,-2.7232,0
71.2042,-51.4642,-2.73673,0
71.2216,-51.3423,-2.74983,0
71.2364,-51.221,-2.76249,0
71.2487,-51.1003,-2.77471,0
71.2586,-50.9802,-2.78649,0
71.2696,-50.8621,-2.79738,0
71.2944,-50.75,-2.80583,0
71.3169,-50.6378,-2.81394,0
71.3372,-50.5254,-2.8217,0
71.3552,-50.413,-2.82911,0
71.371,-50.3005,-2.83617,0
71.3845,-50.1881,-2.8429,0
71.3959,-50.0757,-2.84927,0
71.4049,-49.9633,-2.85529,0
71.4119,-49.8511,-2.86098,0
71.4166,-49.7391,-2.86633,0
71.4191,-49.6272,-2.87133,0
71.4196,-49.5156,-2.87598,0
71.4179,-49.4042,-2.88029,0
71.4154,-49.2932,-2.88411,0
71.4122,-49.1825,-2.88744,0
71.4069,-49.072,-2.89044,0
71.3995,-48.9618,-2.89309,0
71.3902,-48.852,-2.8954,0
71.3788,-48.7424,-2.89737,0
71.3654,-48.6333,-2.89901,0
71.3499,-48.5245,-2.90029,0
71.3325,-48.4161,-2.90125,0
71.3228,-48.3068,-2.90084,0
71.3115,-48.1974,-2.90005,0
71.298,-48.0882,-2.89891,0
71.2826,-47.979,-2.89745,0
71.2649,-47.87,-2.89565,0
71.2452,-47.7612,-2.8935,0
71.2234,-47.6526,-2.89102,0
71.1996,-47.5442,-2.8882,0
71.1737,-47.4362,-2.88504,0
71.1455,-47.3284,-2.88154,0
71.1154,-47.221,-2.87769,0
71.0831,-47.114,-2.8735,0
71.0488,-47.0074,-2.86898,0
71.0123,-46.9013,-2.86409,0
70.9737,-46.7957,-2.85888,0
70.933,-46.6906,-2.85331,0
70.8902,-46.5861,-2.8474,0
70.8453,-46.4821,-2.84114,0
70.7984,-46.3789,-2.83455,0
70.7493,-46.2763,-2.8276,0
70.698,-46.1745,-2.8203,0
70.6447,-46.0734,-2.81267,0
70.5894,-45.9731,-2.80468,0
70.5423,-45.8658,-2.79478,0
70.4977,-45.7552,-2.78375,0
70.4505,-45.6448,-2.77229,0
70.4009,-45.5347,-2.76045,0
70.3495,-45.424,-2.74801,0
70.298,-45.3115,-2.73474,0
70.2437,-45.1993,-2.72105,0
70.1866,-45.0875,-2.70688,0
70.127,-44.976,-2.69228,0
70.0644,-44.8651,-2.67724,0
69.999,-44.7547,-2.66175,0
69.9309,-44.645,-2.64582,0
69.8584,-44.5377,-2.62972,0
69.7803,-44.4352,-2.6139,0
69.6994,-44.334,-2.59771,0
69.6155,-44.2344,-2.58116,0
69.5289,-44.1363,-2.56424,0
69.4394,-44.0398,-2.54698,0
69.3472,-43.9452,-2.52939,0
69.2521,-43.8524,-2.51145,0
69.1544,-43.7616,-2.49319,0
69.0539,-43.673,-2.4746,0
68.9508,-43.5865,-2.45571,0
69.9995,-53.9056,-2.34289,0
70.0857,-53.8025,-2.36277,0
70.1689,-53.6977,-2.38237,0
70.2492,-53.5913,-2.4017,0
70.3265,-53.4834,-2.42074,0
70.4007,-53.3741,-2.43948,0
70.4634,-53.2549,-2.4599,0
70.5206,-53.1329,-2.48042,0
70.5745,-53.0103,-2.50052,0
70.6249,-52.8873,-2.52022,0
70.672,-52.7639,-2.53949,0
70.7158,-52.6403,-2.55836,0
70.7563,-52.5166,-2.57678,0
70.797,-52.3953,-2.59415,0
70.8374,-52.276,-2.6106,0
70.875,-52.1566,-2.62662,0
70.9098,-52.0372,-2.6422,0
70.9419,-51.918,-2.65735,0
70.9713,-51.799,-2.67207,0
70.998,-51.6802,-2.68635,0
71.0222,-51.5617,-2.70021,0
71.0437,-51.4435,-2.71364,0
71.0627,-51.3258,-2.72664,0
71.0793,-51.2085,-2.73921,0
71.0934,-51.0917,-2.75137,0
71.1051,-50.9755,-2.7631,0
71.118,-50.8612,-2.77392,0
71.1434,-50.7526,-2.78234,0
71.1667,-50.6438,-2.79042,0
71.1878,-50.5348,-2.79817,0
71.2068,-50.4257,-2.80558,0
71.2234,-50.3166,-2.81266,0
71.238,-50.2074,-2.81939,0
71.2503,-50.0982,-2.8258,0
71.2605,-49.9891,-2.83186,0
71.2686,-49.8801,-2.83759,0
71.2745,-49.7712,-2.84299,0
71.2784,-49.6624,-2.84805,0
71.2801,-49.5538,-2.85278,0
71.2805,-49.4455,-2.85707,0
71.2805,-49.3376,-2.86083,0
71.2786,-49.2298,-2.86426,0
71.2746,-49.1222,-2.86736,0
71.2687,-49.0149,-2.87012,0
71.2607,-48.9079,-2.87256,0
71.2506,-48.8012,-2.87466,0
71.2387,-48.6948,-2.87643,0
71.2247,-48.5887,-2.87786,0
71.2088,-48.4831,-2.87898,0
71.1941,-48.3775,-2.8794,0
71.1838,-48.2711,-2.87877,0
71.1716,-48.1648,-2.87779,0
71.1573,-48.0586,-2.8765,0
71.1409,-47.9526,-2.87487,0
71.1227,-47.8467,-2.87292,0
71.1022,-47.741,-2.87063,0
71.0798,-47.6356,-2.86801,0
71.0553,-47.5305,-2.86506,0
71.0287,-47.4256,-2.86177,0
71.0002,-47.3211,-2.85816,0
70.9696,-47.217,-2.85421,0
70.937,-47.1133,-2.84992,0
70.9022,-47.01,-2.8453,0
70.8654,-46.9072,-2.84035,0
70.8266,-46.8049,-2.83506,0
70.7857,-46.7031,-2.82943,0
70.7428,-46.602,-2.82346,0
70.6978,-46.5015,-2.81716,0
70.6508,-46.4017,-2.81053,0
70.6017,-46.3025,-2.80357,0
70.5507,-46.2041,-2.79627,0
70.4975,-46.1065,-2.78861,0
70.4423,-46.0097,-2.78064,0
70.3892,-45.9107,-2.77166,0
70.344,-45.8043,-2.76067,0
70.2962,-45.6982,-2.74928,0
70.2461,-45.5926,-2.73751,0
70.1963,-45.4847,-2.72481,0
70.1441,-45.3769,-2.71165,0
70.0894,-45.2694,-2.69805,0
70.032,-45.1624,-2.68404,0
69.972,-45.0558,-2.66959,0
69.9093,-44.9498,-2.65472,0
69.8416,-44.8472,-2.63994,0
69.7695,-44.7475,-2.62515,0
69.6948,-44.6491,-2.61,0
69.6174,-44.5519,-2.59449,0
69.5373,-44.4562,-2.57864,0
69.4545,-44.362,-2.56247,0
69.369,-44.2694,-2.54594,0
69.2808,-44.1785,-2.52911,0
69.19,-44.0893,-2.51195,0
69.0966,-44.0021,-2.49448,0
69.0006,-43.9169,-2.47671,0
68.902,-43.8338,-2.45864,0
70.0203,-53.8812,-2.34766,0
70.1059,-53.7777,-2.36747,0
70.1884,-53.6725,-2.38701,0
70.268,-53.5657,-2.40627,0
70.3445,-53.4574,-2.42523,0
70.4175,-53.3473,-2.44402,0
70.4774,-53.2258,-2.46483,0
70.5337,-53.1037,-2.48525,0
70.5868,-52.981,-2.50526,0
70.6365,-52.8579,-2.52486,0
70.6827,-52.7344,-2.54403,0
70.7258,-52.6108,-2.56279,0
70.7655,-52.4871,-2.58111,0
70.807,-52.3669,-2.59812,0
70.8466,-52.2475,-2.61446,0
70.8835,-52.1281,-2.63037,0
70.9177,-52.0088,-2.64586,0
70.9491,-51.8896,-2.6609,0
70.978,-51.7706,-2.67552,0
71.0041,-51.6518,-2.6897,0
71.0276,-51.5334,-2.70345,0
71.0485,-51.4154,-2.71678,0
71.0669,-51.2978,-2.72968,0
71.0829,-51.1806,-2.74215,0
71.0964,-51.0639,-2.75421,0
71.1075,-50.9479,-2.76584,0
71.1242,-50.8353,-2.77596,0
71.1492,-50.7266,-2.7843,0
71.172,-50.6178,-2.7923,0
71.1926,-50.5088,-2.79997,0
71.2109,-50.3997,-2.8073,0
71.2271,-50.2905,-2.8143,0
71.2412,-50.1814,-2.82095,0
71.253,-50.0722,-2.82728,0
71.2627,-49.9631,-2.83326,0
71.2702,-49.8541,-2.83891,0
71.2756,-49.7452,-2.84423,0
71.2789,-49.6365,-2.84921,0
71.2802,-49.5279,-2.85386,0
71.2807,-49.4198,-2.858,0
71.2803,-49.3118,-2.86168,0
71.2779,-49.2041,-2.86503,0
71.2734,-49.0966,-2.86805,0
71.267,-48.9894,-2.87074,0
71.2584,-48.8824,-2.87309,0
71.248,-48.7757,-2.87511,0
71.2355,-48.6694,-2.8768,0
71.2211,-48.5635,-2.87817,0
71.2048,-48.458,-2.87919,0
71.1918,-48.3521,-2.87928,0
71.1811,-48.2457,-2.87856,0
71.1683,-48.1395,-2.87752,0
71.1535,-48.0333,-2.87614,0
71.1367,-47.9273,-2.87444,0
71.118,-47.8215,-2.8724,0
71.097,-47.7159,-2.87004,0
71.0741,-47.6105,-2.86734,0
71.0491,-47.5054,-2.86431,0
71.0221,-47.4007,-2.86094,0
70.9931,-47.2962,-2.85725,0
70.962,-47.1922,-2.85321,0
70.9287,-47.0886,-2.84885,0
70.8936,-46.9854,-2.84416,0
70.8563,-46.8827,-2.83911,0
70.817,-46.7806,-2.83375,0
70.7756,-46.679,-2.82803,0
70.7322,-46.578,-2.82199,0
70.6868,-46.4776,-2.81562,0
70.6393,-46.378,-2.8089,0
70.5897,-46.279,-2.80185,0
70.5381,-46.1808,-2.79446,0
70.4845,-46.0834,-2.78674,0
70.4289,-45.9868,-2.77869,0
70.3787,-45.8853,-2.76907,0
70.3328,-45.779,-2.75798,0
70.2845,-45.673,-2.74651,0
70.2341,-45.567,-2.73456,0
70.184,-45.459,-2.72171,0
70.1313,-45.3512,-2.70844,0
70.0759,-45.2438,-2.69475,0
70.0179,-45.1369,-2.68063,0
69.9572,-45.0305,-2.66609,0
69.8939,-44.9247,-2.65112,0
69.8247,-44.8233,-2.63644,0
69.752,-44.7239,-2.62155,0
69.6766,-44.6258,-2.60633,0
69.5986,-44.529,-2.59075,0
69.5178,-44.4336,-2.57483,0
69.4343,-44.3398,-2.55855,0
69.3482,-44.2475,-2.54196,0
69.2594,-44.157,-2.52504,0
69.168,-44.0684,-2.50781,0
69.0739,-43.9816,-2.49027,0
68.9773,-43.8969,-2.47242,0
68.8781,-43.8142,-2.4543,0
69.9531,-53.9588,-2.33239,0
70.041,-53.8567,-2.3524,0
70.1258,-53.7527,-2.37216,0
70.2077,-53.6472,-2.39164,0
70.2865,-53.54,-2.41082,0
70.3623,-53.4314,-2.42971,0
70.4321,-53.3184,-2.44902,0
70.4911,-53.1967,-2.46974,0
70.5467,-53.0744,-2.49006,0
70.5989,-52.9516,-2.50998,0
70.6478,-52.8284,-2.52947,0
70.6934,-52.705,-2.54855,0
70.7356,-52.5813,-2.5672,0
70.7748,-52.4577,-2.58538,0
70.8166,-52.3384,-2.60206,0
70.8557,-52.219,-2.61829,0
70.892,-52.0996,-2.63411,0
70.9255,-51.9803,-2.64948,0
70.9563,-51.8612,-2.66443,0
70.9845,-51.7422,-2.67894,0
71.0099,-51.6236,-2.69303,0
71.0327,-51.5052,-2.70667,0
71.0531,-51.3873,-2.71989,0
71.071,-51.2698,-2.73269,0
71.0863,-51.1527,-2.74507,0
71.0992,-51.0362,-2.75701,0
71.1098,-50.9203,-2.76855,0
71.1304,-50.8094,-2.77798,0
71.1549,-50.7007,-2.78624,0
71.1771,-50.5918,-2.79416,0
71.1971,-50.4828,-2.80175,0
71.215,-50.3736,-2.809,0
71.2307,-50.2645,-2.81591,0
71.2441,-50.1553,-2.82249,0
71.2555,-50.0462,-2.82874,0
71.2647,-49.9371,-2.83464,0
71.2717,-49.8281,-2.84021,0
71.2766,-49.7192,-2.84544,0
71.2794,-49.6105,-2.85035,0
71.2801,-49.5021,-2.85491,0
71.2808,-49.394,-2.8589,0
71.2799,-49.2861,-2.86251,0
71.277,-49.1785,-2.86578,0
71.272,-49.071,-2.86872,0
71.2651,-48.9638,-2.87133,0
71.2562,-48.8569,-2.87361,0
71.2452,-48.7503,-2.87555,0
71.2323,-48.6441,-2.87716,0
71.2174,-48.5383,-2.87844,0
71.2005,-48.4328,-2.87939,0
71.1895,-48.3267,-2.87914,0
71.1782,-48.2204,-2.87834,0
71.165,-48.1141,-2.87721,0
71.1498,-48.008,-2.87576,0
71.1324,-47.9021,-2.87398,0
71.1131,-47.7963,-2.87186,0
71.0917,-47.6907,-2.86943,0
71.0684,-47.5854,-2.86664,0
71.0429,-47.4804,-2.86353,0
71.0154,-47.3757,-2.86009,0
70.9859,-47.2714,-2.85632,0
70.9543,-47.1674,-2.85221,0
70.9205,-47.0639,-2.84776,0
70.8849,-46.9609,-2.84298,0
70.8471,-46.8583,-2.83787,0
70.8073,-46.7563,-2.83241,0
70.7655,-46.6548,-2.82663,0
70.7216,-46.554,-2.82051,0
70.6756,-46.4538,-2.81405,0
70.6277,-46.3543,-2.80725,0
70.5776,-46.2555,-2.80012,0
70.5255,-46.1575,-2.79265,0
70.4714,-46.0603,-2.78485,0
70.4153,-45.9639,-2.77671,0
70.368,-45.8599,-2.76647,0
70.3216,-45.7536,-2.75529,0
70.2727,-45.6478,-2.74371,0
70.2225,-45.5412,-2.73153,0
70.1717,-45.4332,-2.71859,0
70.1184,-45.3255,-2.70521,0
70.0623,-45.2183,-2.69142,0
70.0037,-45.1115,-2.6772,0
69.9423,-45.0052,-2.66256,0
69.8781,-44.8998,-2.64754,0
69.8076,-44.7995,-2.63293,0
69.7343,-44.7004,-2.61796,0
69.6583,-44.6026,-2.60264,0
69.5795,-44.5061,-2.58698,0
69.4981,-44.4111,-2.57096,0
69.414,-44.3176,-2.55463,0
69.3272,-44.2258,-2.53795,0
69.2378,-44.1357,-2.52096,0
69.1457,-44.0475,-2.50365,0
69.0511,-43.9612,-2.48604,0
68.9538,-43.877,-2.46813,0
68.8541,-43.7948,-2.44993,0
69.8677,-53.7259,-2.3396,0
69.9527,-53.629,-2.35839,0
70.0335,-53.5288,-2.3773,0
70.1116,-53.4271,-2.39596,0
70.1841,-53.321,-2.41502,0
70.2469,-53.2066,-2.4355,0
70.3064,-53.0913,-2.45563,0
70.3627,-52.9752,-2.47538,0
70.4156,-52.8585,-2.49476,0
70.4672,-52.7429,-2.51336,0
70.5184,-52.6291,-2.531,0
70.5666,-52.515,-2.54823,0
70.6121,-52.4005,-2.56506,0
70.6549,-52.2859,-2.58148,0
70.6949,-52.1711,-2.59748,0
70.7322,-52.0562,-2.61307,0
70.7669,-51.9414,-2.62824,0
70.799,-51.8266,-2.643,0
70.8284,-51.7119,-2.65735,0
70.8552,-51.5974,-2.67129,0
70.8794,-51.4831,-2.68481,0
70.9013,-51.3691,-2.69792,0
70.9206,-51.2555,-2.71063,0
70.9376,-51.1422,-2.72292,0
70.9522,-51.0294,-2.73481,0
70.9644,-50.9171,-2.74629,0
70.9863,-50.8098,-2.75564,0
71.0115,-50.7043,-2.76387,0
71.0344,-50.5987,-2.77177,0
71.0553,-50.4929,-2.77935,0
71.0739,-50.3869,-2.7866,0
71.0905,-50.2809,-2.79352,0
71.1049,-50.1749,-2.80012,0
71.1173,-50.0688,-2.80639,0
71.1274,-49.9627,-2.81234,0
71.1356,-49.8568,-2.81795,0
71.1416,-49.7509,-2.82324,0
71.1456,-49.6452,-2.8282,0
71.1493,-49.5398,-2.83262,0
71.1516,-49.4346,-2.83664,0
71.1518,-49.3295,-2.84033,0
71.1501,-49.2246,-2.8437,0
71.1464,-49.1199,-2.84675,0
71.1406,-49.0154,-2.84947,0
71.133,-48.9112,-2.85186,0
71.1234,-48.8073,-2.85393,0
71.112,-48.7038,-2.85568,0
71.0985,-48.6005,-2.85709,0
71.0831,-48.4977,-2.8582,0
71.0673,-48.395,-2.85879,0
71.0572,-48.2915,-2.85815,0
71.0452,-48.1881,-2.85718,0
71.031,-48.0848,-2.85589,0
71.015,-47.9816,-2.85428,0
70.9969,-47.8787,-2.85235,0
70.977,-47.7759,-2.85009,0
70.9549,-47.6733,-2.84752,0
70.9309,-47.5711,-2.84462,0
70.9049,-47.4691,-2.84139,0
70.8769,-47.3675,-2.83784,0
70.8469,-47.2663,-2.83397,0
70.8149,-47.1655,-2.82976,0
70.7809,-47.0651,-2.82523,0
70.7449,-46.9652,-2.82037,0
70.7069,-46.8658,-2.81518,0
70.667,-46.767,-2.80967,0
70.6249,-46.6688,-2.80384,0
70.581,-46.5712,-2.79767,0
70.535,-46.4742,-2.79117,0
70.487,-46.378,-2.78436,0
70.4371,-46.2825,-2.77719,0
70.3852,-46.1877,-2.76973,0
70.3312,-46.0938,-2.76192,0
70.2754,-46.0008,-2.7538,0
70.2223,-45.9049,-2.74453,0
70.1753,-45.8027,-2.73341,0
70.1259,-45.701,-2.72192,0
70.0772,-45.5971,-2.70947,0
70.0259,-45.4934,-2.69662,0
69.9722,-45.3902,-2.68336,0
69.9159,-45.2874,-2.6697,0
69.8555,-45.1868,-2.65596,0
69.7905,-45.0892,-2.6423,0
69.7229,-44.9927,-2.62829,0
69.6528,-44.8973,-2.61393,0
69.58,-44.8032,-2.59925,0
69.5047,-44.7103,-2.58424,0
69.4267,-44.6189,-2.5689,0
69.3463,-44.5289,-2.55325,0
69.2633,-44.4405,-2.53728,0
69.1777,-44.3538,-2.52099,0
69.0896,-44.2689,-2.50441,0
68.9991,-44.1858,-2.48754,0
68.9061,-44.1046,-2.47038,0
68.8108,-44.0255,-2.45295,0
69.8891,-53.7041,-2.34382,0
69.9722,-53.6053,-2.36293,0
70.0523,-53.5047,-2.38178,0
70.1298,-53.4026,-2.40037,0
70.1994,-53.2938,-2.41995,0
70.2614,-53.1791,-2.44034,0
70.3201,-53.0636,-2.46038,0
70.3755,-52.9474,-2.48004,0
70.4278,-52.8306,-2.49933,0
70.4796,-52.7158,-2.5176,0
70.5301,-52.6019,-2.53515,0
70.5777,-52.4877,-2.55228,0
70.6226,-52.3732,-2.56901,0
70.6648,-52.2585,-2.58533,0
70.7041,-52.1437,-2.60123,0
70.7408,-52.0288,-2.61672,0
70.7748,-51.914,-2.6318,0
70.8062,-51.7992,-2.64646,0
70.835,-51.6845,-2.66071,0
70.8613,-51.5701,-2.67455,0
70.8849,-51.4559,-2.68798,0
70.9062,-51.342,-2.70099,0
70.9249,-51.2284,-2.71359,0
70.9413,-51.1153,-2.72579,0
70.9553,-51.0026,-2.73758,0
70.967,-50.8904,-2.74898,0
70.9925,-50.7846,-2.75763,0
71.0171,-50.6791,-2.76578,0
71.0396,-50.5735,-2.77361,0
71.0599,-50.4676,-2.78111,0
71.078,-50.3616,-2.78829,0
71.0941,-50.2556,-2.79513,0
71.108,-50.1496,-2.80164,0
71.1199,-50.0435,-2.80784,0
71.1296,-49.9375,-2.8137,0
71.1373,-49.8315,-2.81924,0
71.1428,-49.7257,-2.82445,0
71.1463,-49.62,-2.82934,0
71.15,-49.5147,-2.83361,0
71.1518,-49.4095,-2.83756,0
71.1516,-49.3045,-2.84117,0
71.1494,-49.1996,-2.84446,0
71.1452,-49.095,-2.84743,0
71.1391,-48.9906,-2.85007,0
71.1309,-48.8864,-2.85238,0
71.1209,-48.7826,-2.85437,0
71.1089,-48.6791,-2.85604,0
71.0949,-48.5759,-2.85738,0
71.0791,-48.4732,-2.85841,0
71.065,-48.3703,-2.85866,0
71.0545,-48.2668,-2.85795,0
71.042,-48.1634,-2.85691,0
71.0274,-48.0602,-2.85553,0
71.0109,-47.9571,-2.85385,0
70.9923,-47.8541,-2.85184,0
70.9719,-47.7514,-2.84951,0
70.9494,-47.6489,-2.84686,0
70.9248,-47.5467,-2.84388,0
70.8984,-47.4448,-2.84057,0
70.8699,-47.3433,-2.83694,0
70.8395,-47.2422,-2.83299,0
70.807,-47.1415,-2.82871,0
70.7725,-47.0412,-2.82409,0
70.7361,-46.9414,-2.81916,0
70.6976,-46.8422,-2.8139,0
70.6571,-46.7435,-2.80831,0
70.6146,-46.6454,-2.80239,0
70.5702,-46.548,-2.79615,0
70.5238,-46.4512,-2.78958,0
70.4753,-46.3551,-2.78268,0
70.4249,-46.2598,-2.77544,0
70.3725,-46.1653,-2.7679,0
70.3181,-46.0716,-2.76002,0
70.2618,-45.9787,-2.75181,0
70.2113,-45.8805,-2.74191,0
70.1638,-45.7784,-2.7307,0
70.1145,-45.6762,-2.71899,0
70.0652,-45.5723,-2.70645,0
70.0134,-45.4687,-2.6935,0
69.9589,-45.3656,-2.68015,0
69.902,-45.263,-2.66638,0
69.8402,-45.1634,-2.65273,0
69.7746,-45.0661,-2.63899,0
69.7064,-44.9698,-2.6249,0
69.6356,-44.8748,-2.61046,0
69.5623,-44.7809,-2.5957,0
69.4863,-44.6884,-2.58061,0
69.4078,-44.5973,-2.5652,0
69.3267,-44.5077,-2.54946,0
69.243,-44.4197,-2.53341,0
69.1569,-44.3334,-2.51706,0
69.0682,-44.2489,-2.50042,0
68.9772,-44.1663,-2.48347,0
68.8836,-44.0856,-2.46626,0
68.7876,-44.007,-2.44875,0
69.8187,-53.7712,-2.33075,0
69.9092,-53.6807,-2.3484,0
69.9916,-53.5814,-2.36745,0
70.0711,-53.4805,-2.38624,0
70.1477,-53.378,-2.40477,0
70.2145,-53.2665,-2.42484,0
70.2757,-53.1517,-2.44515,0
70.3336,-53.036,-2.46509,0
70.3884,-52.9196,-2.48467,0
70.4398,-52.8027,-2.50387,0
70.492,-52.6887,-2.52182,0
70.5417,-52.5747,-2.53927,0
70.5887,-52.4604,-2.55631,0
70.6329,-52.3458,-2.57294,0
70.6743,-52.2311,-2.58916,0
70.713,-52.1163,-2.60497,0
70.7491,-52.0014,-2.62035,0
70.7825,-51.8866,-2.63534,0
70.8133,-51.7718,-2.6499,0
70.8415,-51.6572,-2.66405,0
70.8671,-51.5428,-2.67779,0
70.8902,-51.4287,-2.69112,0
70.9109,-51.3149,-2.70404,0
70.9291,-51.2014,-2.71654,0
70.9448,-51.0883,-2.72864,0
70.9584,-50.9758,-2.74034,0
70.9723,-50.8648,-2.75121,0
70.9986,-50.7595,-2.75961,0
71.0227,-50.6539,-2.76768,0
71.0447,-50.5482,-2.77542,0
71.0645,-50.4423,-2.78285,0
71.0821,-50.3364,-2.78994,0
71.0977,-50.2303,-2.79671,0
71.1111,-50.1243,-2.80315,0
71.1224,-50.0182,-2.80927,0
71.1316,-49.9122,-2.81506,0
71.1387,-49.8062,-2.82051,0
71.1438,-49.7004,-2.82565,0
71.1473,-49.5948,-2.83039,0
71.1506,-49.4896,-2.83458,0
71.1519,-49.3844,-2.83845,0
71.1512,-49.2794,-2.84198,0
71.1486,-49.1746,-2.8452,0
71.1439,-49.07,-2.84809,0
71.1373,-48.9657,-2.85065,0
71.1287,-48.8616,-2.85289,0
71.1182,-48.7579,-2.8548,0
71.1057,-48.6545,-2.85639,0
71.0913,-48.5514,-2.85766,0
71.0751,-48.4487,-2.85861,0
71.0627,-48.3456,-2.85852,0
71.0516,-48.2422,-2.85773,0
71.0387,-48.1388,-2.85661,0
71.0236,-48.0356,-2.85516,0
71.0066,-47.9325,-2.8534,0
70.9877,-47.8296,-2.85132,0
70.9667,-47.7269,-2.84891,0
70.9437,-47.6245,-2.84617,0
70.9187,-47.5224,-2.84312,0
70.8919,-47.4206,-2.83973,0
70.8628,-47.3192,-2.83603,0
70.8319,-47.2181,-2.83199,0
70.799,-47.1175,-2.82764,0
70.764,-47.0174,-2.82295,0
70.727,-46.9177,-2.81794,0
70.6881,-46.8186,-2.81259,0
70.6472,-46.72,-2.80693,0
70.6042,-46.6221,-2.80092,0
70.5593,-46.5248,-2.79461,0
70.5123,-46.4282,-2.78796,0
70.4634,-46.3323,-2.78098,0
70.4127,-46.2372,-2.77368,0
70.3597,-46.1428,-2.76605,0
70.3048,-46.0493,-2.75809,0
70.2481,-45.9567,-2.74981,0
70.2002,-45.8561,-2.73927,0
70.1521,-45.7541,-2.72797,0
70.103,-45.6514,-2.71603,0
70.053,-45.5476,-2.7034,0
70.0005,-45.4441,-2.69035,0
69.9455,-45.3411,-2.6769,0
69.888,-45.2386,-2.66304,0
69.8248,-45.1401,-2.64949,0
69.7586,-45.043,-2.63565,0
69.6898,-44.947,-2.62149,0
69.6184,-44.8522,-2.60698,0
69.5444,-44.7587,-2.59213,0
69.4678,-44.6665,-2.57697,0
69.3887,-44.5758,-2.56148,0
69.307,-44.4866,-2.54567,0
69.2227,-44.399,-2.52954,0
69.136,-44.3131,-2.51312,0
69.0467,-44.229,-2.49639,0
68.9551,-44.1468,-2.4794,0
68.8609,-44.0666,-2.4621,0
68.7644,-43.9885,-2.44455,0
69.7352,-53.5458,-2.33959,0
69.8235,-53.461,-2.35579,0
69.9071,-53.3712,-2.37258,0
69.9763,-53.2662,-2.3925,0
70.043,-53.1604,-2.41198,0
70.1072,-53.0543,-2.43099,0
70.1686,-52.9473,-2.44965,0
70.2272,-52.8396,-2.46792,0
70.283,-52.7313,-2.48582,0
70.3361,-52.6224,-2.50334,0
70.3865,-52.5131,-2.52048,0
70.4341,-52.4034,-2.53723,0
70.4791,-52.2933,-2.55359,0
70.5212,-52.183,-2.56955,0
70.5609,-52.0724,-2.58513,0
70.598,-51.9618,-2.60031,0
70.6324,-51.8511,-2.61509,0
70.6643,-51.7405,-2.62948,0
70.6936,-51.6298,-2.64349,0
70.7205,-51.5193,-2.65708,0
70.745,-51.409,-2.67028,0
70.767,-51.2989,-2.6831,0
70.7866,-51.1891,-2.69551,0
70.8038,-51.0797,-2.70754,0
70.8188,-50.9706,-2.71917,0
70.8346,-50.8631,-2.72994,0
70.8615,-50.761,-2.7383,0
70.8862,-50.6585,-2.74635,0
70.9089,-50.5559,-2.75407,0
70.9295,-50.4531,-2.76149,0
70.948,-50.3501,-2.76859,0
70.9643,-50.2471,-2.77536,0
70.9787,-50.144,-2.78182,0
70.9909,-50.0408,-2.78797,0
71.0012,-49.9377,-2.79379,0
71.0093,-49.8346,-2.79929,0
71.0159,-49.7317,-2.80443,0
71.0221,-49.6291,-2.80901,0
71.0265,-49.5266,-2.81327,0
71.0288,-49.4241,-2.81722,0
71.0293,-49.3218,-2.82084,0
71.0277,-49.2197,-2.82415,0
71.0243,-49.1177,-2.82714,0
71.0189,-49.0159,-2.82981,0
71.0116,-48.9144,-2.83217,0
71.0023,-48.8132,-2.8342,0
70.9912,-48.7123,-2.83592,0
70.9783,-48.6117,-2.83732,0
70.9634,-48.5115,-2.83842,0
70.9466,-48.4117,-2.83918,0
70.9367,-48.3109,-2.83854,0
70.9248,-48.2103,-2.83757,0
70.911,-48.1097,-2.8363,0
70.8952,-48.0093,-2.8347,0
70.8775,-47.909,-2.8328,0
70.8578,-47.809,-2.83057,0
70.8363,-47.7092,-2.82803,0
70.8127,-47.6097,-2.82518,0
70.7872,-47.5105,-2.82201,0
70.7598,-47.4116,-2.81852,0
70.7303,-47.3131,-2.81472,0
70.699,-47.2151,-2.81059,0
70.6656,-47.1175,-2.80615,0
70.6305,-47.0203,-2.80138,0
70.5933,-46.9237,-2.7963,0
70.5541,-46.8276,-2.7909,0
70.513,-46.7321,-2.78519,0
70.47,-46.6373,-2.77914,0
70.4251,-46.5431,-2.77278,0
70.3781,-46.4496,-2.76611,0
70.3293,-46.3568,-2.75911,0
70.2786,-46.2648,-2.7518,0
70.2259,-46.1737,-2.74417,0
70.1712,-46.0833,-2.73623,0
70.1148,-45.9939,-2.72796,0
70.0613,-45.9012,-2.71845,0
70.013,-45.8031,-2.70719,0
69.965,-45.7029,-2.69503,0
69.9145,-45.6032,-2.68248,0
69.8605,-45.505,-2.6698,0
69.8021,-45.4096,-2.6572,0
69.7412,-45.315,-2.64425,0
69.6777,-45.2214,-2.63098,0
69.6118,-45.1289,-2.61737,0
69.5434,-45.0375,-2.60346,0
69.4726,-44.9473,-2.58921,0
69.3992,-44.8584,-2.57466,0
69.3234,-44.7709,-2.5598,0
69.2452,-44.6849,-2.54463,0
69.1645,-44.6004,-2.52917,0
69.0814,-44.5176,-2.51341,0
68.996,-44.4364,-2.49738,0
68.9081,-44.3571,-2.48107,0
68.818,-44.2797,-2.46449,0
68.7256,-44.2043,-2.44765,0
69.7565,-53.5258,-2.34346,0
69.8443,-53.4405,-2.35965,0
69.925,-53.3476,-2.37702,0
69.9922,-53.2407,-2.39726,0
70.0586,-53.1352,-2.41655,0
70.1221,-53.0288,-2.43548,0
70.1828,-52.9217,-2.45404,0
70.2408,-52.8138,-2.47223,0
70.296,-52.7054,-2.49003,0
70.3484,-52.5964,-2.50746,0
70.398,-52.487,-2.5245,0
70.4451,-52.3771,-2.54116,0
70.4894,-52.267,-2.55743,0
70.531,-52.1566,-2.57331,0
70.57,-52.0461,-2.58879,0
70.6064,-51.9354,-2.60387,0
70.6402,-51.8247,-2.61857,0
70.6716,-51.714,-2.63287,0
70.7002,-51.6035,-2.64676,0
70.7266,-51.493,-2.66028,0
70.7504,-51.3827,-2.67338,0
70.7719,-51.2727,-2.6861,0
70.7909,-51.163,-2.69842,0
70.8077,-51.0536,-2.71035,0
70.8221,-50.9446,-2.72189,0
70.8412,-50.8388,-2.73196,0
70.8676,-50.7366,-2.74025,0
70.8919,-50.6341,-2.74822,0
70.914,-50.5314,-2.75588,0
70.9341,-50.4285,-2.76321,0
70.952,-50.3255,-2.77023,0
70.9679,-50.2225,-2.77693,0
70.9818,-50.1194,-2.78332,0
70.9935,-50.0162,-2.78938,0
71.0033,-49.9131,-2.79512,0
71.0109,-49.8101,-2.80056,0
71.0175,-49.7072,-2.80554,0
71.0234,-49.6046,-2.81006,0
71.0273,-49.5021,-2.81424,0
71.0291,-49.3997,-2.81811,0
71.0291,-49.2974,-2.82167,0
71.0271,-49.1953,-2.82489,0
71.0232,-49.0934,-2.82781,0
71.0173,-48.9917,-2.83041,0
71.0096,-48.8903,-2.83268,0
70.9998,-48.7891,-2.83464,0
70.9884,-48.6883,-2.83629,0
70.9749,-48.5878,-2.83761,0
70.9596,-48.4877,-2.83862,0
70.9445,-48.3877,-2.83906,0
70.9341,-48.2869,-2.83833,0
70.9217,-48.1862,-2.83729,0
70.9073,-48.0857,-2.83595,0
70.8912,-47.9853,-2.83427,0
70.873,-47.8851,-2.83229,0
70.8529,-47.7851,-2.83,0
70.8308,-47.6854,-2.82738,0
70.8068,-47.586,-2.82445,0
70.7808,-47.4869,-2.82121,0
70.7529,-47.3881,-2.81765,0
70.723,-47.2897,-2.81376,0
70.6912,-47.1918,-2.80956,0
70.6574,-47.0942,-2.80504,0
70.6218,-46.9972,-2.8002,0
70.5841,-46.9007,-2.79505,0
70.5444,-46.8048,-2.78956,0
70.503,-46.7095,-2.78377,0
70.4594,-46.6148,-2.77766,0
70.4141,-46.5207,-2.77122,0
70.3667,-46.4274,-2.76446,0
70.3174,-46.3348,-2.7574,0
70.2662,-46.243,-2.75001,0
70.213,-46.152,-2.7423,0
70.158,-46.0619,-2.73429,0
70.101,-45.9727,-2.72594,0
70.05,-45.8778,-2.7158,0
70.0018,-45.7791,-2.70432,0
69.9531,-45.6791,-2.69207,0
69.9022,-45.5794,-2.67943,0
69.8469,-45.4822,-2.66683,0
69.7878,-45.387,-2.65413,0
69.7262,-45.2926,-2.64111,0
69.6623,-45.1993,-2.62776,0
69.5958,-45.107,-2.61408,0
69.5268,-45.0159,-2.60008,0
69.4553,-44.926,-2.58577,0
69.3813,-44.8374,-2.57115,0
69.305,-44.7503,-2.55621,0
69.2262,-44.6646,-2.54097,0
69.1449,-44.5805,-2.52544,0
69.0613,-44.498,-2.50962,0
68.9752,-44.4173,-2.49352,0
68.8869,-44.3385,-2.47714,0
68.7962,-44.2615,-2.46049,0
68.7032,-44.1866,-2.4436,0
69.6879,-53.5892,-2.33108,0
69.7777,-53.5057,-2.34733,0
69.8648,-53.4198,-2.3635,0
69.9413,-53.3222,-2.38189,0
70.0083,-53.2156,-2.4019,0
70.0739,-53.1099,-2.4211,0
70.1368,-53.0033,-2.43993,0
70.1969,-52.896,-2.45841,0
70.2542,-52.788,-2.47651,0
70.3087,-52.6794,-2.49423,0
70.3605,-52.5703,-2.51156,0
70.4095,-52.4608,-2.52852,0
70.4559,-52.3509,-2.54508,0
70.4995,-52.2407,-2.56125,0
70.5405,-52.1302,-2.57704,0
70.5789,-52.0197,-2.59242,0
70.6147,-51.909,-2.60741,0
70.648,-51.7983,-2.62202,0
70.6786,-51.6877,-2.63621,0
70.7067,-51.5771,-2.65002,0
70.7324,-51.4667,-2.66343,0
70.7558,-51.3565,-2.67645,0
70.7766,-51.2465,-2.68907,0
70.7951,-51.1369,-2.7013,0
70.8113,-51.0276,-2.71314,0
70.8252,-50.9187,-2.72458,0
70.8477,-50.8144,-2.73397,0
70.8735,-50.7121,-2.74217,0
70.8973,-50.6096,-2.75008,0
70.919,-50.5069,-2.75765,0
70.9385,-50.404,-2.76491,0
70.956,-50.301,-2.77186,0
70.9715,-50.1979,-2.77849,0
70.9848,-50.0948,-2.78479,0
70.996,-49.9916,-2.79078,0
71.0053,-49.8885,-2.79646,0
71.0126,-49.7855,-2.8018,0
71.0191,-49.6828,-2.80665,0
71.0245,-49.5802,-2.81109,0
71.0279,-49.4777,-2.8152,0
71.0293,-49.3753,-2.81899,0
71.0287,-49.273,-2.82247,0
71.0263,-49.171,-2.82562,0
71.0219,-49.0691,-2.82846,0
71.0156,-48.9675,-2.83097,0
71.0074,-48.8661,-2.83318,0
70.9973,-48.765,-2.83507,0
70.9853,-48.6643,-2.83664,0
70.9715,-48.5639,-2.83788,0
70.9557,-48.4639,-2.83882,0
70.9422,-48.3636,-2.83891,0
70.9313,-48.2629,-2.83811,0
70.9184,-48.1623,-2.837,0
70.9037,-48.0618,-2.83557,0
70.887,-47.9614,-2.83383,0
70.8684,-47.8613,-2.83177,0
70.8478,-47.7613,-2.82941,0
70.8252,-47.6617,-2.82672,0
70.8008,-47.5623,-2.82371,0
70.7743,-47.4633,-2.82039,0
70.7459,-47.3646,-2.81675,0
70.7156,-47.2663,-2.81278,0
70.6834,-47.1684,-2.80851,0
70.6491,-47.0711,-2.80391,0
70.613,-46.9742,-2.799,0
70.5748,-46.8778,-2.79377,0
70.5348,-46.782,-2.7882,0
70.4927,-46.6868,-2.78234,0
70.4488,-46.5923,-2.77614,0
70.4029,-46.4984,-2.76964,0
70.3551,-46.4053,-2.76281,0
70.3053,-46.3129,-2.75567,0
70.2537,-46.2212,-2.7482,0
70.2001,-46.1304,-2.74042,0
70.1446,-46.0405,-2.73232,0
70.0871,-45.9515,-2.72391,0
70.0385,-45.8544,-2.71313,0
69.9904,-45.7552,-2.70144,0
69.9412,-45.6553,-2.68909,0
69.8897,-45.5557,-2.67635,0
69.833,-45.4594,-2.66383,0
69.7734,-45.3644,-2.65106,0
69.7112,-45.2702,-2.63797,0
69.6466,-45.1772,-2.62453,0
69.5795,-45.0852,-2.61078,0
69.5099,-44.9943,-2.5967,0
69.4379,-44.9048,-2.58232,0
69.3634,-44.8165,-2.56761,0
69.2864,-44.7297,-2.55259,0
69.207,-44.6444,-2.53729,0
69.1252,-44.5607,-2.52169,0
69.0409,-44.4786,-2.5058,0
68.9544,-44.3984,-2.48963,0
68.8654,-44.32,-2.4732,0
68.7742,-44.2435,-2.45649,0
68.6807,-44.169,-2.43953,0
69.6244,-53.3944,-2.33554,0
69.7068,-53.3089,-2.35222,0
69.7837,-53.2176,-2.36973,0
69.8578,-53.1247,-2.38704,0
69.9253,-53.026,-2.40524,0
69.9882,-52.9241,-2.42368,0
70.0484,-52.8214,-2.44177,0
70.1059,-52.7179,-2.45951,0
70.1607,-52.6138,-2.47689,0
70.2129,-52.5091,-2.49391,0
70.2624,-52.404,-2.51057,0
70.3093,-52.2983,-2.52686,0
70.3537,-52.1923,-2.54278,0
70.3954,-52.086,-2.55833,0
70.4346,-51.9795,-2.5735,0
70.4712,-51.8728,-2.58829,0
70.5055,-51.766,-2.6027,0
70.5373,-51.6592,-2.61674,0
70.5665,-51.5524,-2.63039,0
70.5934,-51.4457,-2.64367,0
70.6178,-51.3391,-2.65657,0
70.64,-51.2326,-2.66909,0
70.6598,-51.1264,-2.68123,0
70.6774,-51.0205,-2.69299,0
70.6927,-50.9149,-2.70438,0
70.7165,-50.8139,-2.71365,0
70.7429,-50.7146,-2.72182,0
70.7673,-50.615,-2.7297,0
70.7896,-50.5152,-2.73726,0
70.8099,-50.4153,-2.74451,0
70.8281,-50.3151,-2.75146,0
70.8445,-50.2149,-2.7581,0
70.8586,-50.1146,-2.76444,0
70.8708,-50.0143,-2.77045,0
70.8811,-49.9139,-2.77615,0
70.8905,-49.8138,-2.78136,0
70.8988,-49.7138,-2.78617,0
70.9051,-49.6139,-2.79066,0
70.9095,-49.514,-2.79485,0
70.9119,-49.4142,-2.79872,0
70.9125,-49.3145,-2.80227,0
70.9112,-49.2149,-2.80552,0
70.908,-49.1156,-2.80846,0
70.9028,-49.0164,-2.81108,0
70.8959,-48.9175,-2.8134,0
70.887,-48.8188,-2.8154,0
70.8763,-48.7205,-2.8171,0
70.8638,-48.6224,-2.81849,0
70.8494,-48.5247,-2.81956,0
70.8332,-48.4274,-2.82033,0
70.822,-48.3294,-2.81986,0
70.8102,-48.2313,-2.81889,0
70.7967,-48.1334,-2.81763,0
70.7812,-48.0356,-2.81606,0
70.7637,-47.9379,-2.81417,0
70.7445,-47.8405,-2.81198,0
70.7233,-47.7433,-2.80949,0
70.7001,-47.6464,-2.80668,0
70.6751,-47.5498,-2.80357,0
70.6481,-47.4536,-2.80013,0
70.6194,-47.3578,-2.79639,0
70.5887,-47.2623,-2.79235,0
70.556,-47.1673,-2.78799,0
70.5215,-47.0728,-2.78332,0
70.4851,-46.9788,-2.77833,0
70.4468,-46.8853,-2.77304,0
70.4066,-46.7925,-2.76744,0
70.3644,-46.7002,-2.76152,0
70.3205,-46.6086,-2.75529,0
70.2745,-46.5177,-2.74876,0
70.2269,-46.4275,-2.74192,0
70.1773,-46.3381,-2.73476,0
70.1256,-46.2495,-2.72729,0
70.0723,-46.1618,-2.71953,0
70.0171,-46.0749,-2.71143,0
69.96,-45.9889,-2.70305,0
69.9063,-45.8993,-2.69328,0
69.8578,-45.804,-2.68168,0
69.8054,-45.7107,-2.67006,0
69.7505,-45.6181,-2.65811,0
69.6934,-45.5263,-2.64584,0
69.6338,-45.4354,-2.63325,0
69.572,-45.3456,-2.62035,0
69.5077,-45.2567,-2.60715,0
69.4409,-45.169,-2.59362,0
69.3719,-45.0825,-2.5798,0
69.3005,-44.9972,-2.56569,0
69.2266,-44.9134,-2.55126,0
69.1505,-44.831,-2.53657,0
69.0721,-44.7501,-2.52158,0
68.9913,-44.6708,-2.50633,0
68.9084,-44.5932,-2.49081,0
68.8231,-44.5173,-2.47502,0
68.7356,-44.4434,-2.45898,0
68.646,-44.3713,-2.4427,0
69.6449,-53.3751,-2.3393,0
69.7254,-53.2873,-2.35641,0
69.8016,-53.1956,-2.37388,0
69.8751,-53.1023,-2.39114,0
69.9405,-53.0018,-2.40966,0
70.0028,-52.8997,-2.42802,0
70.0623,-52.7968,-2.44604,0
70.1191,-52.6932,-2.46369,0
70.1734,-52.5889,-2.48099,0
70.2249,-52.4841,-2.49792,0
70.2738,-52.3788,-2.51449,0
70.3201,-52.2731,-2.5307,0
70.3638,-52.167,-2.54652,0
70.405,-52.0606,-2.56198,0
70.4436,-51.9541,-2.57706,0
70.4797,-51.8473,-2.59176,0
70.5133,-51.7405,-2.60609,0
70.5444,-51.6337,-2.62004,0
70.5731,-51.5269,-2.6336,0
70.5994,-51.4202,-2.64679,0
70.6234,-51.3137,-2.65959,0
70.645,-51.2073,-2.67202,0
70.6642,-51.1012,-2.68406,0
70.6813,-50.9953,-2.69574,0
70.696,-50.8898,-2.70703,0
70.723,-50.7903,-2.71563,0
70.7489,-50.6909,-2.72374,0
70.7728,-50.5912,-2.73154,0
70.7947,-50.4914,-2.73903,0
70.8144,-50.3914,-2.7462,0
70.8322,-50.2912,-2.75308,0
70.848,-50.191,-2.75964,0
70.8617,-50.0907,-2.76589,0
70.8734,-49.9903,-2.77184,0
70.8832,-49.89,-2.77747,0
70.8927,-49.79,-2.78254,0
70.9005,-49.69,-2.78727,0
70.9063,-49.59,-2.79169,0
70.9102,-49.4902,-2.7958,0
70.9123,-49.3904,-2.79959,0
70.9123,-49.2907,-2.80308,0
70.9106,-49.1912,-2.80625,0
70.907,-49.0919,-2.80911,0
70.9013,-48.9928,-2.81166,0
70.894,-48.8939,-2.81391,0
70.8847,-48.7953,-2.81584,0
70.8735,-48.697,-2.81746,0
70.8605,-48.5991,-2.81877,0
70.8457,-48.5015,-2.81977,0
70.8296,-48.4042,-2.82038,0
70.8194,-48.306,-2.81966,0
70.8072,-48.208,-2.81861,0
70.7931,-48.11,-2.81728,0
70.7772,-48.0122,-2.81564,0
70.7593,-47.9147,-2.81368,0
70.7395,-47.8173,-2.81142,0
70.7179,-47.7202,-2.80884,0
70.6943,-47.6234,-2.80596,0
70.6689,-47.5268,-2.80277,0
70.6415,-47.4307,-2.79927,0
70.6122,-47.3349,-2.79546,0
70.5811,-47.2396,-2.79133,0
70.548,-47.1447,-2.78691,0
70.513,-47.0503,-2.78216,0
70.4761,-46.9564,-2.77711,0
70.4373,-46.8631,-2.77173,0
70.3967,-46.7704,-2.76606,0
70.3541,-46.6783,-2.76007,0
70.3097,-46.5869,-2.75377,0
70.2634,-46.4961,-2.74716,0
70.2152,-46.4062,-2.74023,0
70.1651,-46.3169,-2.733,0
70.1131,-46.2285,-2.72547,0
70.0593,-46.141,-2.71762,0
70.0037,-46.0543,-2.70946,0
69.9462,-45.9686,-2.701,0
69.8953,-45.8763,-2.69048,0
69.8455,-45.7817,-2.67894,0
69.7926,-45.6885,-2.66724,0
69.7371,-45.5961,-2.65521,0
69.6795,-45.5045,-2.64287,0
69.6193,-45.4139,-2.63021,0
69.5568,-45.3242,-2.61723,0
69.492,-45.2357,-2.60394,0
69.4246,-45.1482,-2.59036,0
69.355,-45.062,-2.57646,0
69.283,-44.9771,-2.56227,0
69.2087,-44.8936,-2.54779,0
69.132,-44.8115,-2.53301,0
69.053,-44.731,-2.51797,0
68.9718,-44.6521,-2.50265,0
68.8883,-44.5749,-2.48705,0
68.8024,-44.4995,-2.47121,0
68.7145,-44.426,-2.45512,0
68.6244,-44.3544,-2.43878,0
69.5788,-53.4364,-2.32724,0
69.6655,-53.3557,-2.34306,0
69.7438,-53.2656,-2.3606,0
69.8194,-53.1735,-2.37802,0
69.8914,-53.0789,-2.39546,0
69.9557,-52.9775,-2.41407,0
70.0173,-52.8752,-2.43236,0
70.0761,-52.7721,-2.45028,0
70.1323,-52.6684,-2.46785,0
70.1859,-52.564,-2.48506,0
70.2369,-52.459,-2.50192,0
70.2852,-52.3536,-2.5184,0
70.3308,-52.2478,-2.5345,0
70.3738,-52.1416,-2.55024,0
70.4145,-52.0352,-2.56562,0
70.4524,-51.9286,-2.5806,0
70.488,-51.8219,-2.59521,0
70.5209,-51.7151,-2.60945,0
70.5515,-51.6082,-2.6233,0
70.5796,-51.5015,-2.63678,0
70.6053,-51.3948,-2.64987,0
70.6287,-51.2882,-2.66259,0
70.6498,-51.1819,-2.67492,0
70.6685,-51.0759,-2.68689,0
70.6849,-50.9701,-2.69847,0
70.7018,-50.8657,-2.70925,0
70.7293,-50.7666,-2.71759,0
70.7548,-50.6671,-2.72562,0
70.7781,-50.5675,-2.73335,0
70.7995,-50.4676,-2.74077,0
70.8188,-50.3675,-2.74787,0
70.8361,-50.2673,-2.75467,0
70.8514,-50.1671,-2.76116,0
70.8647,-50.0667,-2.76734,0
70.8759,-49.9664,-2.77321,0
70.8855,-49.8661,-2.77873,0
70.8947,-49.7661,-2.78369,0
70.902,-49.6661,-2.78836,0
70.9074,-49.5662,-2.7927,0
70.9109,-49.4664,-2.79673,0
70.9125,-49.3666,-2.80045,0
70.9121,-49.267,-2.80386,0
70.9098,-49.1675,-2.80696,0
70.9058,-49.0682,-2.80975,0
70.8998,-48.9692,-2.81223,0
70.892,-48.8704,-2.81439,0
70.8822,-48.7719,-2.81625,0
70.8705,-48.6736,-2.8178,0
70.8572,-48.5758,-2.81904,0
70.8419,-48.4783,-2.81996,0
70.8273,-48.3808,-2.82024,0
70.8166,-48.2826,-2.81944,0
70.804,-48.1846,-2.81833,0
70.7895,-48.0867,-2.81692,0
70.7731,-47.9889,-2.81519,0
70.7548,-47.8914,-2.81317,0
70.7345,-47.7941,-2.81083,0
70.7125,-47.697,-2.80819,0
70.6884,-47.6003,-2.80523,0
70.6625,-47.5039,-2.80196,0
70.6347,-47.4078,-2.7984,0
70.6049,-47.3122,-2.7945,0
70.5734,-47.2169,-2.79031,0
70.5398,-47.1222,-2.7858,0
70.5044,-47.0279,-2.78098,0
70.467,-46.9341,-2.77585,0
70.4278,-46.8409,-2.77041,0
70.3867,-46.7484,-2.76466,0
70.3437,-46.6564,-2.75859,0
70.2988,-46.5652,-2.75221,0
70.252,-46.4746,-2.74553,0
70.2034,-46.3848,-2.73854,0
70.1529,-46.2958,-2.73123,0
70.1005,-46.2076,-2.72362,0
70.0462,-46.1202,-2.7157,0
69.9901,-46.0338,-2.70747,0
69.9321,-45.9482,-2.69893,0
69.8841,-45.8532,-2.68766,0
69.833,-45.7594,-2.67617,0
69.7795,-45.6664,-2.6644,0
69.7237,-45.5742,-2.6523,0
69.6653,-45.4828,-2.63988,0
69.6046,-45.3924,-2.62714,0
69.5416,-45.303,-2.61409,0
69.4761,-45.2147,-2.60072,0
69.4083,-45.1275,-2.58706,0
69.338,-45.0416,-2.5731,0
69.2655,-44.9571,-2.55884,0
69.1906,-44.8739,-2.54429,0
69.1134,-44.7922,-2.52945,0
69.0338,-44.712,-2.51435,0
68.952,-44.6335,-2.49895,0
68.868,-44.5568,-2.48331,0
68.7816,-44.4818,-2.46739,0
68.6932,-44.4087,-2.45124,0
68.6025,-44.3377,-2.43484,0
69.5155,-53.2461,-2.33338,0
69.5927,-53.1604,-2.35046,0
69.6673,-53.0729,-2.36737,0
69.7394,-52.9838,-2.38409,0
69.8089,-52.8932,-2.40063,0
69.8758,-52.8011,-2.41695,0
69.9353,-52.7029,-2.43436,0
69.9917,-52.6034,-2.45159,0
70.0455,-52.5032,-2.46849,0
70.0968,-52.4024,-2.48504,0
70.1455,-52.3011,-2.50124,0
70.1917,-52.1993,-2.51709,0
70.2355,-52.0971,-2.53259,0
70.2766,-51.9945,-2.54773,0
70.3155,-51.8918,-2.56252,0
70.3517,-51.7888,-2.57693,0
70.3856,-51.6856,-2.591,0
70.4171,-51.5824,-2.60469,0
70.4463,-51.4792,-2.61801,0
70.4731,-51.376,-2.63098,0
70.4977,-51.2729,-2.64359,0
70.5198,-51.1699,-2.65583,0
70.5398,-51.0671,-2.6677,0
70.5576,-50.9645,-2.67921,0
70.576,-50.8634,-2.68986,0
70.6041,-50.7671,-2.69816,0
70.6301,-50.6705,-2.70617,0
70.6541,-50.5737,-2.71386,0
70.6761,-50.4766,-2.72127,0
70.6961,-50.3793,-2.72837,0
70.7142,-50.2819,-2.73517,0
70.7302,-50.1843,-2.74167,0
70.7444,-50.0866,-2.74787,0
70.7569,-49.989,-2.75371,0
70.7689,-49.8917,-2.75903,0
70.779,-49.7942,-2.76404,0
70.7872,-49.6968,-2.76876,0
70.7935,-49.5994,-2.77317,0
70.7979,-49.502,-2.77727,0
70.8005,-49.4047,-2.78107,0
70.8012,-49.3075,-2.78456,0
70.8,-49.2104,-2.78775,0
70.797,-49.1135,-2.79064,0
70.7922,-49.0169,-2.79322,0
70.7855,-48.9204,-2.7955,0
70.777,-48.8242,-2.79746,0
70.7667,-48.7282,-2.79914,0
70.7545,-48.6326,-2.8005,0
70.7406,-48.5374,-2.80158,0
70.7248,-48.4424,-2.80234,0
70.7127,-48.3471,-2.80204,0
70.701,-48.2515,-2.80108,0
70.6877,-48.156,-2.79984,0
70.6723,-48.0606,-2.79828,0
70.6553,-47.9655,-2.79643,0
70.6363,-47.8706,-2.79426,0
70.6155,-47.7759,-2.79181,0
70.5928,-47.6815,-2.78904,0
70.5683,-47.5874,-2.78598,0
70.542,-47.4936,-2.78262,0
70.5137,-47.4003,-2.77894,0
70.4835,-47.3073,-2.77497,0
70.4516,-47.2148,-2.77069,0
70.4177,-47.1228,-2.76611,0
70.3821,-47.0313,-2.76122,0
70.3445,-46.9403,-2.75604,0
70.3052,-46.8499,-2.75054,0
70.2639,-46.7601,-2.74474,0
70.2209,-46.671,-2.73865,0
70.1759,-46.5826,-2.73224,0
70.1293,-46.4949,-2.72554,0
70.0807,-46.4079,-2.71853,0
70.0304,-46.3218,-2.71123,0
69.9781,-46.2364,-2.70361,0
69.9241,-46.152,-2.69571,0
69.8683,-46.0685,-2.68753,0
69.8095,-45.9869,-2.67927,0
69.7521,-45.9036,-2.67006,0
69.7007,-45.8137,-2.65874,0
69.647,-45.7245,-2.64709,0
69.5912,-45.6362,-2.63515,0
69.533,-45.5487,-2.62291,0
69.4724,-45.4622,-2.61036,0
69.4096,-45.3768,-2.59752,0
69.3445,-45.2925,-2.58438,0
69.2772,-45.2094,-2.57096,0
69.2077,-45.1276,-2.55725,0
69.1358,-45.0471,-2.54326,0
69.0616,-44.968,-2.52899,0
68.9854,-44.8905,-2.51446,0
68.9069,-44.8145,-2.49967,0
68.8262,-44.7401,-2.48463,0
68.7434,-44.6675,-2.46935,0
68.6585,-44.5967,-2.45382,0
68.5715,-44.5278,-2.43805,0
69.5341,-53.2258,-2.33747,0
69.6107,-53.1396,-2.35451,0
69.6848,-53.0518,-2.37137,0
69.7562,-52.9623,-2.38805,0
69.8251,-52.8713,-2.40453,0
69.8906,-52.7782,-2.42102,0
69.949,-52.6792,-2.4385,0
70.0047,-52.5795,-2.45566,0
70.058,-52.4792,-2.47246,0
70.1086,-52.3783,-2.48894,0
70.1567,-52.2768,-2.50505,0
70.2023,-52.1749,-2.52082,0
70.2455,-52.0726,-2.53624,0
70.2861,-51.97,-2.55129,0
70.3242,-51.8672,-2.56599,0
70.36,-51.7642,-2.58032,0
70.3934,-51.661,-2.59429,0
70.4243,-51.5578,-2.6079,0
70.4529,-51.4546,-2.62114,0
70.4792,-51.3514,-2.63403,0
70.5032,-51.2483,-2.64654,0
70.5248,-51.1453,-2.65869,0
70.5443,-51.0426,-2.67049,0
70.5616,-50.9401,-2.68191,0
70.583,-50.8404,-2.69187,0
70.6105,-50.7441,-2.70009,0
70.636,-50.6474,-2.70803,0
70.6595,-50.5505,-2.71566,0
70.681,-50.4534,-2.72299,0
70.7006,-50.3561,-2.73003,0
70.7182,-50.2586,-2.73675,0
70.7338,-50.161,-2.74318,0
70.7474,-50.0633,-2.74931,0
70.7599,-49.9658,-2.75501,0
70.7714,-49.8684,-2.76026,0
70.7811,-49.771,-2.7652,0
70.7888,-49.6735,-2.76984,0
70.7948,-49.5761,-2.77417,0
70.7988,-49.4788,-2.7782,0
70.8009,-49.3815,-2.78193,0
70.8011,-49.2843,-2.78534,0
70.7995,-49.1873,-2.78847,0
70.796,-49.0905,-2.79128,0
70.7907,-48.9938,-2.79379,0
70.7837,-48.8974,-2.79599,0
70.7747,-48.8013,-2.7979,0
70.7639,-48.7054,-2.79949,0
70.7514,-48.6099,-2.80079,0
70.737,-48.5147,-2.80178,0
70.7209,-48.4199,-2.80248,0
70.71,-48.3243,-2.80185,0
70.698,-48.2287,-2.80082,0
70.6842,-48.1332,-2.79949,0
70.6685,-48.0379,-2.79786,0
70.6509,-47.9428,-2.79593,0
70.6315,-47.8479,-2.7937,0
70.6102,-47.7533,-2.79117,0
70.5872,-47.659,-2.78834,0
70.5621,-47.565,-2.7852,0
70.5353,-47.4713,-2.78176,0
70.5066,-47.378,-2.77802,0
70.4761,-47.2852,-2.77398,0
70.4437,-47.1928,-2.76963,0
70.4094,-47.1009,-2.76497,0
70.3733,-47.0095,-2.76002,0
70.3353,-46.9187,-2.75475,0
70.2955,-46.8284,-2.74919,0
70.2538,-46.7388,-2.74332,0
70.2103,-46.6498,-2.73715,0
70.165,-46.5616,-2.73068,0
70.1178,-46.474,-2.7239,0
70.0688,-46.3873,-2.71682,0
70.018,-46.3013,-2.70944,0
69.9655,-46.2162,-2.70176,0
69.911,-46.132,-2.69379,0
69.8545,-46.0488,-2.68556,0
69.7945,-45.9682,-2.67741,0
69.74,-45.8821,-2.66739,0
69.6881,-45.7923,-2.65599,0
69.6339,-45.7033,-2.64427,0
69.5774,-45.6152,-2.63227,0
69.5187,-45.528,-2.61994,0
69.4577,-45.4418,-2.60733,0
69.3943,-45.3566,-2.59441,0
69.3288,-45.2726,-2.58121,0
69.2609,-45.1898,-2.56771,0
69.1907,-45.1082,-2.55394,0
69.1183,-45.0281,-2.53988,0
69.0437,-44.9494,-2.52555,0
68.9668,-44.8722,-2.51097,0
68.8878,-44.7966,-2.49611,0
68.8066,-44.7226,-2.48101,0
68.7234,-44.6504,-2.46566,0
68.638,-44.5801,-2.45007,0
68.5505,-44.5116,-2.43425,0
69.4741,-53.2902,-2.32439,0
69.5527,-53.2054,-2.34155,0
69.6286,-53.1188,-2.35855,0
69.702,-53.0306,-2.37537,0
69.7729,-52.9407,-2.392,0
69.8411,-52.8494,-2.40843,0
69.9048,-52.7546,-2.42522,0
69.9625,-52.6555,-2.44262,0
70.0177,-52.5557,-2.4597,0
70.0702,-52.4552,-2.47643,0
70.1203,-52.3541,-2.49281,0
70.1679,-52.2525,-2.50885,0
70.2129,-52.1505,-2.52453,0
70.2554,-52.0482,-2.53986,0
70.2955,-51.9455,-2.55483,0
70.333,-51.8426,-2.56944,0
70.3682,-51.7396,-2.58369,0
70.4009,-51.6364,-2.59757,0
70.4313,-51.5332,-2.6111,0
70.4594,-51.43,-2.62425,0
70.4851,-51.3268,-2.63705,0
70.5085,-51.2237,-2.64948,0
70.5297,-51.1208,-2.66154,0
70.5486,-51.0181,-2.67324,0
70.5653,-50.9156,-2.68458,0
70.5897,-50.8175,-2.69386,0
70.6167,-50.7211,-2.70202,0
70.6417,-50.6243,-2.70987,0
70.6648,-50.5274,-2.71744,0
70.6859,-50.4302,-2.72469,0
70.705,-50.3328,-2.73165,0
70.7221,-50.2353,-2.73832,0
70.7372,-50.1377,-2.74467,0
70.7504,-50.04,-2.75072,0
70.7628,-49.9426,-2.75629,0
70.7739,-49.8452,-2.76146,0
70.7831,-49.7477,-2.76633,0
70.7905,-49.6503,-2.77091,0
70.7959,-49.5529,-2.77516,0
70.7994,-49.4556,-2.77912,0
70.8011,-49.3583,-2.78277,0
70.8009,-49.2612,-2.78612,0
70.7988,-49.1642,-2.78917,0
70.7949,-49.0674,-2.79191,0
70.7892,-48.9708,-2.79434,0
70.7817,-48.8744,-2.79648,0
70.7723,-48.7784,-2.79831,0
70.7611,-48.6826,-2.79983,0
70.748,-48.5871,-2.80105,0
70.7333,-48.492,-2.80197,0
70.7179,-48.3971,-2.80243,0
70.7073,-48.3015,-2.80162,0
70.6949,-48.2059,-2.80053,0
70.6805,-48.1105,-2.79913,0
70.6645,-48.0152,-2.79743,0
70.6465,-47.9202,-2.79543,0
70.6266,-47.8253,-2.79313,0
70.6048,-47.7308,-2.79053,0
70.5813,-47.6365,-2.78762,0
70.5559,-47.5426,-2.78441,0
70.5287,-47.449,-2.78089,0
70.4995,-47.3559,-2.77708,0
70.4685,-47.2631,-2.77296,0
70.4357,-47.1708,-2.76854,0
70.4009,-47.079,-2.76382,0
70.3644,-46.9878,-2.75879,0
70.326,-46.8971,-2.75344,0
70.2857,-46.807,-2.74781,0
70.2437,-46.7175,-2.74187,0
70.1997,-46.6287,-2.73563,0
70.1539,-46.5406,-2.72908,0
70.1062,-46.4533,-2.72224,0
70.0569,-46.3667,-2.71509,0
70.0056,-46.2809,-2.70764,0
69.9527,-46.196,-2.69988,0
69.8977,-46.112,-2.69184,0
69.8407,-46.0292,-2.68355,0
69.7795,-45.9496,-2.67553,0
69.7279,-45.8606,-2.6647,0
69.6754,-45.771,-2.65322,0
69.6206,-45.6822,-2.64144,0
69.5637,-45.5943,-2.62935,0
69.5044,-45.5073,-2.61696,0
69.4428,-45.4214,-2.60426,0
69.3788,-45.3365,-2.59129,0
69.3127,-45.2527,-2.578,0
69.2443,-45.1702,-2.56445,0
69.1736,-45.089,-2.55061,0
