47.0991,-42.5859,0.044593,0
47.1755,-42.5837,0.0397785,0
47.2517,-42.5798,0.0349836,0
47.3278,-42.5741,0.0301887,0
47.4038,-42.5666,0.0254328,0
47.4796,-42.5574,0.0207063,0
47.5551,-42.5465,0.0159992,0
47.6302,-42.5338,0.0113313,0
47.7048,-42.5176,0.00598946,0
47.7786,-42.4991,0.000491409,0
47.852,-42.479,-0.00494804,0
47.9248,-42.4573,-0.0103387,0
47.9971,-42.4339,-0.0156707,0
48.0687,-42.4089,-0.0209539,0
48.1397,-42.3823,-0.0261687,0
48.21,-42.3542,-0.0313152,0
48.2795,-42.3244,-0.0364129,0
48.3483,-42.2932,-0.0414324,0
48.4162,-42.2604,-0.0463836,0
48.4834,-42.2262,-0.0512566,0
48.5497,-42.1905,-0.0560613,0
48.6152,-42.1533,-0.0607977,0
48.6796,-42.1147,-0.0654559,0
48.7433,-42.0747,-0.0700262,0
48.8059,-42.0333,-0.0745184,0
48.8674,-41.9906,-0.0789227,0
48.928,-41.9465,-0.0832391,0
48.9874,-41.9012,-0.0874676,0
49.0459,-41.8545,-0.0916082,0
49.1032,-41.8067,-0.0956512,0
49.1595,-41.7575,-0.0996062,0
49.2144,-41.7072,-0.103464,0
49.2683,-41.6558,-0.107223,0
49.3209,-41.6031,-0.110886,0
49.3723,-41.5494,-0.11445,0
49.4226,-41.4946,-0.117917,0
49.4714,-41.4387,-0.121276,0
49.5191,-41.3818,-0.124518,0
49.5654,-41.3239,-0.127673,0
49.6104,-41.265,-0.13072,0
49.6541,-41.2052,-0.133649,0
49.6963,-41.1445,-0.136471,0
49.7372,-41.083,-0.139196,0
49.7767,-41.0205,-0.141794,0
49.8154,-40.9576,-0.144059,0
49.853,-40.8941,-0.14611,0
49.8891,-40.8298,-0.148034,0
49.9238,-40.7648,-0.14985,0
49.957,-40.699,-0.15154,0
49.9889,-40.6325,-0.153112,0
50.0193,-40.5653,-0.154577,0
50.0481,-40.4976,-0.155905,0
50.0755,-40.4292,-0.157116,0
50.1014,-40.3602,-0.15822,0
50.1255,-40.2907,-0.159274,0
50.1478,-40.2205,-0.160348,0
50.1684,-40.1498,-0.161286,0
50.1877,-40.0788,-0.162087,0
50.2053,-40.0074,-0.162751,0
50.2216,-39.9356,-0.163278,0
50.2362,-39.8636,-0.163649,0
50.2493,-39.7912,-0.163903,0
50.2609,-39.7186,-0.164011,0
50.2709,-39.6458,-0.163981,0
50.2795,-39.5728,-0.163805,0
50.2864,-39.4996,-0.163503,0
45.2518,-42.0477,0.16056,0
45.3163,-42.0893,0.156556,0
45.3818,-42.1294,0.152493,0
45.4481,-42.1679,0.148392,0
45.5154,-42.2049,0.144232,0
45.5835,-42.2403,0.140023,0
45.6523,-42.2742,0.135775,0
45.7221,-42.3064,0.131488,0
45.7925,-42.337,0.127161,0
45.8636,-42.3659,0.122796,0
45.9353,-42.3932,0.118402,0
46.0077,-42.4187,0.113978,0
46.0805,-42.4426,0.109515,0
46.1541,-42.4648,0.105032,0
46.2281,-42.4848,0.100316,0
46.3027,-42.5028,0.0954816,0
46.3776,-42.519,0.0906379,0
46.4529,-42.5335,0.0857941,0
46.5284,-42.5463,0.0809309,0
46.6042,-42.5573,0.0760676,0
46.6802,-42.5666,0.0712043,0
46.7563,-42.574,0.066341,0
46.8327,-42.5798,0.0614777,0
46.9091,-42.5837,0.0566242,0
46.9855,-42.5859,0.0517707,0
47.0619,-42.5864,0.0469367,0
47.1384,-42.585,0.0421125,0
47.2147,-42.5819,0.0373078,0
47.2909,-42.5771,0.0325129,0
47.367,-42.5705,0.0277473,0
47.4428,-42.5621,0.0230012,0
47.5184,-42.552,0.0182844,0
47.5938,-42.5402,0.0135969,0
47.6687,-42.5259,0.008675,0
47.7428,-42.5083,0.00315742,0
47.8165,-42.489,-0.00231132,0
47.8895,-42.468,-0.00772148,0
47.962,-42.4454,-0.0130926,0
48.034,-42.4212,-0.0183953,0
48.1053,-42.3954,-0.0236394,0
48.1759,-42.368,-0.028825,0
48.2458,-42.3391,-0.0339422,0
48.3149,-42.3086,-0.0390008,0
48.3833,-42.2765,-0.0439812,0
48.4509,-42.243,-0.0489031,0
48.5176,-42.208,-0.0537469,0
48.5835,-42.1715,-0.0585125,0
48.6484,-42.1336,-0.0632098,0
48.7125,-42.0943,-0.0678094,0
48.7755,-42.0536,-0.0723406,0
48.8377,-42.0115,-0.0767937,0
48.8987,-41.9681,-0.0811492,0
48.9587,-41.9234,-0.0854266,0
49.0177,-41.8774,-0.0896062,0
49.0755,-41.8301,-0.093698,0
49.1322,-41.7816,-0.0976922,0
49.1879,-41.7318,-0.101598,0
49.2423,-41.6809,-0.105407,0
49.2955,-41.6288,-0.109118,0
49.3476,-41.5756,-0.112741,0
49.3983,-41.5213,-0.116247,0
49.4478,-41.466,-0.119655,0
49.4961,-41.4096,-0.122956,0
49.543,-41.3522,-0.126159,0
49.5887,-41.2938,-0.129255,0
49.633,-41.2344,-0.132233,0
49.6759,-41.1741,-0.135114,0
49.7175,-41.113,-0.137887,0
49.7577,-41.051,-0.140544,0
49.7966,-40.9882,-0.143024,0
49.8348,-40.9251,-0.145124,0
49.8717,-40.8612,-0.147116,0
49.907,-40.7964,-0.148991,0
49.9411,-40.731,-0.150739,0
49.9737,-40.6649,-0.15237,0
50.0047,-40.598,-0.153884,0
50.0344,-40.5306,-0.15527,0
50.0625,-40.4625,-0.15655,0
50.0891,-40.3938,-0.157702,0
50.1142,-40.3246,-0.158727,0
50.1372,-40.2546,-0.159831,0
50.1586,-40.1842,-0.160846,0
50.1786,-40.1134,-0.161716,0
50.197,-40.0421,-0.162448,0
50.2138,-39.9705,-0.163034,0
50.2292,-39.8986,-0.163493,0
50.2431,-39.8264,-0.163796,0
50.2554,-39.7539,-0.163971,0
50.2663,-39.6812,-0.164011,0
50.2755,-39.6083,-0.163913,0
50.2832,-39.5352,-0.163669,0
50.2893,-39.4619,-0.163288,0
45.2849,-42.0693,0.158509,0
45.3499,-42.1101,0.154476,0
45.4158,-42.1494,0.150384,0
45.4827,-42.1872,0.146253,0
45.5504,-42.2233,0.142073,0
45.6188,-42.2579,0.137845,0
45.6881,-42.2909,0.133568,0
45.7582,-42.3223,0.129271,0
45.829,-42.352,0.124925,0
45.9004,-42.3801,0.12054,0
45.9724,-42.4065,0.116136,0
46.0451,-42.4312,0.111693,0
46.1183,-42.4542,0.10721,0
46.192,-42.4754,0.10265,0
46.2664,-42.4942,0.0978352,0
46.3411,-42.5113,0.0930012,0
46.4162,-42.5267,0.0881477,0
46.4916,-42.5403,0.0832941,0
46.5673,-42.5522,0.0784309,0
46.6432,-42.5623,0.0735676,0
46.7193,-42.5706,0.0687043,0
46.7956,-42.5772,0.063841,0
46.8719,-42.582,0.0589777,0
46.9484,-42.5851,0.0541242,0
47.0248,-42.5864,0.0492902,0
47.1012,-42.5859,0.0444465,0
47.1777,-42.5837,0.0396418,0
47.2539,-42.5796,0.0348371,0
47.33,-42.5739,0.0300617,0
47.406,-42.5664,0.0253059,0
47.4817,-42.5571,0.0205695,0
47.5573,-42.5461,0.0158625,0
47.6324,-42.5334,0.0111848,0
47.7069,-42.5171,0.00583321,0
47.7807,-42.4986,0.000344925,0
47.8541,-42.4784,-0.00510429,0
47.927,-42.4566,-0.0104949,0
47.9991,-42.4332,-0.0158269,0
48.0707,-42.4082,-0.0211004,0
48.1416,-42.3815,-0.0263152,0
48.212,-42.3533,-0.0314715,0
48.2815,-42.3236,-0.0365594,0
48.3502,-42.2923,-0.0415789,0
48.4181,-42.2595,-0.0465301,0
48.4853,-42.2252,-0.0514031,0
48.5516,-42.1894,-0.0562078,0
48.617,-42.1522,-0.0609344,0
48.6815,-42.1136,-0.0655828,0
48.745,-42.0735,-0.0701531,0
48.8076,-42.0321,-0.0746453,0
48.8691,-41.9894,-0.0790398,0
48.9297,-41.9453,-0.0833562,0
48.9891,-41.8999,-0.0875848,0
49.0476,-41.8532,-0.0917156,0
49.1048,-41.8053,-0.0957684,0
49.161,-41.7561,-0.0997137,0
49.216,-41.7058,-0.103571,0
49.2698,-41.6543,-0.107331,0
49.3224,-41.6016,-0.110983,0
49.3738,-41.5479,-0.114548,0
49.4239,-41.493,-0.118014,0
49.4728,-41.4371,-0.121364,0
49.5205,-41.3802,-0.124616,0
49.5666,-41.3222,-0.127761,0
49.6116,-41.2634,-0.130798,0
49.6552,-41.2035,-0.133737,0
49.6975,-41.1428,-0.13655,0
49.7384,-41.0812,-0.139264,0
49.7778,-41.0187,-0.141862,0
49.8164,-40.9558,-0.144118,0
49.854,-40.8923,-0.146169,0
49.8901,-40.828,-0.148093,0
49.9248,-40.7629,-0.149899,0
49.958,-40.6971,-0.151589,0
49.9898,-40.6306,-0.153161,0
50.0201,-40.5634,-0.154616,0
50.049,-40.4956,-0.155944,0
50.0763,-40.4272,-0.157155,0
50.1022,-40.3582,-0.158249,0
50.1262,-40.2887,-0.159304,0
50.1484,-40.2185,-0.160368,0
50.1691,-40.1478,-0.161305,0
50.1882,-40.0768,-0.162106,0
50.2059,-40.0054,-0.162761,0
50.222,-39.9336,-0.163278,0
50.2366,-39.8615,-0.163669,0
50.2497,-39.7892,-0.163913,0
50.2612,-39.7166,-0.164011,0
50.2712,-39.6437,-0.163981,0
50.2797,-39.5707,-0.163805,0
50.2866,-39.4975,-0.163493,0
45.3211,-42.0086,0.156517,0
45.3847,-42.0486,0.152581,0
45.4493,-42.0871,0.148568,0
45.5146,-42.1241,0.144534,0
45.5809,-42.1596,0.140433,0
45.6479,-42.1935,0.136302,0
45.7158,-42.2258,0.132122,0
45.7843,-42.2566,0.127913,0
45.8535,-42.2858,0.123655,0
45.9235,-42.3133,0.119368,0
45.994,-42.3392,0.115042,0
46.0651,-42.3634,0.110696,0
46.1367,-42.386,0.106321,0
46.2089,-42.4069,0.101927,0
46.2816,-42.4257,0.097298,0
46.3548,-42.4425,0.0925617,0
46.4283,-42.4576,0.0878254,0
46.5021,-42.471,0.0830793,0
46.5762,-42.4827,0.0783039,0
46.6505,-42.4926,0.0735578,0
46.7251,-42.5009,0.0687922,0
46.7997,-42.5074,0.0640168,0
46.8744,-42.5122,0.0592609,0
46.9493,-42.5152,0.0545051,0
47.0241,-42.5166,0.0497688,0
47.0989,-42.5162,0.0450422,0
47.1737,-42.5141,0.0403254,0
47.2484,-42.5102,0.0356281,0
47.323,-42.5047,0.0309406,0
47.3973,-42.4974,0.0262824,0
47.4716,-42.4884,0.0216535,0
47.5454,-42.4777,0.0170441,0
47.6191,-42.4653,0.0124738,0
47.6921,-42.4498,0.00737617,0
47.7645,-42.4319,0.00200508,0
47.8364,-42.4122,-0.00333672,0
47.9077,-42.391,-0.00861015,0
47.9785,-42.3682,-0.0138445,0
48.0486,-42.3437,-0.0190105,0
48.1181,-42.3178,-0.0241277,0
48.187,-42.2903,-0.0291766,0
48.2552,-42.2612,-0.0341668,0
48.3226,-42.2307,-0.0390887,0
48.3892,-42.1987,-0.0439324,0
48.455,-42.1652,-0.0487176,0
48.52,-42.1302,-0.0534344,0
48.5841,-42.0939,-0.058073,0
48.6473,-42.0561,-0.0626336,0
48.7096,-42.017,-0.067116,0
48.771,-41.9765,-0.0715105,0
48.8313,-41.9347,-0.075827,0
48.8907,-41.8916,-0.0800555,0
48.9491,-41.8472,-0.0842059,0
49.0063,-41.8016,-0.0882684,0
49.0626,-41.7547,-0.0922332,0
49.1176,-41.7066,-0.0961102,0
49.1716,-41.6574,-0.0998894,0
49.2244,-41.607,-0.103591,0
49.276,-41.5555,-0.107175,0
49.3264,-41.5029,-0.110671,0
49.3756,-41.4492,-0.114059,0
49.4235,-41.3945,-0.11736,0
49.4703,-41.3387,-0.120554,0
49.5157,-41.2821,-0.123639,0
49.5598,-41.2244,-0.126628,0
49.6027,-41.1658,-0.129499,0
49.6441,-41.1064,-0.132272,0
49.6842,-41.0461,-0.134929,0
49.7232,-40.985,-0.137409,0
49.7613,-40.9236,-0.139538,0
49.7982,-40.8613,-0.14154,0
49.8337,-40.7983,-0.143425,0
49.8677,-40.7345,-0.145212,0
49.9003,-40.6701,-0.146872,0
49.9315,-40.6049,-0.148415,0
49.9613,-40.5391,-0.149841,0
49.9896,-40.4727,-0.151149,0
50.0165,-40.4057,-0.152341,0
50.0419,-40.3381,-0.153415,0
50.0658,-40.27,-0.154372,0
50.0882,-40.2014,-0.155202,0
50.1091,-40.1323,-0.155915,0
50.1282,-40.0627,-0.156618,0
50.1455,-39.9927,-0.157272,0
50.1615,-39.9223,-0.15779,0
50.1758,-39.8516,-0.158151,0
50.1887,-39.7807,-0.158395,0
50.2001,-39.7095,-0.158512,0
50.2098,-39.638,-0.158473,0
50.2182,-39.5664,-0.158317,0
50.2251,-39.4946,-0.158005,0
45.2905,-41.9886,0.158421,0
45.3537,-42.0293,0.154495,0
45.4178,-42.0686,0.15053,0
45.4827,-42.1063,0.146497,0
45.5486,-42.1425,0.142435,0
45.6153,-42.1772,0.138314,0
45.6827,-42.2103,0.134163,0
45.7509,-42.2419,0.129964,0
45.8198,-42.2718,0.125716,0
45.8895,-42.3001,0.121448,0
45.9597,-42.3268,0.117152,0
46.0305,-42.3519,0.112816,0
46.1019,-42.3752,0.10845,0
46.1738,-42.397,0.104066,0
46.2462,-42.4169,0.099593,0
46.3192,-42.4345,0.0948664,0
46.3926,-42.4505,0.0901301,0
46.4662,-42.4647,0.085384,0
46.5402,-42.4772,0.0806281,0
46.6144,-42.488,0.0758625,0
46.6887,-42.4971,0.0710969,0
46.7634,-42.5044,0.0663313,0
46.838,-42.5101,0.0615754,0
46.9129,-42.514,0.0568195,0
46.9877,-42.5161,0.0520734,0
47.0626,-42.5166,0.0473371,0
47.1374,-42.5153,0.0426203,0
47.2122,-42.5123,0.0379035,0
47.2867,-42.5076,0.033216,0
47.3612,-42.5011,0.0285383,0
47.4355,-42.493,0.0238996,0
47.5096,-42.4831,0.0192707,0
47.5834,-42.4715,0.0146809,0
47.6568,-42.458,0.0100031,0
47.7294,-42.4408,0.00460274,0
47.8016,-42.422,-0.000748825,0
47.8731,-42.4015,-0.00606132,0
47.9442,-42.3794,-0.0113055,0
48.0146,-42.3558,-0.0165105,0
48.0845,-42.3306,-0.0216473,0
48.1537,-42.3038,-0.0267352,0
48.2221,-42.2755,-0.0317449,0
48.2899,-42.2457,-0.0366961,0
48.357,-42.2144,-0.0415887,0
48.4231,-42.1816,-0.0464129,0
48.4885,-42.1474,-0.051159,0
48.553,-42.1117,-0.0558269,0
48.6167,-42.0746,-0.0604266,0
48.6795,-42.0362,-0.0649383,0
48.7413,-41.9964,-0.0693816,0
48.8021,-41.9552,-0.0737371,0
48.862,-41.9127,-0.0780144,0
48.9209,-41.869,-0.0822039,0
48.9787,-41.8239,-0.0863055,0
49.0353,-41.7776,-0.0903191,0
49.091,-41.7301,-0.0942449,0
49.1455,-41.6815,-0.0980633,0
49.1989,-41.6316,-0.101804,0
49.251,-41.5806,-0.105446,0
49.3021,-41.5286,-0.108981,0
49.3519,-41.4754,-0.112429,0
49.4004,-41.4212,-0.115768,0
49.4477,-41.3659,-0.119011,0
49.4938,-41.3097,-0.122155,0
49.5385,-41.2525,-0.125192,0
49.582,-41.1944,-0.128112,0
49.6241,-41.1354,-0.130934,0
49.6649,-41.0754,-0.133659,0
49.7043,-41.0147,-0.136257,0
49.743,-40.9535,-0.138512,0
49.7805,-40.8917,-0.140573,0
49.8166,-40.829,-0.142526,0
49.8512,-40.7656,-0.144362,0
49.8846,-40.7015,-0.146081,0
49.9166,-40.6367,-0.147673,0
49.947,-40.5711,-0.149157,0
49.9761,-40.505,-0.150524,0
50.0037,-40.4383,-0.151774,0
50.0298,-40.371,-0.152917,0
50.0544,-40.3031,-0.153913,0
50.0776,-40.2348,-0.154802,0
50.0991,-40.1659,-0.155583,0
50.1192,-40.0966,-0.156247,0
50.1373,-40.0267,-0.15697,0
50.1539,-39.9565,-0.157546,0
50.169,-39.886,-0.157995,0
50.1826,-39.8152,-0.158307,0
50.1947,-39.7441,-0.158473,0
50.2052,-39.6728,-0.158512,0
50.2144,-39.6012,-0.158405,0
50.222,-39.5295,-0.158171,0
50.228,-39.4577,-0.1578,0
45.3229,-42.0097,0.156409,0
45.3866,-42.0497,0.152454,0
45.4511,-42.0882,0.14846,0
45.5165,-42.1251,0.144407,0
45.5828,-42.1606,0.140316,0
45.6499,-42.1944,0.136185,0
45.7177,-42.2267,0.132005,0
45.7862,-42.2575,0.127786,0
45.8555,-42.2866,0.123529,0
45.9255,-42.314,0.119241,0
45.996,-42.3399,0.114915,0
46.0671,-42.3641,0.110579,0
46.1387,-42.3866,0.106195,0
46.2109,-42.4075,0.10179,0
46.2837,-42.4262,0.0971711,0
46.3569,-42.4429,0.0924348,0
46.4304,-42.458,0.0876789,0
46.5042,-42.4713,0.0829328,0
46.5783,-42.483,0.078177,0
46.6527,-42.4929,0.0734113,0
46.7272,-42.5011,0.0686457,0
46.8018,-42.5075,0.0638801,0
46.8765,-42.5123,0.0591242,0
46.9514,-42.5153,0.0543781,0
47.0262,-42.5166,0.049632,0
47.101,-42.5161,0.0449055,0
47.1759,-42.514,0.0401887,0
47.2505,-42.5101,0.0354914,0
47.3252,-42.5045,0.0308039,0
47.3995,-42.4971,0.0261457,0
47.4737,-42.4881,0.0215168,0
47.5476,-42.4774,0.0169172,0
47.6212,-42.4649,0.0123371,0
47.6942,-42.4494,0.00721992,0
47.7666,-42.4313,0.00183907,0
47.8384,-42.4116,-0.0034832,0
47.9098,-42.3904,-0.0087664,0
47.9805,-42.3675,-0.0139812,0
48.0506,-42.343,-0.0191668,0
48.1202,-42.317,-0.0242742,0
48.1889,-42.2895,-0.0293133,0
48.2571,-42.2604,-0.0343035,0
48.3245,-42.2298,-0.0392254,0
48.3911,-42.1977,-0.0440789,0
48.4569,-42.1642,-0.0488641,0
48.5218,-42.1292,-0.0535711,0
48.5859,-42.0928,-0.0582,0
48.6491,-42.055,-0.0627605,0
48.7113,-42.0159,-0.0672332,0
48.7727,-41.9754,-0.0716277,0
48.833,-41.9335,-0.0759441,0
48.8924,-41.8904,-0.0801824,0
48.9507,-41.8459,-0.0843328,0
49.008,-41.8003,-0.0883758,0
49.0641,-41.7534,-0.0923406,0
49.1191,-41.7052,-0.0962176,0
49.173,-41.656,-0.100007,0
49.2259,-41.6055,-0.103688,0
49.2774,-41.554,-0.107272,0
49.3278,-41.5014,-0.110759,0
49.377,-41.4476,-0.114157,0
49.4249,-41.3929,-0.117448,0
49.4716,-41.3372,-0.120641,0
49.517,-41.2804,-0.123727,0
49.5611,-41.2228,-0.126706,0
49.6038,-41.1642,-0.129587,0
49.6453,-41.1047,-0.13235,0
49.6853,-41.0443,-0.135016,0
49.7243,-40.9833,-0.137477,0
49.7624,-40.9218,-0.139587,0
49.7992,-40.8596,-0.141589,0
49.8346,-40.7965,-0.143483,0
49.8686,-40.7327,-0.145261,0
49.9012,-40.6682,-0.146911,0
49.9324,-40.603,-0.148454,0
49.9621,-40.5372,-0.14988,0
49.9904,-40.4708,-0.151188,0
50.0172,-40.4037,-0.15238,0
50.0426,-40.3361,-0.153444,0
50.0665,-40.268,-0.154391,0
50.0888,-40.1994,-0.155221,0
50.1097,-40.1303,-0.155934,0
50.1287,-40.0607,-0.156637,0
50.146,-39.9907,-0.157282,0
50.1618,-39.9203,-0.15779,0
50.1762,-39.8496,-0.158171,0
50.189,-39.7786,-0.158405,0
50.2004,-39.7074,-0.158512,0
50.2102,-39.636,-0.158473,0
50.2184,-39.5644,-0.158307,0
50.2252,-39.4926,-0.158005,0
45.3578,-41.9512,0.154495,0
45.4202,-41.9904,0.150628,0
45.4834,-42.0281,0.146712,0
45.5473,-42.0643,0.142747,0
45.6122,-42.0991,0.138743,0
45.6779,-42.1323,0.134691,0
45.7443,-42.1639,0.130599,0
45.8115,-42.1941,0.126478,0
45.8792,-42.2226,0.122308,0
45.9477,-42.2496,0.118109,0
46.0168,-42.275,0.11389,0
46.0863,-42.2987,0.109622,0
46.1566,-42.3208,0.105335,0
46.2272,-42.3413,0.101029,0
46.2983,-42.36,0.0966633,0
46.37,-42.3765,0.0920246,0
46.442,-42.3913,0.0873762,0
46.5142,-42.4045,0.0827277,0
46.5869,-42.4159,0.0780598,0
46.6596,-42.4257,0.0734016,0
46.7326,-42.4338,0.0687336,0
46.8057,-42.4402,0.0640656,0
46.8789,-42.4449,0.0594074,0
46.9522,-42.448,0.054759,0
47.0255,-42.4493,0.0501105,0
47.0987,-42.4489,0.0454719,0
47.172,-42.4469,0.0408527,0
47.2452,-42.4431,0.0362531,0
47.3183,-42.4377,0.0316633,0
47.3911,-42.4306,0.0271027,0
47.4637,-42.4218,0.0225617,0
47.5362,-42.4114,0.01805,0
47.6083,-42.3992,0.0135676,0
47.6799,-42.3845,0.00871406,0
47.7508,-42.3669,0.00344063,0
47.8213,-42.3478,-0.00178398,0
47.8912,-42.327,-0.00695976,0
47.9605,-42.3047,-0.0120769,0
48.0293,-42.2809,-0.0171453,0
48.0974,-42.2555,-0.0221551,0
48.1649,-42.2286,-0.0271062,0
48.2317,-42.2002,-0.0319988,0
48.2977,-42.1703,-0.036823,0
48.363,-42.139,-0.0415789,0
48.4276,-42.1063,-0.0462664,0
48.4912,-42.0721,-0.0508953,0
48.5541,-42.0365,-0.0554363,0
48.6162,-41.9996,-0.0598992,0
48.6772,-41.9613,-0.0642937,0
48.7373,-41.9217,-0.0686102,0
48.7966,-41.8808,-0.0728387,0
48.8548,-41.8386,-0.0769891,0
48.912,-41.7951,-0.0810613,0
48.968,-41.7504,-0.0850457,0
49.0232,-41.7046,-0.0889324,0
49.0773,-41.6575,-0.0927312,0
49.1302,-41.6093,-0.0964422,0
49.182,-41.5599,-0.100065,0
49.2326,-41.5095,-0.103591,0
49.282,-41.4579,-0.107018,0
49.3303,-41.4053,-0.110348,0
49.3773,-41.3518,-0.113581,0
49.4232,-41.2972,-0.116716,0
49.4677,-41.2416,-0.119743,0
49.511,-41.1851,-0.122673,0
49.553,-41.1278,-0.125495,0
49.5937,-41.0695,-0.12821,0
49.633,-41.0104,-0.130827,0
49.6717,-40.9509,-0.133063,0
49.7091,-40.8906,-0.135163,0
49.7452,-40.8296,-0.137126,0
49.78,-40.7678,-0.138981,0
49.8134,-40.7053,-0.14072,0
49.8455,-40.6421,-0.14235,0
49.8761,-40.5783,-0.143874,0
49.9052,-40.5137,-0.14527,0
49.933,-40.4486,-0.146559,0
49.9594,-40.3829,-0.147721,0
49.9844,-40.3167,-0.148766,0
50.0078,-40.2499,-0.149714,0
50.0298,-40.1826,-0.150524,0
50.0502,-40.1149,-0.151227,0
50.0692,-40.0467,-0.151813,0
50.0868,-39.9782,-0.152272,0
50.1029,-39.9093,-0.152614,0
50.1173,-39.84,-0.152848,0
50.13,-39.7704,-0.153083,0
50.1412,-39.7006,-0.15319,0
50.1509,-39.6305,-0.153151,0
50.1591,-39.5603,-0.152995,0
50.1657,-39.4898,-0.152692,0
45.3279,-41.9317,0.156351,0
45.3898,-41.9715,0.152513,0
45.4525,-42.01,0.148626,0
45.5162,-42.0469,0.144681,0
45.5806,-42.0824,0.140696,0
45.6459,-42.1164,0.136673,0
45.712,-42.1488,0.132591,0
45.7787,-42.1796,0.128489,0
45.8462,-42.209,0.124339,0
45.9144,-42.2367,0.12015,0
45.9831,-42.2628,0.115941,0
46.0525,-42.2874,0.111702,0
46.1224,-42.3103,0.107425,0
46.1928,-42.3316,0.103128,0
46.2637,-42.3512,0.098802,0
46.3351,-42.3687,0.0942805,0
46.407,-42.3843,0.089632,0
46.4791,-42.3983,0.0849836,0
46.5516,-42.4106,0.0803254,0
46.6242,-42.4212,0.0756574,0
46.6971,-42.4301,0.0709895,0
46.7702,-42.4373,0.0663313,0
46.8434,-42.4429,0.0616633,0
46.9166,-42.4467,0.0570148,0
46.9899,-42.4488,0.0523566,0
47.0632,-42.4493,0.0477277,0
47.1365,-42.4481,0.0430988,0
47.2097,-42.4451,0.0384797,0
47.2828,-42.4405,0.0338801,0
47.3557,-42.4342,0.0293195,0
47.4285,-42.4263,0.0247688,0
47.501,-42.4166,0.0202375,0
47.5734,-42.4053,0.0157355,0
47.6452,-42.3924,0.0112727,0
47.7164,-42.3756,0.00598946,0
47.7872,-42.3573,0.000745316,0
47.8573,-42.3373,-0.00445,0
47.927,-42.3158,-0.00959648,0
47.996,-42.2927,-0.0146941,0
48.0644,-42.268,-0.0197332,0
48.1323,-42.2419,-0.0247137,0
48.1994,-42.2142,-0.0296258,0
48.2658,-42.185,-0.0344891,0
48.3314,-42.1544,-0.0392742,0
48.3963,-42.1224,-0.0440008,0
48.4605,-42.0889,-0.0486492,0
48.5237,-42.054,-0.0532293,0
48.5861,-42.0177,-0.057741,0
48.6477,-41.9801,-0.0621746,0
48.7083,-41.9411,-0.0665203,0
48.7679,-41.9008,-0.0707977,0
48.8266,-41.8592,-0.0749871,0
48.8843,-41.8164,-0.0790984,0
48.9409,-41.7723,-0.0831121,0
48.9966,-41.727,-0.0870574,0
49.0512,-41.6805,-0.0909051,0
49.1046,-41.6328,-0.0946551,0
49.157,-41.584,-0.0983172,0
49.2081,-41.5341,-0.101891,0
49.2581,-41.4831,-0.105368,0
49.307,-41.431,-0.108747,0
49.3546,-41.3779,-0.112028,0
49.4011,-41.3238,-0.115202,0
49.4462,-41.2687,-0.118278,0
49.4902,-41.2127,-0.121257,0
49.5327,-41.1558,-0.124128,0
49.5741,-41.0979,-0.126901,0
49.6141,-41.0392,-0.129567,0
49.653,-40.9799,-0.132018,0
49.6912,-40.92,-0.134157,0
49.7279,-40.8594,-0.136179,0
49.7633,-40.798,-0.138093,0
49.7973,-40.7358,-0.139889,0
49.8301,-40.6729,-0.141579,0
49.8614,-40.6094,-0.143141,0
49.8913,-40.5452,-0.144606,0
49.9198,-40.4803,-0.145944,0
49.9468,-40.4149,-0.147165,0
49.9723,-40.3489,-0.148278,0
49.9966,-40.2824,-0.149274,0
50.0193,-40.2154,-0.150143,0
50.0405,-40.1479,-0.150895,0
50.0602,-40.0799,-0.15154,0
50.0785,-40.0115,-0.152067,0
50.0952,-39.9428,-0.152468,0
50.1105,-39.8737,-0.152751,0
50.1241,-39.8043,-0.152975,0
50.1359,-39.7346,-0.153151,0
50.1463,-39.6646,-0.15319,0
50.1552,-39.5944,-0.153083,0
50.1627,-39.5241,-0.152858,0
50.1685,-39.4536,-0.152487,0
45.3596,-41.9524,0.154388,0
45.4219,-41.9915,0.150521,0
45.4852,-42.0292,0.146605,0
45.5491,-42.0653,0.14264,0
45.6141,-42.1,0.138626,0
45.6798,-42.1332,0.134583,0
45.7463,-42.1648,0.130491,0
45.8134,-42.1949,0.126351,0
45.8812,-42.2234,0.122191,0
45.9497,-42.2503,0.117991,0
46.0187,-42.2757,0.113763,0
46.0884,-42.2993,0.109495,0
46.1586,-42.3214,0.105218,0
46.2292,-42.3418,0.100902,0
46.3003,-42.3605,0.0965363,0
46.372,-42.377,0.0918977,0
46.4441,-42.3917,0.0872395,0
46.5163,-42.4048,0.082591,0
46.5889,-42.4162,0.0779328,0
46.6617,-42.426,0.0732648,0
46.7347,-42.434,0.0685969,0
46.8077,-42.4404,0.0639387,0
46.8809,-42.445,0.0592707,0
46.9542,-42.448,0.0546223,0
47.0276,-42.4493,0.0499738,0
47.1009,-42.4489,0.0453352,0
47.1741,-42.4468,0.0407258,0
47.2473,-42.443,0.0361164,0
47.3203,-42.4375,0.0315363,0
47.3932,-42.4304,0.0269758,0
47.4658,-42.4215,0.022425,0
47.5383,-42.411,0.017923,0
47.6103,-42.3989,0.0134309,0
47.682,-42.384,0.00855782,0
47.7528,-42.3664,0.00329414,0
47.8233,-42.3472,-0.00193047,0
47.8931,-42.3264,-0.00710625,0
47.9625,-42.3041,-0.0122234,0
48.0312,-42.2802,-0.0172918,0
48.0994,-42.2547,-0.0223016,0
48.1669,-42.2278,-0.0272527,0
48.2336,-42.1994,-0.0321355,0
48.2996,-42.1695,-0.0369598,0
48.3649,-42.1381,-0.0417156,0
48.4294,-42.1053,-0.0464031,0
48.4931,-42.0711,-0.0510125,0
48.5559,-42.0355,-0.0555535,0
48.6179,-41.9985,-0.0600262,0
48.6789,-41.9602,-0.0644207,0
48.7391,-41.9205,-0.0687371,0
48.7982,-41.8796,-0.0729656,0
48.8564,-41.8374,-0.077116,0
48.9136,-41.7939,-0.0811785,0
48.9698,-41.7491,-0.0851531,0
49.0248,-41.7032,-0.0890398,0
49.0788,-41.6561,-0.0928387,0
49.1317,-41.6078,-0.0965594,0
49.1834,-41.5585,-0.100173,0
49.234,-41.508,-0.103688,0
49.2834,-41.4564,-0.107116,0
49.3316,-41.4038,-0.110446,0
49.3787,-41.3502,-0.113669,0
49.4245,-41.2956,-0.116794,0
49.4689,-41.24,-0.119831,0
49.5122,-41.1835,-0.122741,0
49.5542,-41.1261,-0.125573,0
49.5948,-41.0678,-0.128288,0
49.6341,-41.0087,-0.130895,0
49.6728,-40.9492,-0.133132,0
49.7102,-40.8889,-0.135212,0
49.7463,-40.8279,-0.137175,0
49.781,-40.7661,-0.13903,0
49.8144,-40.7036,-0.140768,0
49.8464,-40.6403,-0.142399,0
49.8769,-40.5764,-0.143913,0
49.9061,-40.5119,-0.145309,0
49.9338,-40.4467,-0.146589,0
49.9602,-40.381,-0.147751,0
49.985,-40.3148,-0.148805,0
50.0084,-40.248,-0.149733,0
50.0303,-40.1807,-0.150544,0
50.0509,-40.113,-0.151247,0
50.0698,-40.0448,-0.151823,0
50.0873,-39.9762,-0.152282,0
50.1033,-39.9073,-0.152624,0
50.1177,-39.8381,-0.152848,0
50.1303,-39.7685,-0.153083,0
50.1415,-39.6986,-0.15318,0
50.1511,-39.6285,-0.153151,0
50.1592,-39.5583,-0.152985,0
50.1659,-39.4878,-0.152682,0
45.3932,-41.8959,0.152542,0
45.4543,-41.9342,0.148753,0
45.5163,-41.9712,0.144915,0
45.5789,-42.0067,0.141038,0
45.6424,-42.0407,0.137112,0
45.7068,-42.0732,0.133148,0
45.7718,-42.1043,0.129144,0
45.8377,-42.1338,0.125091,0
45.9041,-42.1617,0.121009,0
45.9711,-42.1881,0.116907,0
46.0387,-42.213,0.112757,0
46.107,-42.2363,0.108587,0
46.1756,-42.2579,0.104388,0
46.2448,-42.278,0.100159,0
46.3145,-42.2964,0.0959309,0
46.3846,-42.3129,0.0914973,0
46.4552,-42.3274,0.0869465,0
46.526,-42.3403,0.0823762,0
46.5971,-42.3515,0.0778254,0
46.6684,-42.3611,0.0732453,0
46.7399,-42.3691,0.068675,0
46.8115,-42.3754,0.0641145,0
46.8832,-42.38,0.0595441,0
46.9551,-42.383,0.0549836,0
47.0269,-42.3843,0.0504328,0
47.0987,-42.384,0.0458918,0
47.1705,-42.382,0.0413605,0
47.2421,-42.3783,0.0368586,0
47.3137,-42.373,0.0323566,0
47.3851,-42.3661,0.0278938,0
47.4562,-42.3575,0.0234406,0
47.5273,-42.3473,0.0190168,0
47.5979,-42.3355,0.0146223,0
47.6681,-42.3214,0.0100031,0
47.7376,-42.3042,0.00484688,0
47.8066,-42.2855,-0.000280075,0
47.8752,-42.2653,-0.0053582,0
47.9432,-42.2435,-0.0103777,0
48.0106,-42.2202,-0.0153387,0
48.0773,-42.1953,-0.0202605,0
48.1435,-42.169,-0.0251141,0
48.209,-42.1413,-0.0298992,0
48.2738,-42.1121,-0.0346355,0
48.3377,-42.0814,-0.0392937,0
48.401,-42.0494,-0.0438934,0
48.4635,-42.0159,-0.0484246,0
48.5252,-41.9811,-0.0528875,0
48.5859,-41.945,-0.0572723,0
48.6459,-41.9075,-0.0615789,0
48.7048,-41.8687,-0.0658074,0
48.7629,-41.8287,-0.0699676,0
48.82,-41.7873,-0.0740398,0
48.8761,-41.7448,-0.0780242,0
48.9312,-41.701,-0.0819305,0
48.9853,-41.6561,-0.0857488,0
49.0383,-41.61,-0.0894793,0
49.0902,-41.5627,-0.0931219,0
49.1409,-41.5144,-0.0966668,0
49.1906,-41.465,-0.100124,0
49.2391,-41.4145,-0.103493,0
49.2865,-41.363,-0.106755,0
49.3327,-41.3105,-0.109929,0
49.3777,-41.257,-0.112995,0
49.4213,-41.2025,-0.115973,0
49.4638,-41.1472,-0.118845,0
49.505,-41.091,-0.121608,0
49.5449,-41.0339,-0.124284,0
49.5838,-40.9761,-0.126725,0
49.622,-40.9179,-0.128884,0
49.6587,-40.8588,-0.130915,0
49.6941,-40.799,-0.132848,0
49.7282,-40.7384,-0.134675,0
49.7609,-40.6771,-0.136384,0
49.7924,-40.6151,-0.137985,0
49.8224,-40.5525,-0.139479,0
49.8511,-40.4892,-0.140846,0
49.8784,-40.4254,-0.142106,0
49.9042,-40.3609,-0.143259,0
49.9287,-40.2959,-0.144284,0
49.9516,-40.2305,-0.145202,0
49.9732,-40.1645,-0.146003,0
49.9934,-40.0981,-0.146696,0
50.012,-40.0312,-0.147262,0
50.0292,-39.964,-0.147721,0
50.0449,-39.8964,-0.148063,0
50.0591,-39.8285,-0.148278,0
50.0719,-39.7603,-0.148386,0
50.0832,-39.6919,-0.148366,0
50.0929,-39.6232,-0.148249,0
50.1012,-39.5542,-0.148005,0
50.108,-39.4852,-0.147643,0
45.3639,-41.8767,0.154368,0
45.4245,-41.9158,0.150599,0
45.486,-41.9534,0.14679,0
45.5484,-41.9896,0.142923,0
45.6115,-42.0244,0.139027,0
45.6755,-42.0576,0.135081,0
45.7402,-42.0894,0.131087,0
45.8055,-42.1196,0.127064,0
45.8717,-42.1483,0.123001,0
45.9384,-42.1755,0.1189,0
46.0059,-42.2011,0.114769,0
46.0737,-42.2252,0.110618,0
46.1423,-42.2476,0.106439,0
46.2113,-42.2684,0.10222,0
46.2806,-42.2877,0.0979914,0
46.3505,-42.3052,0.0937141,0
46.4209,-42.3205,0.0891535,0
46.4916,-42.3342,0.0846027,0
46.5626,-42.3463,0.0800324,0
46.6337,-42.3567,0.0754719,0
46.7052,-42.3654,0.0709016,0
46.7767,-42.3725,0.0663313,0
46.8484,-42.378,0.0617609,0
46.9202,-42.3818,0.0572004,0
46.992,-42.3839,0.0526398,0
47.0638,-42.3844,0.0480988,0
47.1355,-42.3832,0.0435578,0
47.2073,-42.3803,0.0390461,0
47.279,-42.3758,0.0345441,0
47.3505,-42.3697,0.0300617,0
47.4217,-42.3619,0.0255988,0
47.4928,-42.3525,0.0211652,0
47.5636,-42.3414,0.0167512,0
47.6341,-42.3288,0.0123762,0
47.7039,-42.3128,0.00734688,0
47.7732,-42.2948,0.00219063,0
47.842,-42.2753,-0.00289726,0
47.9102,-42.2542,-0.00794609,0
47.9779,-42.2317,-0.0129363,0
48.045,-42.2076,-0.0178777,0
48.1115,-42.182,-0.0227605,0
48.1773,-42.155,-0.0275848,0
48.2424,-42.1264,-0.0323406,0
48.3068,-42.0965,-0.0370379,0
48.3704,-42.0651,-0.0416766,0
48.4333,-42.0324,-0.0462371,0
48.4953,-41.9982,-0.0507293,0
48.5566,-41.9627,-0.0551531,0
48.6169,-41.9259,-0.0594891,0
48.6763,-41.8877,-0.0637664,0
48.7348,-41.8483,-0.0679559,0
48.7924,-41.8076,-0.0720672,0
48.849,-41.7656,-0.0761004,0
48.9046,-41.7224,-0.0800457,0
48.9591,-41.6781,-0.0839031,0
49.0127,-41.6325,-0.0876727,0
49.0651,-41.5858,-0.0913641,0
49.1164,-41.538,-0.0949578,0
49.1666,-41.4891,-0.0984539,0
49.2157,-41.4391,-0.101862,0
49.2637,-41.3881,-0.105182,0
49.3104,-41.3361,-0.108395,0
49.3559,-41.2831,-0.11152,0
49.4002,-41.2291,-0.114538,0
49.4433,-41.1742,-0.117458,0
49.4852,-41.1184,-0.12028,0
49.5257,-41.0617,-0.123005,0
49.565,-41.0042,-0.125612,0
49.6036,-40.9463,-0.127839,0
49.641,-40.8876,-0.129938,0
49.677,-40.8281,-0.131921,0
49.7118,-40.7679,-0.133805,0
49.7452,-40.707,-0.135573,0
49.7773,-40.6453,-0.137223,0
49.808,-40.583,-0.138766,0
49.8373,-40.52,-0.140192,0
49.8653,-40.4564,-0.141511,0
49.8919,-40.3923,-0.142712,0
49.917,-40.3276,-0.143796,0
49.9406,-40.2623,-0.144772,0
49.963,-40.1966,-0.145632,0
49.9837,-40.1304,-0.146384,0
50.0031,-40.0638,-0.146999,0
50.021,-39.9967,-0.147516,0
50.0374,-39.9293,-0.147917,0
50.0524,-39.8616,-0.14819,0
50.0659,-39.7935,-0.148356,0
50.0779,-39.7251,-0.148395,0
50.0884,-39.6566,-0.148327,0
50.0973,-39.5877,-0.148132,0
50.1049,-39.5187,-0.147829,0
50.1109,-39.4496,-0.147419,0
45.395,-41.897,0.152435,0
45.456,-41.9353,0.148646,0
45.518,-41.9722,0.144808,0
45.5808,-42.0077,0.140931,0
45.6443,-42.0416,0.136995,0
45.7086,-42.0741,0.13303,0
45.7737,-42.1051,0.129027,0
45.8395,-42.1346,0.124974,0
45.9059,-42.1625,0.120892,0
45.973,-42.1889,0.11678,0
46.0407,-42.2137,0.11264,0
46.1089,-42.2369,0.10846,0
46.1777,-42.2585,0.104271,0
46.2469,-42.2785,0.100042,0
46.3166,-42.2969,0.0958039,0
46.3866,-42.3133,0.0913605,0
46.4572,-42.3278,0.0868195,0
46.528,-42.3406,0.082259,0
46.5991,-42.3518,0.0776887,0
46.6705,-42.3614,0.0731184,0
46.742,-42.3693,0.068548,0
46.8136,-42.3755,0.0639777,0
46.8852,-42.3801,0.0594074,0
46.9571,-42.3831,0.0548566,0
47.0289,-42.3843,0.0502961,0
47.1007,-42.3839,0.0457648,0
47.1725,-42.3819,0.0412336,0
47.2441,-42.3782,0.0367219,0
47.3157,-42.3729,0.0322395,0
47.3871,-42.3659,0.027757,0
47.4583,-42.3573,0.0233137,0
47.5292,-42.347,0.0188996,0
47.5999,-42.3351,0.0145051,0
47.6702,-42.3209,0.00985664,0
47.7397,-42.3037,0.00469063,0
47.8087,-42.285,-0.000426559,0
47.8772,-42.2646,-0.00550468,0
47.9451,-42.2428,-0.0105145,0
48.0125,-42.2195,-0.0154852,0
48.0793,-42.1946,-0.0203973,0
48.1455,-42.1683,-0.025241,0
48.2109,-42.1405,-0.0300359,0
48.2756,-42.1112,-0.0347723,0
48.3397,-42.0805,-0.0394305,0
48.4028,-42.0485,-0.0440301,0
48.4652,-42.015,-0.0485613,0
48.527,-41.9801,-0.0530047,0
48.5877,-41.9439,-0.0573894,0
48.6476,-41.9064,-0.0616961,0
48.7066,-41.8676,-0.0659344,0
48.7645,-41.8275,-0.0700848,0
48.8216,-41.7862,-0.0741473,0
48.8777,-41.7435,-0.0781414,0
48.9327,-41.6998,-0.0820379,0
48.9868,-41.6548,-0.0858465,0
49.0397,-41.6086,-0.0895769,0
49.0916,-41.5614,-0.0932195,0
49.1424,-41.513,-0.0967644,0
49.192,-41.4635,-0.100221,0
49.2405,-41.413,-0.103581,0
49.2878,-41.3615,-0.106843,0
49.334,-41.309,-0.110016,0
49.3788,-41.2554,-0.113083,0
49.4226,-41.201,-0.116061,0
49.465,-41.1456,-0.118932,0
49.5062,-41.0893,-0.121696,0
49.5461,-41.0322,-0.124362,0
49.585,-40.9745,-0.126794,0
49.623,-40.9162,-0.128932,0
49.6597,-40.8571,-0.130973,0
49.6952,-40.7973,-0.132907,0
49.7291,-40.7367,-0.134723,0
49.762,-40.6754,-0.136432,0
49.7933,-40.6134,-0.138024,0
49.8233,-40.5507,-0.139509,0
49.8519,-40.4874,-0.140886,0
49.8791,-40.4235,-0.142145,0
49.9049,-40.3591,-0.143278,0
49.9293,-40.2941,-0.144313,0
49.9523,-40.2286,-0.145231,0
49.9738,-40.1626,-0.146032,0
49.9938,-40.0962,-0.146706,0
50.0125,-40.0293,-0.147282,0
50.0297,-39.9621,-0.147731,0
50.0453,-39.8945,-0.148073,0
50.0595,-39.8266,-0.148278,0
50.0723,-39.7584,-0.148386,0
50.0835,-39.6899,-0.148376,0
50.0932,-39.6212,-0.148249,0
50.1014,-39.5523,-0.147995,0
50.1081,-39.4832,-0.147624,0
45.4275,-41.8424,0.150657,0
45.4873,-41.88,0.146946,0
45.5479,-41.9162,0.143187,0
45.6094,-41.951,0.139378,0
45.6716,-41.9843,0.13553,0
45.7347,-42.0162,0.131644,0
45.7984,-42.0466,0.127728,0
45.8629,-42.0755,0.123763,0
45.928,-42.1029,0.119769,0
45.9937,-42.1288,0.115736,0
46.06,-42.1532,0.111673,0
46.1268,-42.1759,0.107591,0
46.1941,-42.1972,0.10347,0
46.262,-42.2168,0.0993391,0
46.3302,-42.2349,0.0951789,0
46.3988,-42.2514,0.0909895,0
46.468,-42.2656,0.0865363,0
46.5373,-42.2783,0.0820539,0
46.607,-42.2893,0.0775812,0
46.6769,-42.2988,0.0731086,0
46.7469,-42.3066,0.0686262,0
46.8171,-42.3128,0.0641438,0
46.8874,-42.3173,0.0596711,0
46.9578,-42.3203,0.0552082,0
47.0282,-42.3216,0.0507355,0
47.0986,-42.3213,0.0462922,0
47.1689,-42.3193,0.0418586,0
47.2391,-42.3158,0.0374348,0
47.3093,-42.3106,0.0330402,0
47.3792,-42.3038,0.0286555,0
47.449,-42.2954,0.0243,0
47.5186,-42.2854,0.0199543,0
47.5879,-42.2739,0.0156477,0
47.6568,-42.2604,0.0112531,0
47.7248,-42.2437,0.00619453,0
47.7926,-42.2254,0.00116524,0
47.8598,-42.2056,-0.00380547,0
47.9264,-42.1843,-0.00872734,0
47.9925,-42.1615,-0.0136004,0
48.058,-42.1372,-0.0184246,0
48.1229,-42.1115,-0.0231805,0
48.1871,-42.0843,-0.0278777,0
48.2506,-42.0557,-0.0325262,0
48.3134,-42.0258,-0.0370965,0
48.3755,-41.9944,-0.0415984,0
48.4367,-41.9617,-0.0460516,0
48.4972,-41.9276,-0.0504168,0
48.5568,-41.8922,-0.0547234,0
48.6155,-41.8555,-0.0589519,0
48.6734,-41.8175,-0.0631023,0
48.7304,-41.7783,-0.0671746,0
48.7864,-41.7378,-0.0711687,0
48.8414,-41.6961,-0.0750848,0
48.8955,-41.6532,-0.0789129,0
48.9486,-41.6092,-0.0826629,0
49.0005,-41.564,-0.086325,0
49.0515,-41.5177,-0.0898992,0
49.1013,-41.4704,-0.0933758,0
49.15,-41.4219,-0.0967742,0
49.1977,-41.3725,-0.100075,0
49.2441,-41.322,-0.103278,0
49.2895,-41.2705,-0.106393,0
49.3335,-41.2181,-0.109411,0
49.3764,-41.1647,-0.112331,0
49.4181,-41.1105,-0.115153,0
49.4586,-41.0554,-0.117878,0
49.4978,-40.9994,-0.120485,0
49.5364,-40.9431,-0.122712,0
49.5737,-40.8859,-0.124811,0
49.6098,-40.828,-0.126823,0
49.6446,-40.7693,-0.128718,0
49.6781,-40.7099,-0.130505,0
49.7102,-40.6498,-0.132184,0
49.741,-40.589,-0.133757,0
49.7705,-40.5275,-0.135221,0
49.7987,-40.4655,-0.136559,0
49.8254,-40.4028,-0.137809,0
49.8508,-40.3396,-0.138932,0
49.8747,-40.2759,-0.139938,0
49.8973,-40.2117,-0.140846,0
49.9184,-40.1469,-0.141637,0
49.9382,-40.0818,-0.142302,0
49.9566,-40.0162,-0.142868,0
49.9734,-39.9503,-0.143307,0
49.9889,-39.884,-0.143649,0
50.0028,-39.8174,-0.143864,0
50.0153,-39.7505,-0.143962,0
50.0263,-39.6833,-0.143952,0
50.0359,-39.6159,-0.143825,0
50.0441,-39.5483,-0.143591,0
50.0507,-39.4805,-0.143239,0
45.3988,-41.8237,0.152445,0
45.458,-41.8619,0.148763,0
45.5184,-41.8988,0.145013,0
45.5794,-41.9343,0.141234,0
45.6413,-41.9683,0.137415,0
45.704,-42.0009,0.133538,0
45.7673,-42.032,0.129632,0
45.8315,-42.0617,0.125687,0
45.8962,-42.0898,0.121712,0
45.9616,-42.1164,0.117698,0
46.0277,-42.1415,0.113646,0
46.0943,-42.1651,0.109573,0
46.1614,-42.1871,0.105472,0
46.2289,-42.2075,0.101341,0
46.297,-42.2263,0.0972004,0
46.3654,-42.2436,0.0930305,0
46.4343,-42.2589,0.0887043,0
46.5036,-42.2724,0.0842316,0
46.5731,-42.2842,0.079759,0
46.643,-42.2944,0.0752863,0
46.7129,-42.303,0.0708039,0
46.783,-42.31,0.0663215,0
46.8533,-42.3153,0.0618488,0
46.9237,-42.319,0.0573762,0
46.994,-42.3211,0.0529133,0
47.0644,-42.3216,0.0484504,0
47.1348,-42.3205,0.0440168,0
47.205,-42.3177,0.0395832,0
47.2752,-42.3133,0.0351691,0
47.3453,-42.3073,0.0307746,0
47.4152,-42.2997,0.0264094,0
47.4848,-42.2905,0.0220637,0
47.5542,-42.2797,0.0177375,0
47.6234,-42.2673,0.0134504,0
47.6919,-42.252,0.00864571,0
47.7598,-42.2344,0.00359688,0
47.8272,-42.2154,-0.00139336,0
47.8941,-42.1948,-0.00634453,0
47.9605,-42.1727,-0.0112371,0
48.0263,-42.1492,-0.0160906,0
48.0915,-42.1242,-0.0208758,0
48.156,-42.0977,-0.0256023,0
48.2198,-42.0698,-0.0302703,0
48.283,-42.0405,-0.0348894,0
48.3454,-42.0098,-0.0394207,0
48.407,-41.9777,-0.0439031,0
48.4679,-41.9443,-0.0483074,0
48.5279,-41.9095,-0.0526434,0
48.5871,-41.8735,-0.0569012,0
48.6455,-41.8361,-0.0611004,0
48.7028,-41.7975,-0.0652019,0
48.7593,-41.7576,-0.0692352,0
48.8148,-41.7165,-0.0732,0
48.8694,-41.6742,-0.0770672,0
48.9229,-41.6307,-0.0808562,0
48.9754,-41.5861,-0.0845574,0
49.0268,-41.5404,-0.0881707,0
49.0773,-41.4935,-0.0917059,0
49.1265,-41.4456,-0.0951336,0
49.1747,-41.3966,-0.0984832,0
49.2217,-41.3466,-0.101735,0
49.2676,-41.2956,-0.104889,0
49.3123,-41.2437,-0.107956,0
49.3558,-41.1908,-0.110925,0
49.398,-41.1369,-0.113796,0
49.4391,-41.0822,-0.116559,0
49.4789,-41.0267,-0.119235,0
49.5178,-40.9705,-0.121647,0
49.5557,-40.9138,-0.123805,0
49.5924,-40.8562,-0.125856,0
49.6279,-40.7979,-0.127809,0
49.662,-40.7388,-0.129655,0
49.6948,-40.6791,-0.131384,0
49.7262,-40.6186,-0.133005,0
49.7563,-40.5575,-0.134518,0
49.7852,-40.4957,-0.135925,0
49.8126,-40.4333,-0.137214,0
49.8386,-40.3704,-0.138395,0
49.8633,-40.3069,-0.13946,0
49.8866,-40.2429,-0.140417,0
49.9084,-40.1784,-0.141266,0
49.9287,-40.1135,-0.141989,0
49.9479,-40.0481,-0.142614,0
49.9654,-39.9824,-0.143112,0
49.9816,-39.9162,-0.143493,0
49.9962,-39.8498,-0.143776,0
50.0095,-39.783,-0.143932,0
50.0212,-39.716,-0.143971,0
50.0315,-39.6487,-0.143903,0
50.0403,-39.5812,-0.143718,0
50.0477,-39.5135,-0.143415,0
50.0535,-39.4456,-0.143005,0
45.4291,-41.8435,0.15055,0
45.489,-41.8811,0.146839,0
45.5497,-41.9172,0.143079,0
45.6112,-41.952,0.139271,0
45.6734,-41.9853,0.135423,0
45.7365,-42.0171,0.131536,0
45.8002,-42.0475,0.127611,0
45.8647,-42.0763,0.123646,0
45.9298,-42.1037,0.119642,0
45.9955,-42.1295,0.115618,0
46.0619,-42.1538,0.111556,0
46.1287,-42.1766,0.107474,0
46.1961,-42.1978,0.103353,0
46.2638,-42.2174,0.0992219,0
46.3322,-42.2354,0.0950617,0
46.4008,-42.2518,0.0908625,0
46.4699,-42.266,0.0863996,0
46.5394,-42.2786,0.0819367,0
46.609,-42.2896,0.0774641,0
46.6789,-42.299,0.0729816,0
46.7489,-42.3068,0.0684992,0
46.8191,-42.3129,0.0640266,0
46.8894,-42.3174,0.0595441,0
46.9598,-42.3203,0.0550813,0
47.0302,-42.3216,0.0506184,0
47.1006,-42.3212,0.0461652,0
47.1709,-42.3193,0.0417316,0
47.2411,-42.3156,0.0373078,0
47.3112,-42.3104,0.0329133,0
47.3813,-42.3036,0.0285285,0
47.451,-42.2952,0.024173,0
47.5205,-42.2851,0.0198371,0
47.5898,-42.2735,0.0155305,0
47.6587,-42.2599,0.0111164,0
47.7268,-42.2432,0.00604805,0
47.7945,-42.2248,0.00102852,0
47.8617,-42.205,-0.00395195,0
47.9283,-42.1836,-0.00887382,0
47.9945,-42.1608,-0.0137371,0
48.0598,-42.1365,-0.0185516,0
48.1247,-42.1107,-0.0233074,0
48.1889,-42.0835,-0.0280144,0
48.2524,-42.0549,-0.0326531,0
48.3152,-42.0249,-0.0372234,0
48.3772,-41.9935,-0.0417352,0
48.4384,-41.9607,-0.0461687,0
48.4989,-41.9266,-0.0505437,0
48.5584,-41.8911,-0.0548504,0
48.6172,-41.8544,-0.0590691,0
48.6751,-41.8164,-0.0632195,0
48.732,-41.7771,-0.0672918,0
48.788,-41.7366,-0.0712859,0
48.843,-41.6949,-0.075202,0
48.897,-41.652,-0.0790203,0
48.95,-41.6079,-0.0827703,0
49.002,-41.5627,-0.0864227,0
49.0529,-41.5164,-0.0899969,0
49.1027,-41.469,-0.0934734,0
49.1515,-41.4205,-0.0968621,0
49.199,-41.3711,-0.100163,0
49.2455,-41.3205,-0.103366,0
49.2907,-41.269,-0.106481,0
49.3348,-41.2166,-0.109489,0
49.3777,-41.1632,-0.112409,0
49.4193,-41.1089,-0.115231,0
49.4598,-41.0538,-0.117946,0
49.4989,-40.9978,-0.120554,0
49.5375,-40.9414,-0.122761,0
49.5748,-40.8843,-0.12488,0
49.6109,-40.8263,-0.126882,0
49.6456,-40.7676,-0.128766,0
49.679,-40.7082,-0.130554,0
49.7111,-40.6481,-0.132233,0
49.7419,-40.5872,-0.133805,0
49.7713,-40.5258,-0.135261,0
49.7994,-40.4637,-0.136608,0
49.8262,-40.401,-0.137839,0
49.8515,-40.3378,-0.138962,0
49.8754,-40.2741,-0.139968,0
49.898,-40.2098,-0.140866,0
49.9191,-40.1451,-0.141657,0
49.9387,-40.0799,-0.142321,0
49.957,-40.0144,-0.142878,0
49.9739,-39.9484,-0.143327,0
49.9892,-39.8821,-0.143659,0
50.0032,-39.8155,-0.143874,0
50.0156,-39.7486,-0.143962,0
50.0266,-39.6814,-0.143952,0
50.0362,-39.614,-0.143825,0
50.0443,-39.5464,-0.143581,0
50.0509,-39.4786,-0.14322,0
45.4605,-41.7908,0.148831,0
45.5191,-41.8276,0.145198,0
45.5786,-41.8631,0.141507,0
45.6388,-41.8972,0.137786,0
45.6998,-41.9299,0.134017,0
45.7616,-41.9611,0.130198,0
45.8241,-41.9909,0.126351,0
45.8873,-42.0192,0.122464,0
45.9511,-42.0461,0.118548,0
46.0155,-42.0715,0.114603,0
46.0805,-42.0953,0.110628,0
46.1459,-42.1177,0.106614,0
46.212,-42.1385,0.102581,0
46.2784,-42.1578,0.0985383,0
46.3452,-42.1755,0.094466,0
46.4126,-42.1917,0.0903645,0
46.4803,-42.206,0.0861262,0
46.5483,-42.2184,0.0817512,0
46.6166,-42.2292,0.0773664,0
46.6851,-42.2385,0.0729719,0
46.7537,-42.2462,0.0685773,0
46.8225,-42.2522,0.0641828,0
46.8914,-42.2567,0.059798,0
46.9604,-42.2596,0.0554133,0
47.0295,-42.2609,0.0510383,0
47.0985,-42.2607,0.0466926,0
47.1674,-42.2588,0.0423469,0
47.2363,-42.2553,0.0380012,0
47.3051,-42.2503,0.0336848,0
47.3736,-42.2436,0.0293879,0
47.442,-42.2354,0.0251203,0
47.5102,-42.2256,0.0208625,0
47.5781,-42.2143,0.0166438,0
47.6457,-42.2014,0.0124445,0
47.7126,-42.1851,0.00749336,0
47.7789,-42.1672,0.00257149,0
47.8448,-42.1479,-0.00231132,0
47.9102,-42.127,-0.00714531,0
47.975,-42.1047,-0.0119207,0
48.0393,-42.081,-0.0166375,0
48.1029,-42.0558,-0.0213055,0
48.1659,-42.0292,-0.0259148,0
48.2282,-42.0013,-0.0304656,0
48.2898,-41.9719,-0.0349676,0
48.3506,-41.9412,-0.0393914,0
48.4108,-41.9091,-0.0437469,0
48.4701,-41.8758,-0.048034,0
48.5286,-41.8411,-0.0522527,0
48.5863,-41.8051,-0.0564031,0
48.643,-41.7679,-0.0604754,0
48.6989,-41.7295,-0.0644793,0
48.7539,-41.6899,-0.0683953,0
48.8079,-41.649,-0.072243,0
48.8609,-41.607,-0.0760027,0
48.913,-41.5638,-0.0796746,0
48.964,-41.5196,-0.0832684,0
49.014,-41.4742,-0.0867742,0
49.063,-41.4278,-0.090202,0
49.1108,-41.3803,-0.093532,0
49.1575,-41.3318,-0.0967644,0
49.2031,-41.2823,-0.0999187,0
49.2476,-41.2319,-0.102975,0
49.2909,-41.1805,-0.105934,0
49.333,-41.1282,-0.108796,0
49.3739,-41.075,-0.111569,0
49.4137,-41.0209,-0.114245,0
49.4525,-40.9663,-0.116637,0
49.4904,-40.911,-0.118815,0
49.5271,-40.855,-0.120876,0
49.5625,-40.7982,-0.122848,0
49.5966,-40.7406,-0.124714,0
49.6295,-40.6823,-0.126471,0
49.661,-40.6233,-0.128122,0
49.6912,-40.5637,-0.129665,0
49.7202,-40.5034,-0.1311,0
49.7478,-40.4425,-0.132419,0
49.7741,-40.381,-0.13363,0
49.7991,-40.319,-0.134743,0
49.8226,-40.2565,-0.135739,0
49.8447,-40.1934,-0.136618,0
49.8655,-40.13,-0.137389,0
49.8849,-40.066,-0.138054,0
49.9028,-40.0017,-0.13861,0
49.9195,-39.937,-0.13904,0
49.9345,-39.8719,-0.139362,0
49.9482,-39.8066,-0.139587,0
49.9605,-39.7409,-0.139684,0
49.9714,-39.675,-0.139675,0
49.9807,-39.6089,-0.139557,0
49.9888,-39.5425,-0.139313,0
49.9952,-39.4761,-0.138971,0
45.4323,-41.7724,0.150589,0
45.4905,-41.8099,0.146976,0
45.5496,-41.8461,0.143304,0
45.6095,-41.8808,0.139603,0
45.6701,-41.9142,0.135853,0
45.7316,-41.9461,0.132064,0
45.7937,-41.9766,0.128226,0
45.8566,-42.0057,0.124359,0
45.92,-42.0333,0.120462,0
45.9841,-42.0593,0.116517,0
46.0488,-42.0839,0.112562,0
46.1141,-42.107,0.108568,0
46.1798,-42.1286,0.104554,0
46.246,-42.1486,0.100501,0
46.3128,-42.1671,0.0964387,0
46.3798,-42.184,0.0923566,0
46.4473,-42.1993,0.0882453,0
46.5152,-42.2125,0.0838801,0
46.5834,-42.2241,0.0794856,0
46.6517,-42.2342,0.0751105,0
46.7204,-42.2426,0.070716,0
46.7891,-42.2495,0.0663215,0
46.858,-42.2547,0.061927,0
46.927,-42.2584,0.0575422,0
46.9959,-42.2605,0.053177,0
47.0649,-42.261,0.048802,0
47.1339,-42.2599,0.0444465,0
47.2028,-42.2572,0.0401008,0
47.2716,-42.2529,0.0357746,0
47.3403,-42.2471,0.0314777,0
47.4088,-42.2396,0.0271809,0
47.4771,-42.2306,0.0229328,0
47.5452,-42.22,0.0186945,0
47.6129,-42.2079,0.0144855,0
47.6802,-42.1932,0.00990547,0
47.7468,-42.1761,0.00496407,0
47.813,-42.1575,5.19562e-05,0
47.8785,-42.1373,-0.00479179,0
47.9436,-42.1157,-0.00960625,0
48.0081,-42.0927,-0.0143523,0
48.0721,-42.0682,-0.0190496,0
48.1354,-42.0423,-0.0236883,0
48.198,-42.015,-0.0282684,0
48.2599,-41.9863,-0.0327898,0
48.3212,-41.9563,-0.037243,0
48.3816,-41.9249,-0.0416375,0
48.4413,-41.8921,-0.0459637,0
48.5003,-41.8581,-0.0502215,0
48.5584,-41.8228,-0.0543914,0
48.6155,-41.7862,-0.0585125,0
48.6719,-41.7483,-0.0625457,0
48.7273,-41.7093,-0.0665008,0
48.7818,-41.669,-0.0703875,0
48.8353,-41.6275,-0.0741863,0
48.8879,-41.5849,-0.077907,0
48.9394,-41.5412,-0.0815398,0
48.9898,-41.4964,-0.0850848,0
49.0393,-41.4505,-0.0885516,0
49.0877,-41.4035,-0.0919207,0
49.1349,-41.3555,-0.0952117,0
49.1811,-41.3065,-0.0983953,0
49.2262,-41.2565,-0.101501,0
49.2701,-41.2055,-0.104509,0
49.3127,-41.1537,-0.107419,0
49.3542,-41.1009,-0.110241,0
49.3945,-41.0473,-0.112956,0
49.4337,-40.9928,-0.115534,0
49.4722,-40.938,-0.11777,0
49.5095,-40.8823,-0.119889,0
49.5455,-40.8259,-0.121911,0
49.5802,-40.7686,-0.123825,0
49.6137,-40.7107,-0.125632,0
49.6459,-40.6521,-0.127331,0
49.6768,-40.5927,-0.128932,0
49.7063,-40.5328,-0.130407,0
49.7346,-40.4721,-0.131794,0
49.7616,-40.411,-0.133063,0
49.7871,-40.3492,-0.134216,0
49.8113,-40.2869,-0.135261,0
49.8341,-40.2241,-0.136208,0
49.8555,-40.1609,-0.137028,0
49.8756,-40.0971,-0.137751,0
49.8942,-40.033,-0.138356,0
49.9115,-39.9685,-0.138845,0
49.9273,-39.9036,-0.139225,0
49.9417,-39.8384,-0.139489,0
49.9547,-39.7728,-0.139645,0
49.9662,-39.7071,-0.139694,0
49.9763,-39.641,-0.139626,0
49.985,-39.5748,-0.13944,0
49.9922,-39.5084,-0.139157,0
49.998,-39.4418,-0.138747,0
45.4622,-41.7918,0.148724,0
45.5208,-41.8287,0.145091,0
45.5803,-41.8641,0.141409,0
45.6405,-41.8981,0.137669,0
45.7016,-41.9308,0.133909,0
45.7634,-41.962,0.130091,0
45.8259,-41.9917,0.126243,0
45.8891,-42.02,0.122357,0
45.9529,-42.0468,0.118441,0
46.0173,-42.0722,0.114495,0
46.0823,-42.096,0.110501,0
46.1478,-42.1183,0.106507,0
46.2138,-42.1391,0.102474,0
46.2804,-42.1583,0.0984211,0
46.3473,-42.176,0.0943488,0
46.4145,-42.1921,0.0902473,0
46.4822,-42.2063,0.0859992,0
46.5502,-42.2187,0.0816242,0
46.6185,-42.2295,0.0772395,0
46.687,-42.2387,0.0728449,0
46.7557,-42.2464,0.0684602,0
46.8245,-42.2524,0.0640656,0
46.8935,-42.2568,0.0596809,0
46.9624,-42.2597,0.0552863,0
47.0315,-42.2609,0.0509211,0
47.1005,-42.2606,0.0465656,0
47.1694,-42.2587,0.0422102,0
47.2383,-42.2552,0.0378742,0
47.307,-42.2501,0.0335578,0
47.3755,-42.2434,0.0292609,0
47.444,-42.2352,0.0249934,0
47.5122,-42.2253,0.0207453,0
47.58,-42.214,0.0165168,0
47.6477,-42.201,0.0123176,0
47.7145,-42.1846,0.00735664,0
47.7808,-42.1667,0.00243477,0
47.8467,-42.1473,-0.00244804,0
47.9121,-42.1264,-0.00727226,0
47.977,-42.1041,-0.0120574,0
48.0411,-42.0803,-0.016784,0
48.1047,-42.0551,-0.0214422,0
48.1677,-42.0285,-0.0260516,0
48.2299,-42.0004,-0.0306023,0
48.2916,-41.971,-0.0350848,0
48.3524,-41.9403,-0.0395184,0
48.4125,-41.9082,-0.0438738,0
48.4717,-41.8748,-0.0481609,0
48.5302,-41.8401,-0.0523797,0
48.5879,-41.8041,-0.0565203,0
48.6446,-41.7669,-0.0606023,0
48.7005,-41.7284,-0.0645867,0
48.7555,-41.6887,-0.0685125,0
48.8095,-41.6478,-0.0723504,0
48.8624,-41.6058,-0.0761102,0
48.9145,-41.5626,-0.079782,0
48.9655,-41.5183,-0.0833758,0
49.0155,-41.4729,-0.0868719,0
49.0643,-41.4265,-0.0902898,0
49.1121,-41.3789,-0.0936199,0
49.1588,-41.3304,-0.0968621,0
49.2044,-41.2809,-0.100007,0
49.2488,-41.2304,-0.103054,0
49.2921,-41.179,-0.106022,0
49.3342,-41.1267,-0.108874,0
49.3751,-41.0734,-0.111647,0
49.4148,-41.0193,-0.114313,0
49.4537,-40.9647,-0.116696,0
49.4915,-40.9095,-0.118874,0
49.5281,-40.8534,-0.120934,0
49.5635,-40.7965,-0.122907,0
49.5976,-40.7389,-0.124762,0
49.6305,-40.6806,-0.12652,0
49.662,-40.6216,-0.128171,0
49.6922,-40.562,-0.129704,0
49.7211,-40.5017,-0.131139,0
49.7487,-40.4408,-0.132458,0
49.7748,-40.3793,-0.133669,0
49.7997,-40.3172,-0.134772,0
49.8232,-40.2547,-0.135768,0
49.8453,-40.1916,-0.136647,0
