46.1745,-30.7218,0.202943,0
46.3967,-30.2138,0.19722,0
46.6108,-29.7113,0.191829,0
46.8098,-29.2076,0.186292,0
47.0003,-28.7086,0.181019,0
47.2162,-28.2426,0.178245,0
47.4301,-27.7831,0.176048,0
47.6373,-27.3257,0.174095,0
47.8241,-26.86,0.171517,0
48.0041,-26.3967,0.169163,0
48.1842,-25.94,0.167445,0
48.3641,-25.4887,0.166341,0
48.5252,-25.0311,0.164671,0
48.6789,-24.5745,0.163148,0
48.8272,-24.1197,0.161868,0
48.9721,-23.6677,0.16097,0
49.1345,-23.2277,0.161605,0
49.292,-22.7878,0.162484,0
49.4448,-22.3476,0.163587,0
49.5929,-21.9071,0.164925,0
49.732,-21.4644,0.166224,0
49.8683,-21.0218,0.167855,0
50.0069,-20.5805,0.170101,0
50.1403,-20.1378,0.172523,0
50.2663,-19.6927,0.174993,0
50.3879,-19.2461,0.177698,0
50.5053,-18.7979,0.180628,0
50.6309,-18.3502,0.184476,0
50.7602,-17.9011,0.188978,0
50.8887,-17.4493,0.1939,0
51.0137,-16.994,0.199105,0
51.1352,-16.5349,0.204573,0
49.5562,-15.9572,0.117717,174
49.3648,-15.5164,0.107081,174
48.5931,-15.0736,0.065192,174
48.4197,-14.6657,0.0563684,174
48.592,-14.2568,0.0668398,174
48.9137,-13.8318,0.0859415,174
51.9641,-13.1904,0.255257,0
52.1196,-12.6842,0.266585,0
52.2733,-12.1687,0.278382,0
52.425,-11.6432,0.290638,0
51.2115,-11.3375,0.227667,174
51.0445,-10.8845,0.22304,174
53.0798,-9.9563,0.342298,0
53.318,-9.35777,0.362034,0
53.5906,-8.73197,0.384476,0
53.9823,-8.05054,0.414544,0
54.3864,-7.3372,0.446282,0
34.8153,-43.8765,0.372096,174
35.4775,-43.6427,0.373869,174
36.7732,-43.1228,0.376845,174
36.8972,-40.5331,0.274603,174
38.0423,-42.5965,0.381805,174
38.6969,-42.4376,0.389935,174
39.2759,-42.0198,0.386693,0
39.3083,-39.9378,0.3054,174
40.3101,-40.9267,0.369153,0
40.7569,-40.2631,0.355032,0
41.1848,-39.6108,0.341497,0
40.8011,-37.118,0.235965,174
41.277,-36.7835,0.237095,174
41.8564,-36.6736,0.250244,174
42.7793,-37.2154,0.29846,0
43.1227,-36.6046,0.287122,0
43.4544,-36.0085,0.276527,0
43.7945,-35.458,0.268421,0
44.123,-34.9147,0.260755,0
44.44,-34.3783,0.253509,0
44.738,-33.8365,0.24597,0
45.0223,-33.2977,0.238587,0
45.2876,-32.7544,0.230902,0
45.532,-32.2053,0.222786,0
45.7666,-31.6642,0.215071,0
45.9918,-31.1307,0.207767,0
46.2205,-30.6177,0.201751,0
46.4411,-30.1108,0.196087,0
46.6527,-29.6086,0.190716,0
46.8494,-29.1053,0.185189,0
47.0412,-28.61,0.180179,0
47.2605,-28.1486,0.177767,0
47.4729,-27.6895,0.175618,0
47.6765,-27.2308,0.173587,0
47.8613,-26.7652,0.171009,0
48.0401,-26.3024,0.168714,0
48.2213,-25.8477,0.1672,0
48.3987,-25.396,0.166058,0
48.557,-24.9377,0.164339,0
48.7096,-24.4815,0.162874,0
48.8567,-24.0271,0.161644,0
49.0056,-23.5778,0.161077,0
49.167,-23.1379,0.161761,0
49.3236,-22.6979,0.162689,0
49.4753,-22.2578,0.163841,0
49.6225,-21.8171,0.165218,0
49.7589,-21.3737,0.166468,0
49.897,-20.9319,0.168294,0
50.0346,-20.4903,0.170589,0
50.1663,-20.047,0.173001,0
50.2914,-19.6016,0.17553,0
50.4122,-19.1548,0.178275,0
50.5305,-18.7066,0.181341,0
50.6562,-18.2585,0.185306,0
50.7867,-17.8092,0.189964,0
50.9145,-17.3567,0.194945,0
51.0387,-16.9006,0.200198,0
51.1595,-16.4408,0.205716,0
49.4759,-15.8638,0.113259,174
49.3664,-15.4293,0.107181,174
48.5471,-14.9895,0.0627816,174
48.4147,-14.5832,0.0562763,174
48.6567,-14.1714,0.0706481,174
48.9808,-13.743,0.0899799,174
51.9959,-13.0878,0.257532,0
52.1511,-12.5798,0.268958,0
52.3045,-12.0622,0.280843,0
52.4558,-11.5347,0.293196,0
51.1505,-11.2494,0.225189,174
51.1051,-10.7738,0.227443,174
53.1282,-9.83561,0.346263,0
53.3669,-9.23335,0.366165,0
53.6696,-8.59537,0.390491,0
54.0637,-7.9076,0.420892,0
54.4705,-7.18744,0.452972,0
25.8228,-42.4836,0.42803,0
26.5081,-42.4102,0.426097,0
27.1866,-42.3221,0.424232,0
27.8582,-42.2201,0.422435,0
28.5148,-42.1832,0.424466,0
29.1675,-42.1347,0.426683,0
29.8164,-42.0717,0.428948,0
30.4611,-42.0011,0.431546,0
31.1016,-41.9489,0.435755,0
31.7392,-41.8824,0.440003,0
32.3727,-41.7815,0.443284,0
33,-41.636,0.445071,0
33.6166,-41.4282,0.444437,0
34.225,-41.2096,0.44389,0
34.8247,-40.9794,0.443382,0
35.4116,-40.7129,0.441634,0
35.9351,-40.1496,0.425202,174
36.538,-40.0666,0.433968,0
37.0845,-39.736,0.430511,0
37.6195,-39.3974,0.427132,0
38.1145,-38.9517,0.41847,0
38.5844,-38.4711,0.408255,0
39.0456,-38.0121,0.399495,0
39.4926,-37.5534,0.391048,0
39.9258,-37.0952,0.382913,0
40.3416,-36.628,0.374515,0
40.7326,-36.1367,0.364935,0
41.118,-35.6651,0.356702,0
41.4924,-35.199,0.348997,0
41.8549,-34.7351,0.341614,0
42.2057,-34.2734,0.334554,0
42.5452,-33.8139,0.327796,0
42.8633,-33.3397,0.320247,0
43.1605,-32.8537,0.312044,0
43.4471,-32.3724,0.304212,0
43.7234,-31.8955,0.296741,0
43.99,-31.4228,0.289622,0
44.2469,-30.9542,0.282835,0
44.4945,-30.4895,0.27638,0
44.733,-30.0285,0.270228,0
44.963,-29.571,0.264407,0
45.1841,-29.1166,0.258841,0
45.3872,-28.6556,0.252767,0
45.6134,-28.2277,0.249437,0
45.8285,-27.7981,0.246087,0
46.0362,-27.3699,0.242962,0
46.2373,-26.9435,0.240091,0
46.4316,-26.5186,0.237474,0
46.6195,-26.0952,0.235111,0
46.8011,-25.6731,0.232982,0
46.9766,-25.2521,0.231097,0
47.146,-24.8323,0.229437,0
47.3095,-24.4133,0.228021,0
47.4673,-23.9952,0.22682,0
47.6228,-23.5796,0.226087,0
47.7771,-23.1666,0.225853,0
47.9256,-22.7534,0.225804,0
48.0691,-22.3402,0.225999,0
48.2075,-21.9269,0.2264,0
48.3409,-21.5133,0.227034,0
48.4732,-21.1007,0.228128,0
48.6084,-20.6901,0.229935,0
48.739,-20.2782,0.231966,0
48.8606,-19.8638,0.233948,0
48.9737,-19.447,0.235882,0
49.082,-19.0289,0.23804,0
49.199,-18.6125,0.241263,0
49.335,-18.1983,0.246146,0
49.4668,-17.7809,0.251292,0
49.5948,-17.36,0.256673,0
49.7188,-16.9354,0.262318,0
49.8368,-16.5069,0.268089,0
49.9436,-16.074,0.273719,174
49.3343,-15.6025,0.235612,174
48.6822,-15.1595,0.195382,174
48.3293,-14.7483,0.174098,174
48.3143,-14.3464,0.174163,174
48.5757,-13.9323,0.191816,174
50.5777,-13.3856,0.317982,0
50.6923,-12.9171,0.327864,0
50.8021,-12.4418,0.33804,0
50.9083,-11.9591,0.348597,0
51.0109,-11.4689,0.359564,0
51.0073,-10.9901,0.364505,174
51.3577,-10.4319,0.392444,174
51.5719,-9.8838,0.412523,0
51.7127,-9.33877,0.428763,0
51.9228,-8.76042,0.450228,0
52.4788,-8.05604,0.495023,0
52.912,-7.35659,0.533011,0
26.3887,-40.2148,0.321057,174
26.6472,-42.3933,0.425706,0
27.3244,-42.3024,0.423861,0
27.9928,-42.2113,0.422737,0
28.8466,-40.0403,0.323178,174
29.3003,-42.1231,0.427142,0
29.9484,-42.0572,0.429407,0
30.592,-41.9916,0.432405,0
31.232,-41.9366,0.436614,0
31.8689,-41.8671,0.440872,0
32.5014,-41.7569,0.443841,0
33.1265,-41.5945,0.444935,0
33.6728,-40.6635,0.408419,174
34.3481,-41.1637,0.443792,0
34.9457,-40.9287,0.443167,0
35.5283,-40.6465,0.440736,0
36.0768,-40.2308,0.432001,174
36.6504,-39.9998,0.433255,0
37.1946,-39.6675,0.429818,0
37.7273,-39.3274,0.426448,0
38.2115,-38.8529,0.416321,0
38.6796,-38.3774,0.406439,0
39.138,-37.9184,0.397747,0
39.5821,-37.4598,0.389359,0
40.0126,-37.0018,0.381292,0
40.4225,-36.5275,0.372523,0
40.8112,-36.0377,0.363079,0
41.1955,-35.5697,0.355101,0
41.5674,-35.1041,0.347464,0
41.9274,-34.6407,0.34015,0
42.2759,-34.1794,0.333148,0
42.6131,-33.7204,0.326448,0
42.9248,-33.2401,0.318538,0
43.2198,-32.7551,0.310413,0
43.5043,-32.2747,0.302659,0
43.7786,-31.7987,0.295257,0
44.0431,-31.3269,0.288216,0
44.2981,-30.859,0.281487,0
44.5438,-30.3951,0.275101,0
44.7807,-29.9348,0.269017,0
45.0089,-29.478,0.263245,0
45.2262,-29.0221,0.257571,0
45.4335,-28.5676,0.252025,0
45.6581,-28.1402,0.248763,0
45.8715,-27.7105,0.245423,0
46.0778,-27.2827,0.242347,0
46.2774,-26.8566,0.239534,0
46.4705,-26.432,0.236966,0
46.6571,-26.0089,0.234652,0
46.8373,-25.587,0.232571,0
47.0116,-25.1664,0.230736,0
47.1798,-24.7467,0.229124,0
47.3422,-24.3279,0.227747,0
47.4987,-23.9099,0.226595,0
47.6552,-23.4956,0.226058,0
47.8079,-23.0822,0.225823,0
47.9554,-22.6691,0.225833,0
48.0977,-22.2558,0.226058,0
48.2351,-21.8425,0.226517,0
48.3676,-21.4288,0.227191,0
48.5012,-21.017,0.22848,0
48.6355,-20.6061,0.230335,0
48.7651,-20.194,0.232405,0
48.8841,-19.7788,0.234329,0
48.9961,-19.3618,0.236312,0
49.1035,-18.9434,0.238509,0
49.227,-18.5282,0.242239,0
49.3622,-18.1134,0.247181,0
49.4933,-17.6953,0.252366,0
49.6204,-17.2736,0.257806,0
49.7436,-16.8483,0.263499,0
49.8588,-16.4188,0.269212,0
49.6032,-15.9607,0.252552,174
49.3376,-15.5155,0.235781,174
48.4493,-15.0709,0.181061,174
48.3118,-14.6663,0.173181,174
48.347,-14.2634,0.176445,174
48.6402,-13.8456,0.196177,174
50.6024,-13.2905,0.320042,0
50.715,-12.8207,0.329915,0
50.8241,-12.3438,0.340159,0
50.9295,-11.8597,0.350804,0
51.0314,-11.3679,0.361839,0
50.9922,-10.8946,0.364671,174
51.4187,-10.3175,0.397552,0
51.6009,-9.77354,0.415794,0
51.7411,-9.22601,0.432152,0
52.034,-8.62025,0.459124,0
52.5935,-7.90742,0.504388,0
26.5263,-40.1533,0.318408,174
26.7859,-42.3759,0.425335,0
27.4617,-42.2821,0.423489,0
28.1269,-42.205,0.423177,0
28.9632,-40.1041,0.327049,174
29.4329,-42.1108,0.427601,0
30.108,-41.3631,0.397241,174
30.7228,-41.9816,0.433265,0
31.3622,-41.9235,0.437484,0
31.9985,-41.8496,0.441663,0
32.63,-41.7318,0.444407,0
33.2527,-41.5525,0.444798,0
33.7958,-40.6396,0.409263,174
34.4709,-41.1174,0.443695,0
35.0662,-40.8775,0.442943,0
35.6446,-40.5798,0.439847,0
36.2089,-40.2584,0.436058,0
36.7625,-39.9326,0.432552,0
37.3044,-39.5987,0.429134,0
37.8295,-39.2384,0.424779,0
38.3079,-38.7541,0.414193,0
38.7745,-38.2836,0.404642,0
39.2298,-37.8248,0.396009,0
39.6711,-37.3663,0.387698,0
40.0987,-36.9084,0.379671,0
40.5029,-36.427,0.37055,0
40.8906,-35.942,0.361429,0
41.2723,-35.4745,0.353519,0
41.6419,-35.0093,0.345941,0
41.9995,-34.5464,0.338695,0
42.3456,-34.0856,0.331761,0
42.6806,-33.6269,0.32513,0
42.9859,-33.1407,0.316849,0
43.2787,-32.6567,0.308802,0
43.5612,-32.1772,0.301116,0
43.8334,-31.702,0.293792,0
44.0959,-31.2311,0.28681,0
44.349,-30.764,0.280159,0
44.5929,-30.3009,0.273831,0
44.828,-29.8413,0.267816,0
45.0545,-29.3852,0.262103,0
45.268,-28.9279,0.256321,0
45.48,-28.4803,0.251351,0
45.7022,-28.0523,0.24806,0
45.9141,-27.6231,0.244779,0
46.1191,-27.1956,0.241751,0
46.3173,-26.7698,0.238997,0
46.5091,-26.3456,0.236478,0
46.6945,-25.9227,0.234212,0
46.8735,-25.5011,0.232171,0
47.0465,-25.0806,0.230394,0
47.2134,-24.6612,0.228831,0
47.3746,-24.2425,0.227493,0
47.53,-23.8247,0.2264,0
47.6868,-23.4112,0.22598,0
47.8384,-22.9979,0.225814,0
47.9848,-22.5847,0.225863,0
48.1262,-22.1715,0.226136,0
48.2625,-21.7581,0.226634,0
48.3939,-21.3444,0.227357,0
48.5289,-20.9332,0.228831,0
48.6622,-20.5221,0.230736,0
48.791,-20.1097,0.232855,0
48.9074,-19.6937,0.23471,0
49.0184,-19.2765,0.236741,0
49.1248,-18.8579,0.238987,0
49.255,-18.4438,0.243226,0
49.3892,-18.0283,0.248216,0
49.5196,-17.6095,0.25346,0
49.6459,-17.1872,0.258948,0
49.7683,-16.761,0.264691,0
49.8806,-16.3306,0.270335,0
49.4468,-15.8623,0.242772,174
49.3454,-15.4288,0.236253,174
48.4049,-14.9875,0.178408,174
48.2944,-14.5844,0.172285,174
48.3912,-14.1799,0.179459,174
48.7183,-13.7575,0.201402,174
50.6258,-13.1951,0.322025,0
50.7376,-12.7239,0.331976,0
50.8459,-12.2456,0.342298,0
50.9506,-11.7599,0.353021,0
51.0684,-11.2636,0.365208,0
51.0579,-10.7831,0.369974,174
51.4586,-10.2071,0.40138,0
51.6298,-9.66277,0.419085,0
51.7694,-9.11273,0.43555,0
52.1463,-8.47823,0.468138,0
52.6743,-7.7682,0.511605,0
26.4962,-38.9955,0.440355,0
27.0863,-38.9852,0.440394,0
27.6748,-38.9498,0.439837,0
28.252,-38.9616,0.442611,0
28.8236,-39.0029,0.447767,0
29.3955,-39.0317,0.453011,0
29.9679,-39.0356,0.45765,0
30.5413,-38.9597,0.458646,0
31.1108,-38.8201,0.4568,0
31.6734,-38.6711,0.45513,0
32.229,-38.5101,0.45347,0
32.7759,-38.3164,0.450628,0
33.3194,-38.1646,0.450804,0
33.8572,-38.0068,0.451302,0
34.3891,-37.838,0.451839,0
34.9148,-37.6587,0.452405,0
35.4302,-37.448,0.451771,0
35.9266,-37.1728,0.447933,0
36.4132,-36.8904,0.444212,0
36.8902,-36.6012,0.440609,0
37.3575,-36.3054,0.437112,0
37.8129,-35.9958,0.433255,0
38.2405,-35.6275,0.426224,0
38.6564,-35.256,0.419368,0
39.0612,-34.8828,0.412757,0
39.4552,-34.508,0.406409,0
39.8384,-34.1316,0.400316,0
40.2113,-33.7538,0.394446,0
40.5618,-33.3505,0.387171,0
40.9009,-32.9461,0.380071,0
41.2287,-32.5405,0.373138,0
41.5456,-32.1343,0.366409,0
41.8526,-31.7287,0.359925,0
42.1496,-31.3235,0.353704,0
42.4414,-30.9251,0.348177,0
42.7268,-30.5307,0.343196,0
42.9817,-30.1082,0.336195,0
43.2279,-29.6882,0.329505,0
43.4655,-29.2707,0.323138,0
43.6946,-28.8555,0.317054,0
43.9247,-28.4522,0.312113,0
44.1562,-28.0599,0.308294,0
44.3807,-27.6684,0.30472,0
44.5984,-27.2779,0.301409,0
44.8091,-26.888,0.298343,0
45.0132,-26.4988,0.295521,0
45.2099,-26.1096,0.292874,0
45.3966,-25.718,0.29015,0
45.5771,-25.3272,0.287669,0
45.7516,-24.9372,0.285433,0
45.92,-24.5477,0.283431,0
46.0827,-24.1588,0.281663,0
46.2396,-23.7704,0.28013,0
46.3991,-23.3869,0.279427,0
46.5547,-23.0041,0.279085,0
46.7051,-22.621,0.278968,0
46.8503,-22.2375,0.279056,0
46.9895,-21.8531,0.27929,0
47.1178,-21.4657,0.27932,0
47.2452,-21.0795,0.279866,0
47.3736,-20.695,0.281068,0
47.4973,-20.3094,0.282474,0
47.6159,-19.9227,0.284085,0
47.7274,-19.5341,0.285745,0
47.8334,-19.144,0.287552,0
47.9356,-18.753,0.289642,0
48.0641,-18.3673,0.294114,0
48.1816,-17.9773,0.298353,0
48.2941,-17.5846,0.302777,0
48.4023,-17.189,0.307435,0
48.506,-16.7905,0.312318,0
48.6053,-16.3889,0.317435,0
48.7091,-15.9848,0.323421,0
48.8115,-15.5772,0.329847,0
48.3524,-15.1514,0.298156,174
48.2224,-14.7483,0.289669,174
48.1914,-14.3492,0.288542,174
48.3592,-13.9422,0.301687,174
49.2532,-13.4767,0.365687,0
49.3587,-13.0403,0.375814,0
49.4602,-12.5975,0.386292,0
49.5573,-12.1481,0.397112,0
49.6416,-11.6933,0.407708,0
49.7212,-11.2318,0.418646,0
49.8437,-10.7535,0.433314,0
49.9623,-10.2654,0.44846,0
50.0768,-9.76738,0.464095,0
50.1848,-9.25964,0.480081,0
50.3805,-8.71243,0.503255,0
49.9846,-8.34844,0.484315,174
26.6169,-38.9945,0.440374,0
27.2063,-38.9815,0.440413,0
27.7951,-38.9375,0.439534,0
28.3687,-38.9711,0.443655,0
28.9403,-39.0098,0.448831,0
29.5122,-39.036,0.454095,0
30.0851,-39.0263,0.458138,0
30.6581,-38.932,0.458255,0
31.2262,-38.7904,0.456448,0
31.7873,-38.6395,0.454808,0
32.3413,-38.4714,0.452874,0
32.8871,-38.2823,0.450433,0
33.4296,-38.1333,0.450902,0
33.9663,-37.9732,0.451409,0
34.4969,-37.8023,0.451946,0
35.0212,-37.6208,0.452523,0
35.5323,-37.3924,0.45098,0
36.0266,-37.1157,0.447171,0
36.5114,-36.8319,0.44347,0
36.9864,-36.5413,0.439886,0
37.4517,-36.2442,0.436409,0
37.9014,-35.9217,0.431859,0
38.3263,-35.5518,0.424798,0
38.74,-35.18,0.418001,0
39.1425,-34.8064,0.411448,0
39.5343,-34.4312,0.40514,0
39.9154,-34.0546,0.399095,0
40.2843,-33.6728,0.39303,0
40.6319,-33.2679,0.385696,0
40.9688,-32.8637,0.378665,0
41.2941,-32.4575,0.371751,0
41.6091,-32.0515,0.365062,0
41.9139,-31.6459,0.358636,0
42.2091,-31.2408,0.352454,0
42.5007,-30.8451,0.347181,0
42.7795,-30.4442,0.341741,0
43.0327,-30.0223,0.334798,0
43.277,-29.6028,0.328177,0
43.5129,-29.1857,0.321878,0
43.7404,-28.771,0.315863,0
43.9726,-28.372,0.311312,0
44.2027,-27.9799,0.307542,0
44.4258,-27.5886,0.304017,0
44.6419,-27.1982,0.300765,0
44.8512,-26.8085,0.297738,0
45.0541,-26.4195,0.294974,0
45.2485,-26.0296,0.292288,0
45.434,-25.6382,0.289622,0
45.6133,-25.2475,0.287191,0
45.7864,-24.8576,0.285003,0
45.9538,-24.4683,0.28305,0
46.1152,-24.0795,0.281331,0
46.2713,-23.6914,0.279866,0
46.4312,-23.3088,0.279339,0
46.5858,-22.926,0.279046,0
46.7352,-22.5428,0.278958,0
46.8794,-22.1592,0.279095,0
47.0161,-21.774,0.27928,0
47.1434,-21.3865,0.279349,0
47.2717,-21.0011,0.280091,0
47.3992,-20.6164,0.281341,0
47.5218,-20.2306,0.282786,0
47.6395,-19.8436,0.284437,0
47.7495,-19.4545,0.286097,0
47.8544,-19.0643,0.287952,0
47.9621,-18.6745,0.29054,0
48.0888,-18.288,0.294993,0
48.2049,-17.8974,0.299241,0
48.3165,-17.504,0.303714,0
48.4238,-17.1079,0.308411,0
48.5266,-16.7087,0.313343,0
48.6249,-16.3066,0.318509,0
48.7304,-15.9019,0.32471,0
48.8319,-15.4935,0.331195,0
48.3081,-15.0682,0.295153,174
48.2052,-14.6668,0.288641,174
48.2158,-14.2671,0.290499,174
48.4398,-13.8558,0.307649,174
49.2751,-13.3881,0.367728,0
49.3798,-12.9504,0.377913,0
49.4802,-12.5063,0.38847,0
49.5766,-12.0555,0.399378,0
49.6549,-11.6002,0.409691,0
49.7465,-11.135,0.421605,0
49.8682,-10.6547,0.43637,0
49.9859,-10.1646,0.451614,0
50.0997,-9.66447,0.467357,0
50.2061,-9.15478,0.483382,0
50.4727,-8.58199,0.511888,0
26.7375,-38.993,0.440374,0
27.3263,-38.9771,0.440423,0
27.9141,-38.9312,0.439593,0
28.4854,-38.98,0.4447,0
29.057,-39.0162,0.449905,0
29.6289,-39.0398,0.455179,0
30.2021,-39.0167,0.458636,0
30.7746,-38.9039,0.457874,0
31.3412,-38.7604,0.456097,0
31.9011,-38.6076,0.454495,0
32.4533,-38.4322,0.452298,0
32.9983,-38.2528,0.450521,0
33.5397,-38.1015,0.451009,0
34.0751,-37.9392,0.451517,0
34.6045,-37.7661,0.452064,0
35.1275,-37.5824,0.45265,0
35.6339,-37.3365,0.450189,0
36.1264,-37.0583,0.4464,0
36.6091,-36.7731,0.442728,0
37.0821,-36.4812,0.439163,0
37.5455,-36.1827,0.435716,0
37.9891,-35.8464,0.430394,0
38.4117,-35.4761,0.423382,0
38.823,-35.1039,0.416634,0
39.2234,-34.73,0.41013,0
39.6129,-34.3545,0.4039,0
39.9919,-33.9775,0.397894,0
40.3562,-33.5901,0.391517,0
40.7015,-33.1854,0.384241,0
41.0362,-32.781,0.377249,0
41.3592,-32.3747,0.370364,0
41.6721,-31.9687,0.363734,0
41.975,-31.5632,0.357357,0
42.268,-31.1582,0.351224,0
42.5597,-30.7652,0.346204,0
42.832,-30.3579,0.340296,0
43.0833,-29.9364,0.333421,0
43.3258,-29.5175,0.326868,0
43.56,-29.1009,0.320618,0
43.7859,-28.6866,0.314661,0
44.0202,-28.2919,0.310521,0
44.2488,-27.9,0.3068,0
44.4705,-27.5089,0.303333,0
44.6852,-27.1186,0.30013,0
44.8931,-26.7291,0.297161,0
45.0946,-26.3401,0.294437,0
45.287,-25.9496,0.291732,0
45.471,-25.5584,0.289105,0
45.6491,-25.1679,0.286722,0
45.821,-24.7781,0.284593,0
45.9871,-24.3889,0.282689,0
46.1474,-24.0002,0.281009,0
46.3044,-23.6133,0.279739,0
46.4632,-23.2307,0.279271,0
46.6167,-22.8478,0.279007,0
46.765,-22.4645,0.278968,0
46.9082,-22.0808,0.279154,0
47.0424,-21.695,0.279271,0
47.1686,-21.3074,0.279388,0
47.2982,-20.9227,0.280325,0
47.4247,-20.5377,0.281614,0
47.5462,-20.1517,0.283109,0
47.6625,-19.7643,0.284769,0
47.7712,-19.375,0.286458,0
47.8753,-18.9844,0.288353,0
47.9885,-18.5959,0.291448,0
48.1129,-18.2085,0.295843,0
48.228,-17.8173,0.30013,0
48.3387,-17.4234,0.304652,0
48.4452,-17.0267,0.309398,0
48.547,-16.6269,0.314378,0
48.6466,-16.2242,0.319739,0
48.7514,-15.8189,0.326009,0
48.852,-15.4096,0.332552,0
48.2747,-14.9857,0.292929,174
48.1879,-14.5854,0.287636,174
48.2403,-14.1848,0.292483,174
48.5212,-13.7685,0.313694,174
49.2968,-13.2993,0.369779,0
49.4006,-12.8603,0.380042,0
49.5003,-12.4148,0.390667,0
49.5958,-11.9627,0.401644,0
49.668,-11.5069,0.411673,0
49.7716,-11.0377,0.424583,0
49.8925,-10.5554,0.439437,0
50.0095,-10.0633,0.454788,0
50.1223,-9.56117,0.470618,0
50.2271,-9.04949,0.486722,0
50.5658,-8.45001,0.520628,0
27.0077,-36.3462,0.453782,0
27.5271,-36.3735,0.455345,0
28.05,-36.3582,0.455032,0
28.5723,-36.3133,0.453675,0
29.0905,-36.2574,0.452386,0
29.6045,-36.1908,0.451185,0
30.1141,-36.1137,0.450052,0
30.6186,-36.0499,0.450491,0
31.1195,-35.9928,0.452073,0
31.6173,-35.9241,0.453646,0
32.1118,-35.8438,0.455208,0
32.6028,-35.752,0.456761,0
33.089,-35.6359,0.457464,0
33.5692,-35.4983,0.457454,0
34.0441,-35.3503,0.457464,0
34.5135,-35.1922,0.457464,0
34.9773,-35.0242,0.457464,0
35.4309,-34.8268,0.456155,0
35.8678,-34.5782,0.452025,0
36.296,-34.3226,0.447952,0
36.7155,-34.0604,0.443978,0
37.1262,-33.7919,0.440081,0
37.5293,-33.5202,0.436478,0
37.9222,-33.2384,0.43264,0
38.2996,-32.9335,0.42764,0
38.668,-32.6248,0.422786,0
39.0273,-32.3124,0.418089,0
39.3777,-31.9966,0.413558,0
39.7195,-31.6773,0.409163,0
40.0524,-31.3549,0.404915,0
40.3707,-31.0187,0.399974,0
40.6748,-30.671,0.394456,0
40.9694,-30.3209,0.389046,0
41.2552,-29.9695,0.383821,0
41.5325,-29.617,0.378812,0
41.8014,-29.2634,0.373978,0
42.0621,-28.9089,0.36932,0
42.3167,-28.5561,0.365081,0
42.5695,-28.2094,0.361683,0
42.8075,-27.8535,0.357698,0
43.0294,-27.4876,0.353001,0
43.244,-27.122,0.348529,0
43.4514,-26.7568,0.34428,0
43.6516,-26.3919,0.340257,0
43.8519,-26.0333,0.337103,0
44.0552,-25.6831,0.335091,0
44.2526,-25.3323,0.333294,0
44.4437,-24.9808,0.331693,0
44.629,-24.6287,0.330286,0
44.8084,-24.2758,0.329085,0
44.9819,-23.9222,0.32807,0
45.1489,-23.5674,0.327181,0
45.3052,-23.2088,0.326048,0
45.4539,-22.8487,0.324964,0
45.5973,-22.4883,0.324085,0
45.7353,-22.1275,0.323402,0
45.868,-21.7663,0.322943,0
45.9955,-21.4046,0.322679,0
46.1227,-21.0444,0.323011,0
46.2491,-20.6852,0.32389,0
46.3705,-20.3249,0.324974,0
46.4872,-19.9634,0.326273,0
46.5933,-19.599,0.327318,0
46.6932,-19.2332,0.32847,0
46.7881,-18.8663,0.329798,0
46.8995,-18.5036,0.332991,0
47.0145,-18.1405,0.337034,0
47.1251,-17.7749,0.341273,0
47.2311,-17.4066,0.345745,0
47.3327,-17.0356,0.350423,0
47.4296,-16.6618,0.355316,0
47.5146,-16.2844,0.359886,0
47.6077,-15.9053,0.365628,0
47.693,-15.5227,0.37138,0
47.7716,-15.1369,0.377181,0
47.8455,-14.7478,0.383226,0
47.9145,-14.3554,0.389515,0
47.9788,-13.9595,0.396038,0
48.0612,-13.5586,0.404564,0
48.1406,-13.1527,0.413499,0
48.2059,-12.743,0.422015,0
48.266,-12.3287,0.430784,0
48.3209,-11.9097,0.439818,0
48.3703,-11.4859,0.449134,0
48.4523,-11.0491,0.461693,0
48.547,-10.601,0.476009,0
48.644,-10.1428,0.491302,0
48.7416,-9.67417,0.507484,0
48.8349,-9.19591,0.524193,0
48.9801,-8.6886,0.54597,0
27.1137,-36.3528,0.454105,0
27.6336,-36.3744,0.455462,0
28.157,-36.3499,0.454749,0
28.6783,-36.3027,0.453402,0
29.1957,-36.2447,0.452142,0
29.7088,-36.1759,0.45095,0
30.2175,-36.0967,0.449837,0
30.721,-36.0392,0.450814,0
31.2212,-35.9798,0.452396,0
31.7184,-35.9086,0.453968,0
32.2123,-35.826,0.455521,0
32.7027,-35.7319,0.457073,0
33.1874,-35.6087,0.457464,0
33.6666,-35.469,0.457464,0
34.1404,-35.3189,0.457454,0
34.6087,-35.1587,0.457464,0
35.0712,-34.9886,0.457464,0
35.5209,-34.7767,0.455316,0
35.9559,-34.5265,0.451185,0
36.3823,-34.2696,0.447132,0
36.8,-34.0061,0.443177,0
37.2091,-33.7364,0.4393,0
37.6111,-33.4658,0.435862,0
38,-33.1765,0.431605,0
38.3755,-32.8708,0.426634,0
38.7421,-32.5614,0.42182,0
39.0996,-32.2483,0.417152,0
39.4482,-31.9316,0.41264,0
39.7881,-31.6117,0.408275,0
40.1193,-31.2887,0.404066,0
40.4335,-30.9479,0.398831,0
40.7356,-30.5997,0.393343,0
41.0284,-30.2492,0.387962,0
41.3125,-29.8976,0.382786,0
41.588,-29.5449,0.377806,0
41.8552,-29.1911,0.373001,0
42.1142,-28.8364,0.368392,0
42.3688,-28.4854,0.364378,0
42.62,-28.1385,0.361019,0
42.8534,-27.7788,0.356722,0
43.0738,-27.4129,0.352073,0
43.2869,-27.0474,0.34764,0
43.4929,-26.6822,0.343431,0
43.6917,-26.3174,0.339466,0
43.8939,-25.9619,0.336663,0
44.096,-25.6116,0.33471,0
44.2921,-25.2606,0.332952,0
44.4821,-24.909,0.33139,0
44.6661,-24.5567,0.330023,0
44.8442,-24.2037,0.328861,0
45.0162,-23.8497,0.327845,0
45.1828,-23.4953,0.327073,0
45.3359,-23.1354,0.325814,0
45.4837,-22.7752,0.324759,0
45.6259,-22.4147,0.323929,0
45.7628,-22.0538,0.323294,0
45.8944,-21.6925,0.322874,0
46.0209,-21.3307,0.32265,0
46.1488,-20.9712,0.323177,0
46.2742,-20.6117,0.324095,0
46.3948,-20.2512,0.325228,0
46.5101,-19.8894,0.326527,0
46.6141,-19.5244,0.327532,0
46.713,-19.1584,0.328724,0
46.807,-18.7913,0.330091,0
46.9234,-18.4297,0.333802,0
47.0375,-18.0661,0.337884,0
47.1471,-17.6999,0.342171,0
47.2522,-17.3311,0.346673,0
47.3528,-16.9595,0.351409,0
47.4488,-16.5851,0.356351,0
47.534,-16.2073,0.361038,0
47.626,-15.8275,0.36682,0
47.7095,-15.4442,0.372532,0
47.7871,-15.0577,0.378402,0
47.8599,-14.668,0.384486,0
47.928,-14.2748,0.390814,0
47.9913,-13.8783,0.397396,0
48.0798,-13.476,0.406527,0
48.1543,-13.0695,0.415218,0
48.2186,-12.6588,0.423773,0
48.2777,-12.2435,0.432601,0
48.3313,-11.8236,0.441702,0
48.3798,-11.3987,0.451068,0
48.472,-10.9583,0.464583,0
48.5657,-10.5085,0.478978,0
48.6642,-10.0479,0.494564,0
48.7609,-9.57735,0.510843,0
48.8534,-9.09707,0.527679,0
27.2198,-36.3588,0.454417,0
27.7402,-36.3729,0.455482,0
28.2638,-36.3411,0.454466,0
28.7842,-36.2917,0.453138,0
29.3008,-36.2315,0.451888,0
29.813,-36.1606,0.450716,0
30.3209,-36.0793,0.449622,0
30.8234,-36.028,0.451136,0
31.323,-35.9662,0.452718,0
31.8195,-35.8927,0.45429,0
32.3127,-35.8077,0.455843,0
32.8023,-35.7114,0.457396,0
33.2856,-35.581,0.457464,0
33.7637,-35.4392,0.457464,0
34.2365,-35.287,0.457454,0
34.7035,-35.1248,0.457454,0
35.1648,-34.9527,0.457454,0
35.6104,-34.7262,0.454456,0
36.0437,-34.4746,0.450355,0
36.4683,-34.2164,0.446321,0
36.8841,-33.9516,0.442376,0
37.2915,-33.6805,0.438509,0
37.6926,-33.4111,0.435267,0
38.0773,-33.1144,0.430579,0
38.451,-32.808,0.425638,0
38.8157,-32.4977,0.420853,0
39.1715,-32.1839,0.416224,0
39.5183,-31.8666,0.411741,0
39.8564,-31.546,0.407415,0
40.1859,-31.2224,0.403226,0
40.4959,-30.877,0.397698,0
40.7961,-30.5282,0.39222,0
41.087,-30.1775,0.386898,0
41.3694,-29.8257,0.381751,0
41.6433,-29.4728,0.37681,0
41.9088,-29.1188,0.372054,0
42.1661,-28.7639,0.367474,0
42.4207,-28.4147,0.363675,0
42.6704,-28.0675,0.360355,0
42.8991,-27.7041,0.355755,0
43.1179,-27.3383,0.351146,0
43.3295,-26.9728,0.346771,0
43.534,-26.6077,0.342611,0
43.7314,-26.243,0.338675,0
43.9356,-25.8905,0.336253,0
44.1366,-25.54,0.334329,0
44.3313,-25.1889,0.332611,0
44.5202,-24.8372,0.331087,0
44.703,-24.4847,0.329769,0
44.8798,-24.1316,0.328636,0
45.0497,-23.7768,0.327581,0
45.2145,-23.4218,0.32679,0
45.3666,-23.0618,0.325579,0
45.5131,-22.7016,0.324573,0
45.6543,-22.341,0.323773,0
45.7902,-21.9801,0.323196,0
45.9206,-21.6186,0.322806,0
46.046,-21.2568,0.32263,0
46.1748,-20.8979,0.323353,0
46.2992,-20.5382,0.32431,0
46.4188,-20.1774,0.325482,0
46.5317,-19.815,0.326722,0
46.6347,-19.4497,0.327757,0
46.7326,-19.0835,0.328988,0
46.8294,-18.7172,0.330706,0
46.947,-18.3557,0.334612,0
47.0602,-17.9915,0.338734,0
47.1689,-17.6248,0.34307,0
47.2731,-17.2555,0.34763,0
47.3727,-16.8833,0.352386,0
47.4679,-16.5083,0.357386,0
47.5532,-16.13,0.3622,0
47.6442,-15.7496,0.36803,0
47.7257,-15.3656,0.373714,0
47.8023,-14.9784,0.379622,0
47.8742,-14.588,0.385755,0
47.9413,-14.1942,0.392142,0
48.0059,-13.7968,0.398948,0
48.0983,-13.3931,0.408499,0
48.1679,-12.986,0.416946,0
48.2311,-12.5744,0.42556,0
48.2891,-12.1582,0.434446,0
48.3417,-11.7373,0.443587,0
48.3942,-11.3104,0.453431,0
48.4914,-10.8671,0.467484,0
48.5842,-10.4157,0.481976,0
48.6843,-9.95265,0.497845,0
48.7802,-9.48013,0.514241,0
48.8718,-8.9978,0.531175,0
27.411,-34.2567,0.467366,0
27.8795,-34.286,0.468665,0
28.3587,-34.2254,0.464534,0
28.8332,-34.1547,0.460482,0
29.3025,-34.0746,0.456546,0
29.7666,-33.9853,0.452698,0
30.2247,-33.9026,0.450062,0
30.6767,-33.8563,0.450667,0
31.126,-33.8111,0.452093,0
31.573,-33.7553,0.453509,0
32.0172,-33.6891,0.454905,0
32.4585,-33.6126,0.456302,0
32.8965,-33.5227,0.457454,0
33.3291,-33.4068,0.457464,0
33.7574,-33.2815,0.457454,0
34.1809,-33.1469,0.457464,0
34.5997,-33.0032,0.457454,0
35.0136,-32.8505,0.457464,0
35.4198,-32.6785,0.456663,0
35.8143,-32.4755,0.454173,0
36.202,-32.2653,0.451722,0
36.5829,-32.0482,0.44931,0
36.9569,-31.8243,0.446946,0
37.3234,-31.5926,0.444515,0
37.6815,-31.3515,0.441888,0
38.0248,-31.0861,0.437825,0
38.3578,-30.8109,0.433431,0
38.683,-30.5318,0.429173,0
39.0005,-30.249,0.425042,0
39.3102,-29.9627,0.421048,0
39.6122,-29.6731,0.417191,0
39.9067,-29.3802,0.41347,0
40.1936,-29.0843,0.409857,0
40.4641,-28.7717,0.40513,0
40.7287,-28.4602,0.400843,0
40.9887,-28.1503,0.397054,0
41.2413,-27.8385,0.393431,0
41.4869,-27.5249,0.389974,0
41.7255,-27.2097,0.386693,0
41.9572,-26.8928,0.383568,0
42.182,-26.5743,0.380599,0
42.4002,-26.2544,0.377796,0
42.617,-25.9383,0.375745,0
42.8241,-25.6172,0.37347,0
43.0209,-25.2915,0.37095,0
43.2116,-24.9648,0.368626,0
43.3963,-24.6371,0.366478,0
43.5749,-24.3086,0.364515,0
43.7476,-23.9792,0.362718,0
43.9156,-23.6498,0.361234,0
44.0845,-23.3238,0.36056,0
44.2477,-22.9966,0.360052,0
44.4055,-22.6681,0.35971,0
44.5579,-22.3384,0.359544,0
44.7048,-22.0074,0.359554,0
44.8466,-21.6751,0.35973,0
44.9805,-21.3405,0.359857,0
45.1122,-21.006,0.360423,0
45.2365,-20.6693,0.36097,0
45.351,-20.3297,0.361282,0
45.4605,-19.989,0.36178,0
45.565,-19.6475,0.362464,0
45.6645,-19.3049,0.363343,0
45.759,-18.9613,0.364398,0
45.8597,-18.6196,0.366585,0
45.9707,-18.2799,0.370247,0
46.0773,-17.938,0.374124,0
46.1702,-17.5918,0.377405,0
46.254,-17.243,0.38055,0
46.3327,-16.8922,0.383851,0
46.4065,-16.5394,0.387327,0
46.4813,-16.1853,0.391478,0
46.5648,-15.83,0.396976,0
46.6434,-15.4716,0.402659,0
46.7173,-15.1103,0.408558,0
46.7862,-14.7459,0.414671,0
46.8502,-14.3785,0.42098,0
46.9091,-14.0078,0.427503,0
46.9684,-13.6337,0.4347,0
47.0278,-13.2554,0.442581,0
47.0823,-12.8734,0.450696,0
47.1315,-12.4874,0.459066,0
47.1755,-12.0974,0.467669,0
47.2116,-11.7038,0.476341,0
47.2423,-11.3061,0.485257,0
47.3334,-10.8887,0.500111,0
47.4201,-10.4635,0.515394,0
47.502,-10.0302,0.531126,0
47.5791,-9.58874,0.547327,0
47.6509,-9.13887,0.563978,0
27.5066,-34.2635,0.46763,0
27.9777,-34.2748,0.467835,0
28.456,-34.2118,0.463704,0
28.9294,-34.1391,0.459671,0
29.3977,-34.0571,0.455745,0
29.8608,-33.9659,0.451927,0
30.3174,-33.888,0.449759,0
30.7686,-33.8479,0.45096,0
31.2174,-33.8005,0.452376,0
31.6638,-33.7426,0.453792,0
32.1075,-33.6743,0.455198,0
32.5483,-33.5957,0.456585,0
32.9852,-33.4998,0.457454,0
33.4169,-33.382,0.457454,0
33.8441,-33.2548,0.457454,0
34.2668,-33.1183,0.457454,0
34.6846,-32.9727,0.457454,0
35.0974,-32.8183,0.457464,0
35.5008,-32.6376,0.456155,0
35.894,-32.4331,0.453665,0
36.2803,-32.2215,0.451224,0
36.6598,-32.003,0.448821,0
37.0323,-31.7778,0.446468,0
37.397,-31.5439,0.443978,0
37.7537,-31.3016,0.441361,0
38.0934,-31.0303,0.436917,0
38.4248,-30.7542,0.432552,0
38.7484,-30.4744,0.428323,0
39.0643,-30.1909,0.424212,0
39.3725,-29.9039,0.420257,0
39.673,-29.6136,0.416419,0
39.9659,-29.3201,0.412718,0
40.2507,-29.0226,0.409056,0
40.518,-28.7071,0.404144,0
40.7824,-28.3971,0.400052,0
41.0409,-28.0868,0.396302,0
41.292,-27.7746,0.392708,0
41.5361,-27.4607,0.38929,0
41.7733,-27.1451,0.386038,0
42.0037,-26.8279,0.382952,0
42.2271,-26.5092,0.380013,0
42.4439,-26.1889,0.377249,0
42.6609,-25.874,0.375394,0
42.8648,-25.5508,0.372933,0
43.0604,-25.2248,0.370462,0
43.2498,-24.898,0.368177,0
43.4332,-24.5701,0.366058,0
43.6106,-24.2414,0.364134,0
43.7821,-23.9118,0.362376,0
43.9506,-23.5834,0.361087,0
44.1183,-23.2571,0.360443,0
44.2804,-22.9296,0.359964,0
44.437,-22.6009,0.359661,0
44.5884,-22.2709,0.359534,0
44.7342,-21.9397,0.359573,0
44.8748,-21.6071,0.359779,0
45.0066,-21.2717,0.359847,0
45.1389,-20.9378,0.360609,0
45.2602,-20.6001,0.361019,0
45.3737,-20.2602,0.36137,0
45.4822,-19.9194,0.361907,0
45.5856,-19.5776,0.36264,0
45.6842,-19.2348,0.363538,0
45.7777,-18.8911,0.364642,0
45.8827,-18.5505,0.367318,0
45.9928,-18.2103,0.371019,0
46.0984,-17.8679,0.374925,0
46.1876,-17.5208,0.37804,0
46.2704,-17.1715,0.381204,0
46.3482,-16.8203,0.384544,0
46.4209,-16.4672,0.38806,0
46.4987,-16.113,0.392591,0
46.5812,-15.757,0.398118,0
46.6589,-15.3981,0.403851,0
46.7317,-15.0362,0.409788,0
46.7997,-14.6712,0.415941,0
46.8627,-14.3031,0.422288,0
46.9205,-13.9318,0.428861,0
46.9809,-13.5568,0.436292,0
47.0394,-13.1778,0.444212,0
47.0927,-12.7949,0.452386,0
47.1409,-12.4081,0.460804,0
47.1838,-12.0173,0.469456,0
47.2166,-11.6232,0.477982,0
47.2612,-11.2215,0.488245,0
47.3514,-10.8025,0.503187,0
47.4372,-10.3757,0.518568,0
47.5181,-9.94079,0.534398,0
47.5942,-9.4976,0.550696,0
27.6023,-34.2699,0.467894,0
28.0757,-34.2627,0.466986,0
28.553,-34.1977,0.462874,0
29.0255,-34.1231,0.458861,0
29.4926,-34.0392,0.454964,0
29.9545,-33.9462,0.451165,0
30.4098,-33.8781,0.449827,0
30.8605,-33.8391,0.451253,0
31.3088,-33.7896,0.452669,0
31.7546,-33.7295,0.454075,0
32.1977,-33.6591,0.455482,0
32.6378,-33.5784,0.456868,0
33.0736,-33.4765,0.457454,0
33.5045,-33.3568,0.457464,0
33.9309,-33.2277,0.457464,0
34.3525,-33.0894,0.457464,0
34.7693,-32.942,0.457464,0
35.181,-32.7857,0.457464,0
35.5816,-32.5965,0.455638,0
35.9734,-32.3905,0.453157,0
36.3584,-32.1775,0.450736,0
36.7364,-31.9575,0.448333,0
37.1075,-31.731,0.445999,0
37.4704,-31.4949,0.443431,0
37.8239,-31.2472,0.440491,0
38.1616,-30.9742,0.436009,0
38.4915,-30.6974,0.431673,0
38.8135,-30.4168,0.427474,0
39.1278,-30.1326,0.423402,0
39.4345,-29.8449,0.419456,0
39.7333,-29.554,0.415657,0
40.0247,-29.2598,0.411986,0
40.3059,-28.9583,0.40803,0
40.5716,-28.6427,0.403167,0
40.8358,-28.3339,0.39928,0
41.0927,-28.0232,0.39555,0
41.3424,-27.7107,0.392005,0
41.5852,-27.3964,0.388616,0
41.8209,-27.0805,0.385394,0
42.0498,-26.763,0.382337,0
42.2719,-26.4439,0.379437,0
42.4885,-26.1245,0.376829,0
42.7045,-25.8095,0.375032,0
42.9052,-25.4844,0.372415,0
43.0995,-25.1582,0.369984,0
43.2878,-24.8311,0.367728,0
43.4699,-24.5031,0.365648,0
43.6461,-24.1742,0.363753,0
43.8163,-23.8444,0.362034,0
43.9853,-23.5169,0.360941,0
44.1519,-23.1904,0.360325,0
44.3128,-22.8627,0.359896,0
44.4684,-22.5337,0.359622,0
44.6185,-22.2034,0.359534,0
44.7634,-21.8719,0.359603,0
44.9028,-21.5391,0.359837,0
45.0333,-21.2033,0.359925,0
45.1655,-20.8696,0.360804,0
45.2838,-20.5308,0.361077,0
45.3963,-20.1907,0.361468,0
45.5037,-19.8497,0.362034,0
45.6062,-19.5077,0.362796,0
45.7037,-19.1647,0.363753,0
45.7962,-18.8207,0.364886,0
45.9055,-18.4812,0.36806,0
46.0148,-18.1407,0.37181,0
46.1181,-17.7974,0.375648,0
46.2049,-17.4496,0.378665,0
46.2867,-17.1,0.381868,0
46.3634,-16.7484,0.385247,0
46.4352,-16.3949,0.388802,0
46.5159,-16.0406,0.393704,0
46.5975,-15.684,0.399271,0
46.6742,-15.3245,0.405042,0
46.7461,-14.9619,0.411029,0
46.813,-14.5963,0.41722,0
46.8748,-14.2276,0.423626,0
46.9317,-13.8556,0.430238,0
46.9932,-13.4797,0.437894,0
47.0507,-13.1,0.445863,0
47.103,-12.7163,0.454085,0
47.1502,-12.3286,0.462542,0
47.1919,-11.937,0.471263,0
47.2215,-11.5426,0.479652,0
47.28,-11.1367,0.491253,0
47.3693,-10.716,0.506292,0
47.4541,-10.2876,0.521751,0
47.5341,-9.85101,0.537689,0
47.6091,-9.40607,0.554075,0
27.7771,-32.3606,0.465325,0
28.2017,-32.3778,0.465433,0
28.6255,-32.3837,0.465472,0
29.0479,-32.3786,0.465433,0
29.473,-32.319,0.462015,0
29.8946,-32.2452,0.458245,0
30.3116,-32.1626,0.454544,0
30.7228,-32.1155,0.45431,0
31.1312,-32.0641,0.454466,0
31.5371,-32.0037,0.454661,0
31.9401,-31.9343,0.454876,0
32.3408,-31.8665,0.455931,0
32.7389,-31.7922,0.4572,0
33.1328,-31.6962,0.457454,0
33.5226,-31.5882,0.457464,0
33.9085,-31.4716,0.457464,0
34.2902,-31.3466,0.457454,0
34.6677,-31.2133,0.457454,0
35.0408,-31.0718,0.457454,0
35.4081,-30.9181,0.457103,0
35.7669,-30.7437,0.455657,0
36.1191,-30.5597,0.454007,0
36.4658,-30.3693,0.452425,0
36.8066,-30.1726,0.450882,0
37.1417,-29.9699,0.449407,0
37.4709,-29.7614,0.447982,0
37.793,-29.5442,0.446361,0
38.0963,-29.2948,0.442357,0
38.3926,-29.0415,0.43847,0
38.682,-28.7845,0.43471,0
38.9665,-28.5275,0.431409,0
39.2466,-28.2709,0.428597,0
39.5202,-28.0108,0.425911,0
39.7875,-27.7474,0.423353,0
40.0483,-27.4808,0.420911,0
40.3004,-27.2076,0.418245,0
40.5392,-26.9228,0.414759,0
40.7715,-26.6359,0.411439,0
40.9973,-26.347,0.408265,0
41.2191,-26.0589,0.40555,0
41.4381,-25.7726,0.403421,0
41.6512,-25.4842,0.401439,0
41.8582,-25.1938,0.399603,0
42.0595,-24.9015,0.397923,0
42.2547,-24.6073,0.39639,0
42.4443,-24.3112,0.395003,0
42.628,-24.0134,0.393763,0
42.8018,-23.7104,0.392191,0
42.9724,-23.408,0.391048,0
43.1352,-23.1025,0.389818,0
43.2926,-22.7957,0.388753,0
43.4442,-22.4876,0.387835,0
43.5905,-22.1782,0.387073,0
43.7313,-21.8675,0.386458,0
43.8666,-21.5556,0.385999,0
43.9966,-21.2425,0.385677,0
44.1287,-20.9317,0.386243,0
44.2558,-20.6196,0.386976,0
44.3778,-20.3058,0.387864,0
44.4947,-19.9906,0.38889,0
44.6064,-19.6738,0.390062,0
44.713,-19.3556,0.3914,0
44.8122,-19.035,0.39265,0
44.9053,-18.7129,0.393968,0
45.0075,-18.3932,0.396761,0
45.1048,-18.0715,0.399691,0
45.1959,-17.7475,0.402679,0
45.2785,-17.4209,0.405482,0
45.3562,-17.0926,0.40847,0
45.429,-16.7625,0.411614,0
45.4968,-16.4307,0.414935,0
45.57,-16.098,0.419349,0
45.6455,-15.7635,0.424612,0
45.7163,-15.4265,0.430052,0
45.7823,-15.0867,0.435687,0
45.8434,-14.7443,0.441536,0
45.8997,-14.3991,0.447571,0
45.9509,-14.0512,0.453821,0
46.0005,-13.7002,0.46057,0
46.0512,-13.3456,0.468089,0
46.0968,-12.9877,0.475843,0
46.1308,-12.6273,0.483236,0
46.1569,-12.2643,0.490609,0
46.1774,-11.8982,0.498196,0
46.1923,-11.5292,0.505989,0
46.2356,-11.149,0.517171,0
46.3048,-10.7557,0.531595,0
46.369,-10.3556,0.546409,0
46.4087,-9.95484,0.559779,0
46.4164,-9.55703,0.570999,0
27.8638,-32.365,0.465355,0
28.2883,-32.3799,0.465443,0
28.7118,-32.3836,0.465472,0
29.1345,-32.3714,0.465052,0
29.5595,-32.3047,0.461234,0
29.9801,-32.229,0.457484,0
30.3959,-32.1498,0.454202,0
30.8064,-32.1057,0.454339,0
31.2144,-32.0525,0.454505,0
31.6196,-31.9902,0.4547,0
32.022,-31.9191,0.454925,0
32.4223,-31.8521,0.456195,0
32.8198,-31.7759,0.457454,0
33.2127,-31.6749,0.457454,0
33.6017,-31.5651,0.457454,0
33.9867,-31.4468,0.457464,0
34.3677,-31.32,0.457464,0
34.7442,-31.1851,0.457464,0
35.1164,-31.042,0.457464,0
35.482,-30.8839,0.456859,0
35.8391,-30.7067,0.455316,0
36.1904,-30.5213,0.453675,0
36.5359,-30.3296,0.452103,0
36.8755,-30.1317,0.450579,0
37.2095,-29.9278,0.449114,0
37.5375,-29.7181,0.447698,0
37.8555,-29.4936,0.44554,0
38.1573,-29.2434,0.441556,0
38.4523,-28.9893,0.437689,0
38.7402,-28.7316,0.433958,0
39.0242,-28.4754,0.430823,0
39.303,-28.2181,0.42804,0
39.5754,-27.9574,0.425384,0
39.8412,-27.6933,0.422855,0
40.1008,-27.426,0.420433,0
40.3497,-27.1496,0.417523,0
40.5871,-26.8644,0.414075,0
40.8181,-26.5771,0.410775,0
41.0427,-26.2879,0.40764,0
41.2643,-26.0007,0.405101,0
41.482,-25.7139,0.403001,0
41.6939,-25.4251,0.401058,0
41.8998,-25.1343,0.399251,0
42.0998,-24.8416,0.397601,0
42.2939,-24.547,0.396097,0
42.4823,-24.2506,0.394739,0
42.6648,-23.9524,0.393529,0
42.8371,-23.6489,0.391946,0
43.006,-23.3458,0.390784,0
43.1677,-23.04,0.389593,0
43.3239,-22.7329,0.388558,0
43.4745,-22.4246,0.387679,0
43.6197,-22.1149,0.386937,0
43.7593,-21.804,0.386351,0
43.8936,-21.4918,0.385921,0
44.0239,-21.1791,0.385765,0
44.1551,-20.8682,0.38638,0
44.2812,-20.5556,0.387142,0
44.4021,-20.2416,0.38806,0
44.5179,-19.9261,0.389114,0
44.6286,-19.609,0.390325,0
44.7341,-19.2904,0.391683,0
44.831,-18.9692,0.392855,0
44.9266,-18.6478,0.394525,0
45.0278,-18.3277,0.397347,0
45.124,-18.0055,0.400306,0
45.2131,-17.681,0.403236,0
45.2947,-17.3541,0.406087,0
45.3715,-17.0254,0.409095,0
45.4432,-16.6949,0.412279,0
45.51,-16.3627,0.415628,0
45.5858,-16.0299,0.420404,0
45.6604,-15.6949,0.425696,0
45.7302,-15.3573,0.431185,0
45.7952,-15.017,0.436878,0
45.8552,-14.6741,0.442747,0
45.9105,-14.3283,0.448831,0
45.9608,-13.9798,0.455111,0
46.0112,-13.6281,0.462083,0
46.0609,-13.2728,0.469661,0
46.1055,-12.9143,0.477464,0
46.1366,-12.5535,0.48472,0
46.1616,-12.1898,0.492142,0
46.1809,-11.8231,0.499759,0
46.1946,-11.4535,0.507601,0
46.2502,-11.0692,0.520091,0
46.3183,-10.6746,0.534583,0
46.3816,-10.2732,0.549486,0
46.4109,-9.87397,0.562054,0
27.9505,-32.369,0.465374,0
28.3748,-32.3816,0.465452,0
28.7981,-32.383,0.465462,0
29.2216,-32.3585,0.464271,0
29.6456,-32.2899,0.460462,0
30.0654,-32.2125,0.456732,0
30.4799,-32.1416,0.454222,0
30.8899,-32.0956,0.454368,0
31.2973,-32.0405,0.454544,0
31.702,-31.9764,0.454739,0
32.104,-31.9062,0.455189,0
32.5036,-31.8373,0.456448,0
32.9003,-31.7561,0.457454,0
33.2923,-31.6532,0.457464,0
33.6806,-31.5416,0.457464,0
34.0648,-31.4216,0.457454,0
34.4448,-31.2931,0.457464,0
34.8206,-31.1565,0.457454,0
35.1918,-31.0118,0.457464,0
35.5557,-30.8493,0.456634,0
35.9113,-30.6694,0.454974,0
36.2613,-30.4827,0.453353,0
36.6056,-30.2897,0.45178,0
36.9441,-30.0906,0.450277,0
37.2768,-29.8855,0.448821,0
37.6037,-29.6746,0.447415,0
37.9176,-29.4429,0.44471,0
38.218,-29.1918,0.440755,0
38.5116,-28.937,0.436917,0
38.7981,-28.6786,0.433206,0
39.0816,-28.4232,0.430247,0
39.3591,-28.1651,0.427484,0
39.6302,-27.9037,0.424857,0
39.8948,-27.639,0.422347,0
40.153,-27.371,0.419954,0
40.3987,-27.0916,0.4168,0
40.6348,-26.8059,0.413392,0
40.8644,-26.5182,0.41012,0
41.0877,-26.2286,0.407015,0
41.3092,-25.9423,0.404661,0
41.5258,-25.6551,0.402591,0
41.7363,-25.3659,0.400677,0
41.9411,-25.0747,0.398909,0
42.1399,-24.7816,0.397288,0
42.3328,-24.4867,0.395814,0
42.52,-24.1899,0.394476,0
42.7014,-23.8913,0.393304,0
42.8723,-23.5873,0.391722,0
43.0395,-23.2834,0.390521,0
43.2001,-22.9774,0.389368,0
43.3552,-22.6701,0.388362,0
43.5046,-22.3615,0.387503,0
43.6487,-22.0515,0.3868,0
43.7872,-21.7403,0.386253,0
43.9204,-21.4279,0.385843,0
44.0511,-21.1158,0.385872,0
44.1812,-20.8045,0.386527,0
44.3062,-20.4917,0.387327,0
44.4261,-20.1773,0.388255,0
44.5409,-19.8615,0.389349,0
44.6505,-19.5441,0.390589,0
44.7551,-19.2252,0.391986,0
44.8496,-18.9033,0.39306,0
44.9477,-18.5826,0.395091,0
45.0478,-18.2621,0.397943,0
45.143,-17.9396,0.400931,0
45.2302,-17.6144,0.403802,0
45.3108,-17.2871,0.406693,0
45.3865,-16.9581,0.40973,0
45.4573,-16.6273,0.412952,0
45.523,-16.2946,0.416331,0
45.6014,-15.9618,0.421478,0
45.675,-15.6263,0.4268,0
45.7438,-15.2881,0.432327,0
45.8078,-14.9473,0.43806,0
45.867,-14.6037,0.443978,0
45.9212,-14.2574,0.450101,0
45.9704,-13.9083,0.456429,0
46.0217,-13.5558,0.463616,0
46.0704,-13.1999,0.471234,0
46.1127,-12.8408,0.478968,0
46.1421,-12.4795,0.486214,0
46.166,-12.1152,0.493685,0
46.1842,-11.748,0.501351,0
46.1967,-11.3776,0.509222,0
46.2645,-10.9892,0.523021,0
46.3316,-10.5932,0.537591,0
46.3938,-10.1904,0.552571,0
46.4127,-9.79294,0.564339,0
28.096,-30.7092,0.456165,0
28.4802,-30.729,0.456234,0
28.8637,-30.739,0.456263,0
29.2463,-30.7394,0.456263,0
29.6276,-30.7304,0.456234,0
30.0074,-30.7119,0.456185,0
30.3855,-30.6842,0.456087,0
30.7616,-30.6472,0.45598,0
31.1357,-30.6011,0.455833,0
31.5073,-30.5461,0.455657,0
31.8763,-30.4823,0.455452,0
32.2424,-30.4097,0.455218,0
32.6056,-30.3285,0.454964,0
32.9662,-30.2443,0.455159,0
33.3246,-30.1599,0.456019,0
33.68,-30.067,0.456839,0
34.0319,-29.9637,0.457454,0
34.379,-29.8457,0.457454,0
34.722,-29.7202,0.457454,0
35.0612,-29.5873,0.457454,0
35.3951,-29.4437,0.457142,0
35.7221,-29.2852,0.456107,0
36.0441,-29.1201,0.455091,0
36.3612,-28.9487,0.454085,0
36.6734,-28.7709,0.453099,0
36.9802,-28.5871,0.452122,0
37.2817,-28.3973,0.451175,0
37.5779,-28.2017,0.450237,0
37.8655,-27.9943,0.448695,0
38.1416,-27.7708,0.446068,0
38.4115,-27.543,0.443509,0
38.6753,-27.3108,0.441009,0
38.933,-27.0746,0.438568,0
39.1845,-26.8344,0.436175,0
39.4298,-26.5904,0.433851,0
39.6689,-26.3427,0.431585,0
39.9035,-26.0936,0.429622,0
40.1352,-25.8452,0.428206,0
40.3563,-25.5875,0.426165,0
40.5673,-25.3225,0.423665,0
40.7723,-25.0551,0.421263,0
40.9714,-24.7852,0.418968,0
41.1644,-24.5131,0.41678,0
41.3515,-24.2388,0.414691,0
41.5327,-23.9623,0.412698,0
41.7087,-23.6847,0.410931,0
41.8903,-23.4143,0.410618,0
42.0666,-23.1415,0.410423,0
42.2373,-22.8663,0.410335,0
42.4028,-22.5888,0.410345,0
42.563,-22.3092,0.410472,0
42.7169,-22.0268,0.410609,0
42.8563,-21.7368,0.409837,0
42.9905,-21.4455,0.409202,0
43.1213,-21.1539,0.408919,0
43.2517,-20.8633,0.40929,0
43.3773,-20.5712,0.409808,0
43.4938,-20.2757,0.410062,0
43.6052,-19.9787,0.410413,0
43.7112,-19.6803,0.410892,0
43.812,-19.3806,0.411507,0
43.9077,-19.0796,0.412239,0
43.9983,-18.7773,0.413109,0
44.098,-18.4779,0.41555,0
44.1937,-18.1769,0.418187,0
44.2843,-17.8739,0.42097,0
44.3701,-17.569,0.4239,0
44.4509,-17.2623,0.426966,0
44.5268,-16.9537,0.430159,0
44.5916,-16.6424,0.432903,0
44.6509,-16.3295,0.435726,0
44.7271,-16.0172,0.440863,0
44.8012,-15.7025,0.446419,0
44.8703,-15.3853,0.452132,0
44.9344,-15.0653,0.458001,0
44.9934,-14.7428,0.464027,0
45.0472,-14.4176,0.470198,0
45.0957,-14.0898,0.476536,0
45.138,-13.7594,0.482923,0
45.1769,-13.4263,0.489681,0
45.2075,-13.0909,0.496331,0
45.233,-12.7529,0.503167,0
45.253,-12.4124,0.510198,0
45.2677,-12.0693,0.517425,0
45.2767,-11.7237,0.524837,0
45.2802,-11.3755,0.532464,0
45.3095,-11.0164,0.54348,0
45.3216,-10.6565,0.553568,0
45.3273,-10.2932,0.563841,0
45.3262,-9.92639,0.57428,0
28.1745,-30.714,0.456185,0
28.5586,-30.7318,0.456243,0
28.9419,-30.7399,0.456263,0
29.3241,-30.7384,0.456263,0
29.7052,-30.7274,0.456224,0
30.0848,-30.707,0.456165,0
30.4624,-30.6774,0.456077,0
30.8382,-30.6385,0.455941,0
31.2118,-30.5906,0.455794,0
31.5829,-30.5338,0.455609,0
31.9513,-30.4681,0.455404,0
32.3169,-30.3938,0.455179,0
32.6794,-30.3109,0.454915,0
33.0395,-30.2277,0.455335,0
33.3974,-30.1416,0.456185,0
33.7522,-30.047,0.457015,0
34.103,-29.9402,0.457454,0
34.4493,-29.8207,0.457454,0
34.7916,-29.6937,0.457464,0
35.1298,-29.5593,0.457464,0
35.4622,-29.4119,0.456927,0
35.7882,-29.252,0.455902,0
36.1093,-29.0857,0.454886,0
36.4255,-28.9129,0.45388,0
36.7364,-28.7339,0.452894,0
37.0421,-28.5488,0.451927,0
37.3426,-28.3579,0.45098,0
37.6377,-28.1611,0.450052,0
37.9223,-27.949,0.448157,0
38.1971,-27.7247,0.44554,0
38.4659,-27.4959,0.443001,0
38.7284,-27.2629,0.440511,0
38.9848,-27.0259,0.438079,0
39.2351,-26.7849,0.435696,0
39.4791,-26.5401,0.433382,0
39.717,-26.2917,0.431126,0
39.9512,-26.0432,0.429329,0
40.1819,-25.7941,0.427923,0
40.3998,-25.5337,0.425648,0
40.6096,-25.2681,0.423167,0
40.8134,-25.0002,0.420794,0
41.0112,-24.7299,0.418519,0
41.2031,-24.4573,0.416341,0
41.3889,-24.1825,0.414271,0
41.5688,-23.9056,0.412298,0
41.7463,-23.6297,0.410853,0
41.9267,-23.3588,0.41057,0
42.1018,-23.0855,0.410404,0
42.2716,-22.8098,0.410325,0
42.4359,-22.5319,0.410364,0
42.5949,-22.2518,0.410511,0
42.7458,-21.9677,0.410443,0
42.8841,-21.6775,0.409691,0
43.0172,-21.3859,0.409095,0
43.1483,-21.0947,0.408978,0
43.2777,-20.8038,0.409388,0
43.4016,-20.5111,0.409866,0
43.517,-20.2152,0.41012,0
43.6272,-19.9179,0.410501,0
43.7322,-19.6193,0.411019,0
43.832,-19.3193,0.411644,0
43.9266,-19.018,0.412405,0
44.0185,-18.7162,0.413548,0
44.118,-18.4167,0.416087,0
44.2125,-18.1152,0.418753,0
44.3023,-17.8118,0.421566,0
44.387,-17.5066,0.424515,0
44.4669,-17.1995,0.427601,0
44.5406,-16.8903,0.430736,0
44.6041,-16.5787,0.43347,0
44.6646,-16.2657,0.436546,0
44.7427,-15.9532,0.441986,0
44.8157,-15.638,0.447571,0
44.8837,-15.3202,0.453323,0
44.9469,-14.9997,0.459212,0
45.0048,-14.6766,0.465267,0
45.0576,-14.3509,0.471478,0
45.105,-14.0225,0.477845,0
45.1464,-13.6916,0.48429,0
45.1836,-13.3581,0.491019,0
45.2131,-13.0221,0.497708,0
45.2375,-12.6836,0.504583,0
45.2564,-12.3426,0.511653,0
45.2699,-11.999,0.518919,0
45.2779,-11.6528,0.52638,0
45.2882,-11.3022,0.534847,0
45.3126,-10.9432,0.545521,0
45.3233,-10.5826,0.555648,0
45.3276,-10.2186,0.56595,0
28.253,-30.7184,0.456204,0
28.637,-30.7342,0.456243,0
29.02,-30.7403,0.456273,0
29.4021,-30.7369,0.456263,0
29.7828,-30.724,0.456214,0
30.162,-30.7017,0.456146,0
30.5393,-30.6702,0.456048,0
30.9147,-30.6295,0.455921,0
31.2877,-30.5798,0.455765,0
31.6583,-30.5211,0.455579,0
32.0262,-30.4537,0.455355,0
32.3912,-30.3775,0.45512,0
32.753,-30.2929,0.454857,0
33.1128,-30.2109,0.455511,0
33.4702,-30.123,0.456361,0
33.8243,-30.0267,0.457181,0
34.1741,-29.9165,0.457464,0
34.5195,-29.7954,0.457454,0
34.8609,-29.6669,0.457454,0
35.1984,-29.531,0.457454,0
35.5291,-29.3798,0.456722,0
35.8541,-29.2186,0.455687,0
36.1742,-29.0509,0.454681,0
36.4893,-28.8768,0.453675,0
36.7992,-28.6966,0.452708,0
