61.9754,-46.0988,-1.59823,0
61.8955,-46.0439,-1.58933,0
61.8145,-45.9908,-1.58025,0
61.732,-45.9396,-1.57095,0
61.6502,-45.8869,-1.56062,0
61.5668,-45.8362,-1.55013,0
62.2647,-53.0763,-1.44998,0
62.3392,-53.0138,-1.46113,0
62.4123,-52.9494,-1.4722,0
62.4825,-52.8822,-1.48353,0
62.547,-52.8091,-1.49622,0
62.6095,-52.7347,-1.50872,0
62.6702,-52.6591,-1.52104,0
62.729,-52.5823,-1.53316,0
62.7859,-52.5044,-1.54508,0
62.8407,-52.4254,-1.55679,0
62.8937,-52.3453,-1.56828,0
62.9445,-52.2644,-1.57956,0
62.9935,-52.1824,-1.59063,0
63.0405,-52.0996,-1.60147,0
63.0855,-52.016,-1.61208,0
63.1285,-51.9316,-1.62246,0
63.1695,-51.8465,-1.63261,0
63.2085,-51.7608,-1.64252,0
63.2455,-51.6744,-1.65219,0
63.2803,-51.5874,-1.66162,0
63.3133,-51.4999,-1.6708,0
63.3442,-51.4119,-1.67973,0
63.3731,-51.3235,-1.68841,0
63.3999,-51.2347,-1.69684,0
63.4248,-51.1455,-1.70501,0
63.4477,-51.056,-1.71293,0
63.4684,-50.9663,-1.72058,0
63.4879,-50.8766,-1.72785,0
63.5139,-50.789,-1.73305,0
63.538,-50.701,-1.738,0
63.5604,-50.6124,-1.74272,0
63.5808,-50.5234,-1.74718,0
63.5994,-50.4339,-1.75139,0
63.6159,-50.3441,-1.75537,0
63.6307,-50.2539,-1.75909,0
63.6435,-50.1634,-1.76255,0
63.6545,-50.0726,-1.76575,0
63.6634,-49.9815,-1.76869,0
63.6705,-49.8903,-1.77139,0
63.6756,-49.7989,-1.77382,0
63.6788,-49.7074,-1.776,0
63.679,-49.6158,-1.77812,0
63.6765,-49.5243,-1.78011,0
63.672,-49.4328,-1.78184,0
63.6656,-49.3414,-1.78332,0
63.6572,-49.2502,-1.78454,0
63.6468,-49.1592,-1.78549,0
63.6345,-49.0684,-1.78619,0
63.6202,-48.9779,-1.78663,0
63.604,-48.8877,-1.78681,0
63.5857,-48.7979,-1.78672,0
63.5655,-48.7084,-1.78637,0
63.5436,-48.6194,-1.78577,0
63.5195,-48.5309,-1.7849,0
63.4937,-48.4428,-1.78376,0
63.468,-48.3546,-1.78194,0
63.4415,-48.2665,-1.77963,0
63.413,-48.1789,-1.77705,0
63.3827,-48.0918,-1.77422,0
63.3504,-48.0052,-1.77112,0
63.3162,-47.9194,-1.76777,0
63.28,-47.8341,-1.76416,0
63.2419,-47.7496,-1.76029,0
63.2023,-47.6656,-1.75608,0
63.1637,-47.5808,-1.75097,0
63.123,-47.4965,-1.74559,0
63.0805,-47.4131,-1.73994,0
63.0362,-47.3303,-1.73402,0
62.9898,-47.2484,-1.72783,0
62.9415,-47.1673,-1.72138,0
62.8915,-47.0872,-1.71466,0
62.8395,-47.0079,-1.70767,0
62.7855,-46.9297,-1.70043,0
62.7298,-46.8525,-1.69291,0
62.6723,-46.7764,-1.68514,0
62.6129,-46.7014,-1.67712,0
62.5516,-46.6276,-1.66883,0
62.4887,-46.555,-1.6603,0
62.423,-46.4847,-1.65183,0
62.3551,-46.4163,-1.64325,0
62.2855,-46.3494,-1.63445,0
62.2144,-46.284,-1.62542,0
62.1405,-46.2215,-1.61653,0
62.0637,-46.1628,-1.60803,0
61.9854,-46.1058,-1.59935,0
61.9057,-46.0507,-1.59047,0
61.8247,-45.9974,-1.5814,0
61.7424,-45.946,-1.57216,0
61.6605,-45.8934,-1.56194,0
61.5774,-45.8425,-1.55146,0
61.4929,-45.7936,-1.54085,0
62.1405,-53.0282,-1.4396,0
62.2142,-52.9687,-1.4505,0
62.2865,-52.9075,-1.46133,0
62.3571,-52.8445,-1.47209,0
62.426,-52.7798,-1.48276,0
62.4917,-52.7118,-1.49393,0
62.5524,-52.6392,-1.5061,0
62.6112,-52.5653,-1.51808,0
62.6684,-52.4904,-1.52985,0
62.7234,-52.4143,-1.54144,0
62.7767,-52.3372,-1.55283,0
62.828,-52.2591,-1.56401,0
62.8775,-52.18,-1.57498,0
62.925,-52.1001,-1.58574,0
62.9705,-52.0193,-1.59628,0
63.0142,-51.9377,-1.60659,0
63.0558,-51.8553,-1.61669,0
63.0955,-51.7723,-1.62655,0
63.1334,-51.6886,-1.63618,0
63.1691,-51.6042,-1.64558,0
63.2029,-51.5194,-1.65475,0
63.2348,-51.434,-1.66367,0
63.2647,-51.3481,-1.67234,0
63.2926,-51.2618,-1.68078,0
63.3185,-51.1751,-1.68896,0
63.3425,-51.0881,-1.69691,0
63.3645,-51.0008,-1.70459,0
63.3846,-50.9132,-1.71203,0
63.4084,-50.8271,-1.71797,0
63.4334,-50.7415,-1.72299,0
63.4565,-50.6553,-1.72778,0
63.4778,-50.5686,-1.73232,0
63.4973,-50.4815,-1.73662,0
63.5149,-50.394,-1.74068,0
63.5307,-50.3061,-1.74449,0
63.5446,-50.2179,-1.74807,0
63.5566,-50.1294,-1.75137,0
63.5669,-50.0407,-1.75445,0
63.5752,-49.9517,-1.75726,0
63.5816,-49.8625,-1.75982,0
63.5861,-49.7732,-1.76213,0
63.5871,-49.6837,-1.76449,0
63.5862,-49.5943,-1.76663,0
63.5832,-49.5049,-1.76851,0
63.5784,-49.4156,-1.77014,0
63.5716,-49.3264,-1.77152,0
63.563,-49.2373,-1.77264,0
63.5523,-49.1485,-1.77352,0
63.5397,-49.0599,-1.77413,0
63.5253,-48.9716,-1.77449,0
63.509,-48.8836,-1.77459,0
63.4906,-48.796,-1.77445,0
63.4705,-48.7087,-1.77403,0
63.4485,-48.6219,-1.77338,0
63.4245,-48.5356,-1.77246,0
63.3988,-48.4497,-1.77129,0
63.3728,-48.3639,-1.76949,0
63.3464,-48.278,-1.76715,0
63.318,-48.1926,-1.76456,0
63.2878,-48.1078,-1.76171,0
63.2557,-48.0235,-1.75862,0
63.2217,-47.9399,-1.75526,0
63.1858,-47.8569,-1.75166,0
63.1481,-47.7747,-1.7478,0
63.1105,-47.692,-1.74322,0
63.0721,-47.6094,-1.73815,0
63.0319,-47.5275,-1.7328,0
62.9897,-47.4463,-1.72719,0
62.9457,-47.3659,-1.72132,0
62.8998,-47.2863,-1.71518,0
62.8521,-47.2075,-1.7088,0
62.8025,-47.1296,-1.70215,0
62.7512,-47.0527,-1.69525,0
62.6979,-46.9768,-1.68808,0
62.643,-46.9019,-1.68066,0
62.5861,-46.828,-1.67299,0
62.5276,-46.7553,-1.66507,0
62.4672,-46.6838,-1.65694,0
62.4038,-46.6149,-1.64895,0
62.3388,-46.5474,-1.64072,0
62.2722,-46.4812,-1.63229,0
62.2038,-46.4165,-1.62364,0
62.1339,-46.3533,-1.61476,0
62.0613,-46.2931,-1.60609,0
61.9859,-46.2364,-1.59775,0
61.9092,-46.1814,-1.58923,0
61.8312,-46.1282,-1.58051,0
61.7518,-46.0768,-1.57163,0
61.6712,-46.0273,-1.56257,0
61.5894,-45.9796,-1.55335,0
61.5066,-45.9333,-1.54382,0
62.1309,-53.0355,-1.43821,0
62.205,-52.9763,-1.44913,0
62.2774,-52.9153,-1.45997,0
62.3483,-52.8525,-1.47074,0
62.4174,-52.7881,-1.48142,0
62.4839,-52.7209,-1.49238,0
62.5448,-52.6484,-1.50458,0
62.604,-52.5747,-1.51657,0
62.6612,-52.4999,-1.52838,0
62.7166,-52.424,-1.53999,0
62.7702,-52.347,-1.5514,0
62.8217,-52.269,-1.5626,0
62.8713,-52.1901,-1.57361,0
62.9191,-52.1102,-1.58439,0
62.9649,-52.0295,-1.59496,0
63.0087,-51.948,-1.6053,0
63.0507,-51.8658,-1.61542,0
63.0906,-51.7828,-1.62532,0
63.1287,-51.6992,-1.63498,0
63.1647,-51.6149,-1.64441,0
63.1987,-51.5301,-1.6536,0
63.2309,-51.4448,-1.66256,0
63.2609,-51.359,-1.67126,0
63.2891,-51.2727,-1.67973,0
63.3153,-51.1861,-1.68795,0
63.3396,-51.0991,-1.69592,0
63.3619,-51.0118,-1.70364,0
63.3821,-50.9243,-1.71111,0
63.4051,-50.8379,-1.71732,0
63.4303,-50.7523,-1.72237,0
63.4537,-50.6662,-1.72719,0
63.4752,-50.5796,-1.73176,0
63.4949,-50.4925,-1.7361,0
63.5128,-50.4051,-1.74018,0
63.5288,-50.3172,-1.74403,0
63.543,-50.2291,-1.74762,0
63.5552,-50.1406,-1.75097,0
63.5656,-50.0519,-1.75407,0
63.5741,-49.9629,-1.75692,0
63.5809,-49.8738,-1.75951,0
63.5856,-49.7845,-1.76185,0
63.5871,-49.695,-1.76421,0
63.5864,-49.6056,-1.76638,0
63.5837,-49.5162,-1.76829,0
63.5791,-49.4269,-1.76995,0
63.5726,-49.3376,-1.77136,0
63.5641,-49.2486,-1.77251,0
63.5537,-49.1597,-1.77342,0
63.5415,-49.0711,-1.77406,0
63.5272,-48.9827,-1.77446,0
63.5111,-48.8947,-1.77459,0
63.493,-48.807,-1.77447,0
63.4731,-48.7197,-1.7741,0
63.4513,-48.6328,-1.77347,0
63.4277,-48.5464,-1.77258,0
63.4021,-48.4606,-1.77144,0
63.376,-48.3747,-1.76977,0
63.3498,-48.2888,-1.76746,0
63.3217,-48.2034,-1.76489,0
63.2917,-48.1184,-1.76209,0
63.2599,-48.0341,-1.75903,0
63.2262,-47.9504,-1.7557,0
63.1905,-47.8674,-1.75213,0
63.153,-47.785,-1.74831,0
63.1152,-47.7025,-1.74385,0
63.0771,-47.6198,-1.73881,0
63.037,-47.5378,-1.73349,0
62.9952,-47.4565,-1.72791,0
62.9513,-47.376,-1.72208,0
62.9057,-47.2963,-1.71598,0
62.8582,-47.2174,-1.70962,0
62.8089,-47.1394,-1.703,0
62.7577,-47.0624,-1.69612,0
62.7048,-46.9863,-1.689,0
62.6499,-46.9112,-1.68162,0
62.5934,-46.8373,-1.67398,0
62.5351,-46.7644,-1.66609,0
62.475,-46.6927,-1.65796,0
62.412,-46.6236,-1.64996,0
62.3472,-46.5558,-1.64177,0
62.2807,-46.4895,-1.63337,0
62.2125,-46.4246,-1.62473,0
62.1427,-46.3612,-1.6159,0
62.0707,-46.3003,-1.60714,0
61.9955,-46.2434,-1.59882,0
61.9189,-46.1883,-1.59031,0
61.841,-46.1348,-1.58162,0
61.7619,-46.0832,-1.57277,0
61.6814,-46.0334,-1.56373,0
61.5998,-45.9855,-1.55452,0
61.517,-45.9393,-1.54512,0
62.1958,-52.9839,-1.44776,0
62.2684,-52.9231,-1.45861,0
62.3394,-52.8606,-1.46938,0
62.4088,-52.7963,-1.48007,0
62.4761,-52.7299,-1.49083,0
62.5373,-52.6576,-1.50304,0
62.5966,-52.5841,-1.51507,0
62.6541,-52.5094,-1.5269,0
62.7098,-52.4336,-1.53853,0
62.7634,-52.3568,-1.54997,0
62.8153,-52.2789,-1.5612,0
62.8652,-52.2001,-1.57223,0
62.9132,-52.1204,-1.58304,0
62.9592,-52.0398,-1.59363,0
63.0034,-51.9584,-1.60401,0
63.0455,-51.8762,-1.61415,0
63.0858,-51.7933,-1.62408,0
63.124,-51.7098,-1.63378,0
63.1602,-51.6256,-1.64323,0
63.1945,-51.5408,-1.65245,0
63.2269,-51.4556,-1.66144,0
63.2573,-51.3698,-1.67018,0
63.2857,-51.2836,-1.67867,0
63.3122,-51.197,-1.68693,0
63.3366,-51.1101,-1.69493,0
63.3591,-51.0228,-1.70268,0
63.3797,-50.9353,-1.71018,0
63.4017,-50.8487,-1.71667,0
63.4272,-50.7631,-1.72175,0
63.4509,-50.6771,-1.72659,0
63.4726,-50.5905,-1.73119,0
63.4926,-50.5035,-1.73556,0
63.5107,-50.4161,-1.73968,0
63.5269,-50.3284,-1.74356,0
63.5413,-50.2402,-1.74719,0
63.5538,-50.1518,-1.75056,0
63.5645,-50.0631,-1.75369,0
63.5732,-49.9742,-1.75657,0
63.5802,-49.885,-1.7592,0
63.5851,-49.7957,-1.76157,0
63.587,-49.7063,-1.76392,0
63.5866,-49.6169,-1.76612,0
63.5841,-49.5275,-1.76806,0
63.5798,-49.4381,-1.76975,0
63.5735,-49.3489,-1.7712,0
63.5652,-49.2598,-1.77238,0
63.5552,-49.1709,-1.77332,0
63.5431,-49.0823,-1.774,0
63.5291,-48.9939,-1.77442,0
63.5133,-48.9058,-1.7746,0
63.4955,-48.8181,-1.7745,0
63.4758,-48.7307,-1.77416,0
63.4542,-48.6438,-1.77356,0
63.4308,-48.5573,-1.77272,0
63.4055,-48.4714,-1.77161,0
63.3792,-48.3856,-1.77004,0
63.3533,-48.2996,-1.76777,0
63.3255,-48.2141,-1.76524,0
63.2956,-48.1291,-1.76245,0
63.264,-48.0447,-1.75942,0
63.2305,-47.9609,-1.75613,0
63.1951,-47.8778,-1.75259,0
63.1578,-47.7954,-1.7488,0
63.1199,-47.7129,-1.74447,0
63.082,-47.6302,-1.73945,0
63.0422,-47.5481,-1.73418,0
63.0005,-47.4667,-1.72863,0
62.957,-47.3861,-1.72283,0
62.9116,-47.3063,-1.71676,0
62.8643,-47.2273,-1.71044,0
62.8152,-47.1492,-1.70385,0
62.7643,-47.072,-1.69701,0
62.7116,-46.9958,-1.68991,0
62.657,-46.9207,-1.68256,0
62.6006,-46.8466,-1.67496,0
62.5425,-46.7736,-1.6671,0
62.4827,-46.7017,-1.659,0
62.42,-46.6322,-1.65098,0
62.3554,-46.5643,-1.64282,0
62.2891,-46.4978,-1.63444,0
62.2212,-46.4327,-1.62584,0
62.1516,-46.3691,-1.61703,0
62.0801,-46.3077,-1.60817,0
62.0051,-46.2505,-1.59987,0
61.9287,-46.1951,-1.59139,0
61.851,-46.1415,-1.58274,0
61.7719,-46.0896,-1.57389,0
61.6916,-46.0396,-1.56488,0
61.6102,-45.9914,-1.55569,0
61.5274,-45.9452,-1.54634,0
61.4451,-45.898,-1.53608,0
62.0762,-52.939,-1.43769,0
62.1482,-52.8812,-1.44831,0
62.2186,-52.8217,-1.45886,0
62.2873,-52.7605,-1.46933,0
62.3546,-52.6976,-1.47973,0
62.4202,-52.633,-1.49004,0
62.483,-52.566,-1.5006,0
62.5407,-52.4942,-1.5123,0
62.5965,-52.4212,-1.52381,0
62.6505,-52.3472,-1.53512,0
62.7027,-52.2722,-1.54625,0
62.753,-52.1961,-1.55718,0
62.8013,-52.1192,-1.5679,0
62.848,-52.0413,-1.57842,0
62.8926,-51.9626,-1.58872,0
62.9354,-51.8831,-1.59881,0
62.9762,-51.8028,-1.60869,0
63.0152,-51.7219,-1.61833,0
63.0523,-51.6403,-1.62776,0
63.0874,-51.5581,-1.63696,0
63.1206,-51.4754,-1.64592,0
63.152,-51.3921,-1.65466,0
63.1813,-51.3083,-1.66316,0
63.2088,-51.2242,-1.67141,0
63.2344,-51.1396,-1.67944,0
63.258,-51.0547,-1.68721,0
63.2798,-50.9695,-1.69475,0
63.2995,-50.8841,-1.70203,0
63.3256,-50.8008,-1.70721,0
63.35,-50.7171,-1.71212,0
63.3727,-50.6328,-1.7168,0
63.3935,-50.5481,-1.72125,0
63.4125,-50.463,-1.72545,0
63.4298,-50.3775,-1.72941,0
63.4452,-50.2916,-1.73314,0
63.4588,-50.2053,-1.73662,0
63.4705,-50.1188,-1.73987,0
63.4805,-50.0321,-1.74286,0
63.4885,-49.9451,-1.74561,0
63.4948,-49.8579,-1.74811,0
63.4977,-49.7706,-1.75069,0
63.4985,-49.6832,-1.75302,0
63.4976,-49.5958,-1.7551,0
63.4948,-49.5085,-1.75695,0
63.49,-49.4212,-1.75854,0
63.4834,-49.334,-1.75989,0
63.4748,-49.2471,-1.76099,0
63.4645,-49.1603,-1.76184,0
63.4523,-49.0737,-1.76243,0
63.438,-48.9874,-1.76278,0
63.4221,-48.9014,-1.76289,0
63.4042,-48.8158,-1.76274,0
63.3845,-48.7306,-1.76234,0
63.363,-48.6458,-1.76169,0
63.3395,-48.5614,-1.76079,0
63.3144,-48.4776,-1.75964,0
63.2879,-48.3941,-1.7581,0
63.262,-48.3102,-1.75581,0
63.2343,-48.2269,-1.75325,0
63.2047,-48.1441,-1.75047,0
63.1731,-48.0618,-1.74743,0
63.1398,-47.9802,-1.74414,0
63.1047,-47.8992,-1.7406,0
63.0677,-47.819,-1.73683,0
63.0318,-47.7378,-1.73213,0
62.9941,-47.6573,-1.72714,0
62.9546,-47.5774,-1.72189,0
62.9133,-47.4982,-1.71639,0
62.8702,-47.4198,-1.71064,0
62.8251,-47.3422,-1.70462,0
62.7784,-47.2654,-1.69836,0
62.7298,-47.1895,-1.69185,0
62.6795,-47.1145,-1.68508,0
62.6273,-47.0405,-1.67806,0
62.5735,-46.9676,-1.6708,0
62.518,-46.8956,-1.66329,0
62.4604,-46.825,-1.65561,0
62.4002,-46.7567,-1.64801,0
62.3382,-46.6896,-1.64019,0
62.2746,-46.6238,-1.63216,0
62.2095,-46.5595,-1.62392,0
62.1427,-46.4965,-1.61546,0
62.0744,-46.435,-1.60679,0
62.004,-46.3758,-1.59816,0
61.9304,-46.3206,-1.59001,0
61.8555,-46.267,-1.58169,0
61.7793,-46.2152,-1.57319,0
61.7019,-46.1652,-1.56451,0
61.6232,-46.1169,-1.55567,0
61.5434,-46.0705,-1.54667,0
61.4624,-46.0259,-1.53751,0
62.0671,-52.9462,-1.43635,0
62.1391,-52.8886,-1.44697,0
62.2098,-52.8293,-1.45753,0
62.2787,-52.7683,-1.46802,0
62.3462,-52.7056,-1.47841,0
62.412,-52.6413,-1.48874,0
62.4756,-52.575,-1.4991,0
62.5334,-52.5033,-1.51083,0
62.5895,-52.4305,-1.52236,0
62.6437,-52.3566,-1.53371,0
62.6962,-52.2817,-1.54486,0
62.7467,-52.2058,-1.55581,0
62.7953,-52.1289,-1.56655,0
62.8421,-52.0512,-1.5771,0
62.8871,-51.9726,-1.58743,0
62.9301,-51.8932,-1.59755,0
62.9712,-51.813,-1.60745,0
63.0105,-51.7322,-1.61713,0
63.0477,-51.6507,-1.62658,0
63.0831,-51.5685,-1.63581,0
63.1166,-51.4858,-1.64481,0
63.1481,-51.4026,-1.65357,0
63.1777,-51.3189,-1.6621,0
63.2055,-51.2348,-1.67038,0
63.2312,-51.1503,-1.67843,0
63.2551,-51.0654,-1.68625,0
63.2771,-50.9803,-1.69381,0
63.2972,-50.8949,-1.70112,0
63.3223,-50.8114,-1.70657,0
63.347,-50.7277,-1.71152,0
63.3698,-50.6435,-1.71622,0
63.3909,-50.5589,-1.7207,0
63.4102,-50.4738,-1.72493,0
63.4277,-50.3883,-1.72893,0
63.4434,-50.3024,-1.73268,0
63.4572,-50.2163,-1.7362,0
63.4691,-50.1298,-1.73947,0
63.4793,-50.043,-1.7425,0
63.4876,-49.9561,-1.74529,0
63.4941,-49.8689,-1.74781,0
63.4973,-49.7816,-1.75038,0
63.4985,-49.6942,-1.75274,0
63.4978,-49.6068,-1.75486,0
63.4952,-49.5195,-1.75673,0
63.4907,-49.4322,-1.75836,0
63.4843,-49.345,-1.75973,0
63.4761,-49.258,-1.76087,0
63.4659,-49.1712,-1.76174,0
63.4539,-49.0846,-1.76237,0
63.44,-48.9983,-1.76276,0
63.4242,-48.9123,-1.76289,0
63.4066,-48.8266,-1.76277,0
63.3871,-48.7413,-1.7624,0
63.3658,-48.6564,-1.76178,0
63.3427,-48.572,-1.76091,0
63.3176,-48.4881,-1.7598,0
63.2911,-48.4047,-1.75837,0
63.2654,-48.3208,-1.75611,0
63.2378,-48.2374,-1.7536,0
63.2085,-48.1545,-1.75084,0
63.1772,-48.0722,-1.74782,0
63.1442,-47.9905,-1.74457,0
63.1093,-47.9094,-1.74107,0
63.0725,-47.8291,-1.73732,0
63.0364,-47.748,-1.73274,0
62.999,-47.6674,-1.72778,0
62.9597,-47.5874,-1.72257,0
62.9186,-47.5082,-1.7171,0
62.8757,-47.4296,-1.71138,0
62.8309,-47.3519,-1.7054,0
62.7844,-47.275,-1.69917,0
62.7361,-47.199,-1.69268,0
62.6859,-47.1239,-1.68594,0
62.6341,-47.0498,-1.67896,0
62.5805,-46.9767,-1.67173,0
62.525,-46.9047,-1.66425,0
62.4679,-46.8338,-1.65654,0
62.4079,-46.7652,-1.64899,0
62.3461,-46.698,-1.6412,0
62.2828,-46.6321,-1.63319,0
62.2178,-46.5675,-1.62497,0
62.1512,-46.5044,-1.61654,0
62.0831,-46.4427,-1.6079,0
62.0131,-46.3829,-1.59917,0
61.9398,-46.3275,-1.59105,0
61.865,-46.2737,-1.58275,0
61.789,-46.2217,-1.57427,0
61.7117,-46.1714,-1.56562,0
61.6332,-46.1229,-1.5568,0
61.5534,-46.0763,-1.54781,0
61.4727,-46.0315,-1.53867,0
62.1302,-52.896,-1.44564,0
62.2009,-52.8369,-1.4562,0
62.2702,-52.7761,-1.4667,0
62.3378,-52.7136,-1.47711,0
62.4038,-52.6495,-1.48744,0
62.468,-52.5838,-1.49768,0
62.5263,-52.5124,-1.50935,0
62.5826,-52.4398,-1.52091,0
62.637,-52.366,-1.53229,0
62.6896,-52.2912,-1.54346,0
62.7405,-52.2154,-1.55444,0
62.7893,-52.1387,-1.56521,0
62.8363,-52.061,-1.57578,0
62.8815,-51.9825,-1.58614,0
62.9248,-51.9032,-1.59628,0
62.9661,-51.8232,-1.60622,0
63.0055,-51.7424,-1.61592,0
63.043,-51.661,-1.6254,0
63.0787,-51.5789,-1.63466,0
63.1124,-51.4963,-1.64368,0
63.1443,-51.4132,-1.65248,0
63.1741,-51.3295,-1.66104,0
63.2021,-51.2455,-1.66935,0
63.2281,-51.161,-1.67744,0
63.2523,-51.0762,-1.68528,0
63.2744,-50.9911,-1.69287,0
63.2947,-50.9057,-1.70022,0
63.3191,-50.8219,-1.70593,0
63.344,-50.7383,-1.71091,0
63.367,-50.6542,-1.71564,0
63.3884,-50.5696,-1.72015,0
63.4079,-50.4845,-1.72441,0
63.4255,-50.3991,-1.72844,0
63.4415,-50.3133,-1.73222,0
63.4555,-50.2272,-1.73576,0
63.4677,-50.1407,-1.73907,0
63.4781,-50.054,-1.74214,0
63.4867,-49.9671,-1.74494,0
63.4934,-49.88,-1.7475,0
63.4971,-49.7926,-1.75007,0
63.4984,-49.7053,-1.75246,0
63.498,-49.6179,-1.75461,0
63.4957,-49.5305,-1.75651,0
63.4914,-49.4432,-1.75817,0
63.4853,-49.356,-1.75957,0
63.4772,-49.269,-1.76073,0
63.4673,-49.1822,-1.76165,0
63.4555,-49.0955,-1.76231,0
63.4419,-49.0092,-1.76272,0
63.4263,-48.9231,-1.76288,0
63.4089,-48.8374,-1.7628,0
63.3897,-48.7521,-1.76246,0
63.3686,-48.6671,-1.76188,0
63.3456,-48.5827,-1.76104,0
63.3209,-48.4987,-1.75995,0
63.2943,-48.4153,-1.75862,0
63.2687,-48.3314,-1.7564,0
63.2414,-48.2479,-1.75393,0
63.2123,-48.1649,-1.75119,0
63.1812,-48.0825,-1.74822,0
63.1484,-48.0008,-1.74499,0
63.1138,-47.9196,-1.74153,0
63.0773,-47.8391,-1.73781,0
63.041,-47.7583,-1.73335,0
63.0038,-47.6775,-1.72842,0
62.9648,-47.5975,-1.72324,0
62.9239,-47.5181,-1.7178,0
62.8812,-47.4395,-1.71212,0
62.8366,-47.3617,-1.70617,0
62.7903,-47.2847,-1.69996,0
62.7423,-47.2086,-1.69351,0
62.6923,-47.1334,-1.68681,0
62.6407,-47.0591,-1.67986,0
62.5873,-46.9859,-1.67266,0
62.5321,-46.9137,-1.66521,0
62.4752,-46.8426,-1.65752,0
62.4155,-46.7738,-1.64995,0
62.3541,-46.7064,-1.64219,0
62.2909,-46.6403,-1.63422,0
62.2261,-46.5756,-1.62602,0
62.1598,-46.5123,-1.61761,0
62.0918,-46.4504,-1.609,0
62.0223,-46.39,-1.60018,0
61.9491,-46.3344,-1.59209,0
61.8745,-46.2804,-1.58381,0
61.7987,-46.2282,-1.57535,0
61.7216,-46.1777,-1.56672,0
61.6432,-46.129,-1.55793,0
61.5637,-46.0821,-1.54897,0
61.483,-46.037,-1.53983,0
61.4012,-45.9939,-1.53055,0
62.0152,-52.8541,-1.43589,0
62.0852,-52.7979,-1.44622,0
62.1538,-52.74,-1.4565,0
62.2209,-52.6804,-1.46671,0
62.2866,-52.6192,-1.47683,0
62.3504,-52.5564,-1.48688,0
62.4127,-52.4921,-1.49683,0
62.4731,-52.4261,-1.50676,0
62.5277,-52.3551,-1.51801,0
62.5807,-52.283,-1.52908,0
62.6317,-52.2099,-1.53995,0
62.681,-52.1359,-1.55064,0
62.7285,-52.0609,-1.56113,0
62.7741,-51.985,-1.57141,0
62.818,-51.9083,-1.5815,0
62.8599,-51.8308,-1.59136,0
62.9001,-51.7526,-1.60102,0
62.9383,-51.6737,-1.61047,0
62.9747,-51.5941,-1.61969,0
63.0092,-51.5139,-1.6287,0
63.0419,-51.4332,-1.63747,0
63.0727,-51.352,-1.64603,0
63.1015,-51.2702,-1.65435,0
63.1286,-51.1881,-1.66244,0
63.1537,-51.1056,-1.6703,0
63.177,-51.0227,-1.67792,0
63.1984,-50.9395,-1.6853,0
63.2204,-50.8569,-1.69185,0
63.246,-50.7756,-1.69688,0
63.2699,-50.6937,-1.70169,0
63.2921,-50.6113,-1.70626,0
63.3125,-50.5285,-1.7106,0
63.3311,-50.4452,-1.71472,0
63.348,-50.3616,-1.71859,0
63.363,-50.2776,-1.72223,0
63.3763,-50.1933,-1.72564,0
63.3878,-50.1087,-1.72881,0
63.3975,-50.0238,-1.73174,0
63.4052,-49.9388,-1.73445,0
63.4098,-49.8535,-1.73721,0
63.4127,-49.7681,-1.73974,0
63.4136,-49.6827,-1.74201,0
63.4126,-49.5972,-1.74406,0
63.4098,-49.5119,-1.74586,0
63.4052,-49.4266,-1.74741,0
63.3988,-49.3414,-1.74873,0
63.3904,-49.2564,-1.7498,0
63.3802,-49.1715,-1.75063,0
63.3683,-49.0869,-1.75122,0
63.3545,-49.0026,-1.75156,0
63.3387,-48.9185,-1.75165,0
63.3213,-48.8349,-1.7515,0
63.302,-48.7516,-1.75111,0
63.2809,-48.6687,-1.75048,0
63.258,-48.5862,-1.74959,0
63.2334,-48.5043,-1.74846,0
63.2069,-48.4229,-1.74709,0
63.1811,-48.3411,-1.74492,0
63.1539,-48.2597,-1.74242,0
63.1248,-48.1789,-1.73968,0
63.094,-48.0985,-1.7367,0
63.0614,-48.0188,-1.73347,0
63.027,-47.9398,-1.73001,0
62.9914,-47.861,-1.72613,0
62.9563,-47.7818,-1.72148,0
62.9193,-47.7031,-1.71659,0
62.8805,-47.6252,-1.71144,0
62.84,-47.5479,-1.70605,0
62.7977,-47.4714,-1.7004,0
62.7536,-47.3957,-1.6945,0
62.7077,-47.3208,-1.68836,0
62.6602,-47.2468,-1.68197,0
62.6109,-47.1738,-1.67533,0
62.5598,-47.1016,-1.66847,0
62.507,-47.0305,-1.66135,0
62.4522,-46.9608,-1.65411,0
62.3949,-46.8929,-1.64691,0
62.336,-46.8263,-1.63947,0
62.2755,-46.761,-1.63183,0
62.2134,-46.697,-1.62397,0
62.1495,-46.6343,-1.61591,0
62.0844,-46.573,-1.60765,0
62.0175,-46.5131,-1.59918,0
61.9491,-46.4549,-1.59057,0
61.8773,-46.4011,-1.58261,0
61.8041,-46.3489,-1.57448,0
61.7298,-46.2985,-1.56618,0
61.6541,-46.2497,-1.55771,0
61.5773,-46.2027,-1.54908,0
61.4994,-46.1575,-1.54028,0
61.4203,-46.1141,-1.53133,0
62.0062,-52.861,-1.43458,0
62.0765,-52.8051,-1.44493,0
62.1452,-52.7474,-1.45521,0
62.2126,-52.688,-1.46542,0
62.2784,-52.627,-1.47556,0
62.3425,-52.5644,-1.48562,0
62.4049,-52.5003,-1.49558,0
62.4658,-52.4347,-1.50546,0
62.5209,-52.3641,-1.5166,0
62.5741,-52.2922,-1.5277,0
62.6254,-52.2192,-1.5386,0
62.6749,-52.1453,-1.5493,0
62.7227,-52.0704,-1.55982,0
62.7685,-51.9946,-1.57012,0
62.8125,-51.918,-1.58023,0
62.8548,-51.8406,-1.59013,0
62.8951,-51.7625,-1.59981,0
62.9335,-51.6837,-1.60929,0
62.9702,-51.6042,-1.61854,0
63.0049,-51.5241,-1.62758,0
63.0378,-51.4434,-1.63638,0
63.0688,-51.3623,-1.64496,0
63.098,-51.2806,-1.65331,0
63.1252,-51.1985,-1.66143,0
63.1507,-51.116,-1.66932,0
63.1742,-51.0332,-1.67697,0
63.1959,-50.9501,-1.68438,0
63.2171,-50.8672,-1.6912,0
63.2429,-50.7859,-1.69626,0
63.267,-50.7041,-1.70109,0
63.2894,-50.6217,-1.70569,0
63.31,-50.539,-1.71007,0
63.3288,-50.4558,-1.71421,0
63.3459,-50.3722,-1.71812,0
63.3612,-50.2882,-1.72179,0
63.3748,-50.2039,-1.72522,0
63.3864,-50.1194,-1.72842,0
63.3964,-50.0345,-1.73138,0
63.4045,-49.9495,-1.7341,0
63.4094,-49.8642,-1.73688,0
63.4123,-49.7789,-1.73944,0
63.4136,-49.6935,-1.74174,0
63.4128,-49.608,-1.74381,0
63.4103,-49.5227,-1.74564,0
63.4059,-49.4373,-1.74723,0
63.3996,-49.3522,-1.74857,0
63.3916,-49.2671,-1.74968,0
63.3817,-49.1822,-1.75054,0
63.3699,-49.0976,-1.75115,0
63.3562,-49.0132,-1.75153,0
63.3409,-48.9291,-1.75165,0
63.3236,-48.8454,-1.75153,0
63.3045,-48.7621,-1.75117,0
63.2837,-48.6791,-1.75057,0
63.261,-48.5966,-1.74971,0
63.2366,-48.5146,-1.74862,0
63.2103,-48.4331,-1.74728,0
63.1845,-48.3514,-1.74522,0
63.1574,-48.27,-1.74276,0
63.1286,-48.189,-1.74004,0
63.098,-48.1086,-1.73709,0
63.0656,-48.0289,-1.73389,0
63.0314,-47.9497,-1.73046,0
62.9958,-47.8711,-1.7267,0
62.9608,-47.7917,-1.72209,0
62.9241,-47.713,-1.71721,0
62.8855,-47.635,-1.7121,0
62.8452,-47.5577,-1.70674,0
62.8031,-47.4811,-1.70112,0
62.7593,-47.4052,-1.69526,0
62.7137,-47.3303,-1.68915,0
62.6662,-47.2561,-1.68279,0
62.6172,-47.1829,-1.67619,0
62.5663,-47.1107,-1.66935,0
62.5138,-47.0394,-1.66227,0
62.4593,-46.9694,-1.65501,0
62.4023,-46.9014,-1.64783,0
62.3435,-46.8347,-1.64042,0
62.2831,-46.7692,-1.63281,0
62.2212,-46.705,-1.62498,0
62.1577,-46.6421,-1.61695,0
62.0927,-46.5806,-1.6087,0
62.0261,-46.5206,-1.60027,0
61.958,-46.462,-1.59161,0
61.8864,-46.4078,-1.58362,0
61.8134,-46.3554,-1.57552,0
61.7391,-46.3047,-1.56724,0
61.6637,-46.2558,-1.55879,0
61.5871,-46.2085,-1.55018,0
61.5093,-46.1631,-1.5414,0
61.4304,-46.1194,-1.53247,0
62.0677,-52.8122,-1.44362,0
62.1366,-52.7547,-1.45391,0
62.2042,-52.6956,-1.46414,0
62.2701,-52.6348,-1.47429,0
62.3345,-52.5724,-1.48436,0
62.3972,-52.5085,-1.49433,0
62.4581,-52.4431,-1.50422,0
62.5141,-52.3732,-1.51519,0
62.5675,-52.3013,-1.52631,0
62.6191,-52.2285,-1.53723,0
62.6687,-52.1547,-1.54796,0
62.7167,-52.0799,-1.5585,0
62.7628,-52.0042,-1.56883,0
62.8071,-51.9277,-1.57896,0
62.8495,-51.8504,-1.58889,0
62.8901,-51.7724,-1.59861,0
62.9287,-51.6937,-1.6081,0
62.9656,-51.6143,-1.61738,0
63.0006,-51.5342,-1.62644,0
63.0338,-51.4536,-1.63528,0
63.065,-51.3725,-1.64389,0
63.0945,-51.2909,-1.65227,0
63.122,-51.2089,-1.66042,0
63.1475,-51.1265,-1.66833,0
63.1712,-51.0437,-1.67601,0
63.1932,-50.9606,-1.68345,0
63.2137,-50.8774,-1.69055,0
63.2397,-50.7962,-1.69563,0
63.2641,-50.7144,-1.7005,0
63.2867,-50.6322,-1.70513,0
63.3075,-50.5495,-1.70952,0
63.3266,-50.4663,-1.71369,0
63.3439,-50.3827,-1.71763,0
63.3595,-50.2988,-1.72134,0
63.3731,-50.2146,-1.72481,0
63.3851,-50.1301,-1.72803,0
63.3952,-50.0453,-1.73102,0
63.4035,-49.9603,-1.73377,0
63.4089,-49.875,-1.73654,0
63.4121,-49.7896,-1.73912,0
63.4135,-49.7042,-1.74146,0
63.413,-49.6188,-1.74356,0
63.4107,-49.5334,-1.74543,0
63.4066,-49.4481,-1.74704,0
63.4005,-49.3629,-1.74842,0
63.3927,-49.2778,-1.74956,0
63.383,-49.1929,-1.75044,0
63.3715,-49.1083,-1.75109,0
63.358,-49.0239,-1.7515,0
63.3429,-48.9397,-1.75166,0
63.3259,-48.856,-1.75156,0
63.307,-48.7726,-1.75123,0
63.2865,-48.6895,-1.75066,0
63.264,-48.607,-1.74984,0
63.2398,-48.5249,-1.74877,0
63.2137,-48.4434,-1.74746,0
63.1877,-48.3618,-1.74551,0
63.1609,-48.2802,-1.74307,0
63.1323,-48.1992,-1.7404,0
63.102,-48.1188,-1.73747,0
63.0698,-48.0389,-1.73431,0
63.0358,-47.9597,-1.73091,0
63,-47.8811,-1.72726,0
62.9653,-47.8017,-1.72268,0
62.9288,-47.7229,-1.71784,0
62.8905,-47.6448,-1.71277,0
62.8505,-47.5674,-1.70743,0
62.8085,-47.4907,-1.70185,0
62.7648,-47.4148,-1.69601,0
62.7195,-47.3397,-1.68993,0
62.6723,-47.2654,-1.68361,0
62.6234,-47.1921,-1.67703,0
62.5728,-47.1197,-1.67023,0
62.5205,-47.0484,-1.66317,0
62.4664,-46.9781,-1.65591,0
62.4095,-46.91,-1.64874,0
62.351,-46.843,-1.64137,0
62.2909,-46.7774,-1.63378,0
62.2291,-46.713,-1.62598,0
62.1659,-46.65,-1.61797,0
62.1009,-46.5883,-1.60976,0
62.0346,-46.5281,-1.60133,0
61.9666,-46.4693,-1.59272,0
61.8955,-46.4145,-1.58464,0
61.8227,-46.362,-1.57655,0
61.7487,-46.3111,-1.56829,0
61.6734,-46.2619,-1.55987,0
61.5968,-46.2144,-1.55128,0
61.5191,-46.1687,-1.54252,0
61.4405,-46.1249,-1.53361,0
61.3606,-46.0828,-1.52455,0
61.9568,-52.7731,-1.43416,0
62.0252,-52.7183,-1.44424,0
62.0922,-52.662,-1.45425,0
62.1577,-52.604,-1.4642,0
62.2216,-52.5444,-1.47407,0
62.2839,-52.4833,-1.48387,0
62.3447,-52.4207,-1.49358,0
62.4038,-52.3566,-1.50319,0
62.4613,-52.2912,-1.51271,0
62.5138,-52.2216,-1.52328,0
62.5638,-52.1503,-1.53393,0
62.6121,-52.0781,-1.54438,0
62.6587,-52.005,-1.55464,0
62.7034,-51.9311,-1.5647,0
62.7464,-51.8563,-1.57456,0
62.7877,-51.7807,-1.58422,0
62.827,-51.7044,-1.59368,0
62.8645,-51.6274,-1.60292,0
62.9003,-51.5498,-1.61195,0
62.9342,-51.4716,-1.62077,0
62.9662,-51.3928,-1.62938,0
62.9966,-51.3135,-1.63775,0
63.025,-51.2337,-1.6459,0
63.0515,-51.1535,-1.65383,0
63.0763,-51.0729,-1.66154,0
63.0992,-50.992,-1.669,0
63.1204,-50.9108,-1.67623,0
63.1445,-50.8309,-1.68203,0
63.1697,-50.7513,-1.68695,0
63.193,-50.6712,-1.69165,0
63.2147,-50.5906,-1.69613,0
63.2347,-50.5096,-1.70037,0
63.2529,-50.4281,-1.7044,0
63.2694,-50.3463,-1.7082,0
63.2841,-50.2641,-1.71175,0
63.2971,-50.1817,-1.71509,0
63.3084,-50.0989,-1.71819,0
63.3174,-50.0159,-1.72112,0
63.3237,-49.9326,-1.72405,0
63.3283,-49.8492,-1.72675,0
63.331,-49.7657,-1.72922,0
63.332,-49.6822,-1.73145,0
63.331,-49.5986,-1.73344,0
63.3283,-49.5152,-1.73521,0
63.3237,-49.4318,-1.73672,0
63.3174,-49.3485,-1.738,0
63.3093,-49.2653,-1.73906,0
63.2994,-49.1824,-1.73987,0
63.2877,-49.0996,-1.74044,0
63.2741,-49.0172,-1.74077,0
63.2587,-48.935,-1.74086,0
63.2416,-48.8532,-1.74072,0
63.2228,-48.7717,-1.74032,0
63.2022,-48.6906,-1.7397,0
63.1798,-48.6101,-1.73883,0
63.1555,-48.5299,-1.73774,0
63.1297,-48.4504,-1.73638,0
63.1034,-48.3708,-1.73448,0
63.0768,-48.2912,-1.73203,0
63.0483,-48.2122,-1.72933,0
63.018,-48.1338,-1.72641,0
62.9861,-48.0559,-1.72324,0
62.9523,-47.9787,-1.71985,0
62.9184,-47.9013,-1.71583,0
62.8838,-47.824,-1.71126,0
62.8475,-47.7472,-1.70646,0
62.8095,-47.6711,-1.7014,0
62.7697,-47.5957,-1.69612,0
62.7282,-47.521,-1.69057,0
62.6849,-47.4471,-1.68479,0
62.64,-47.3741,-1.67877,0
62.5934,-47.3018,-1.6725,0
62.545,-47.2305,-1.666,0
62.4949,-47.1602,-1.65926,0
62.4427,-47.0914,-1.65247,0
62.3883,-47.0241,-1.64563,0
62.3323,-46.958,-1.63857,0
62.2745,-46.8931,-1.6313,0
62.2154,-46.8294,-1.62382,0
62.1545,-46.767,-1.61613,0
62.0923,-46.7059,-1.60825,0
62.0284,-46.6462,-1.60016,0
61.9631,-46.5879,-1.59188,0
61.8964,-46.531,-1.58341,0
61.8264,-46.4782,-1.57553,0
61.7549,-46.4273,-1.56759,0
61.6823,-46.3781,-1.55947,0
61.6084,-46.3306,-1.5512,0
61.5334,-46.2848,-1.54276,0
61.4573,-46.2407,-1.53417,0
61.3801,-46.1984,-1.52544,0
61.948,-52.7798,-1.43287,0
62.0166,-52.7253,-1.44297,0
62.0838,-52.6692,-1.45299,0
62.1494,-52.6114,-1.46295,0
62.2136,-52.552,-1.47284,0
62.2762,-52.4911,-1.48263,0
62.3371,-52.4287,-1.49236,0
62.3965,-52.3648,-1.50198,0
62.4541,-52.2995,-1.51151,0
62.5073,-52.2305,-1.52194,0
62.5576,-52.1594,-1.53259,0
62.6062,-52.0873,-1.54307,0
62.6529,-52.0143,-1.55336,0
62.6979,-51.9404,-1.56344,0
62.7411,-51.8657,-1.57333,0
62.7825,-51.7903,-1.58301,0
62.8221,-51.7141,-1.59249,0
62.8598,-51.6372,-1.60176,0
62.8959,-51.5596,-1.61083,0
62.93,-51.4815,-1.61967,0
62.9623,-51.4028,-1.62829,0
62.9928,-51.3235,-1.6367,0
63.0214,-51.2438,-1.64488,0
63.0483,-51.1637,-1.65284,0
63.0733,-51.0831,-1.66057,0
63.0965,-51.0023,-1.66806,0
63.1178,-50.9211,-1.67533,0
63.1412,-50.8409,-1.68139,0
63.1666,-50.7614,-1.68634,0
63.1902,-50.6813,-1.69107,0
63.212,-50.6008,-1.69558,0
63.2323,-50.5199,-1.69985,0
63.2506,-50.4385,-1.7039,0
63.2673,-50.3567,-1.70773,0
63.2823,-50.2745,-1.71132,0
63.2955,-50.1921,-1.71468,0
63.307,-50.1094,-1.7178,0
63.3166,-50.0264,-1.72073,0
63.3231,-49.9431,-1.72369,0
63.3278,-49.8597,-1.72642,0
63.3308,-49.7762,-1.72892,0
63.332,-49.6927,-1.73118,0
63.3312,-49.6092,-1.7332,0
63.3287,-49.5257,-1.73499,0
63.3245,-49.4423,-1.73654,0
63.3184,-49.359,-1.73787,0
63.3105,-49.2758,-1.73894,0
63.3007,-49.1928,-1.73978,0
63.2892,-49.1101,-1.74038,0
63.2759,-49.0276,-1.74074,0
63.2609,-48.9454,-1.74087,0
63.2439,-48.8635,-1.74075,0
63.2253,-48.782,-1.74039,0
63.2048,-48.7009,-1.7398,0
63.1827,-48.6202,-1.73896,0
63.1587,-48.54,-1.73789,0
63.1331,-48.4604,-1.73657,0
63.1067,-48.3809,-1.73477,0
63.0802,-48.3013,-1.73235,0
63.052,-48.2222,-1.72968,0
63.022,-48.1437,-1.72679,0
62.9902,-48.0657,-1.72365,0
62.9566,-47.9884,-1.72028,0
62.9226,-47.9111,-1.71639,0
62.8883,-47.8337,-1.71186,0
62.8523,-47.7568,-1.70708,0
62.8144,-47.6806,-1.70206,0
62.7748,-47.6052,-1.69679,0
62.7335,-47.5304,-1.69128,0
62.6905,-47.4564,-1.68554,0
62.6458,-47.3832,-1.67954,0
62.5994,-47.3109,-1.6733,0
62.5512,-47.2395,-1.66683,0
62.5013,-47.169,-1.66012,0
62.4495,-47.0999,-1.65333,0
62.3952,-47.0325,-1.64651,0
62.3394,-46.9663,-1.63947,0
62.282,-46.9012,-1.63224,0
62.2229,-46.8374,-1.62477,0
62.1623,-46.7748,-1.61713,0
62.1002,-46.7135,-1.60926,0
62.0366,-46.6537,-1.6012,0
61.9715,-46.5952,-1.59294,0
61.9049,-46.5381,-1.58449,0
61.8354,-46.4847,-1.57652,0
61.7641,-46.4337,-1.5686,0
61.6915,-46.3843,-1.5605,0
61.6178,-46.3365,-1.55225,0
61.5429,-46.2905,-1.54384,0
61.467,-46.2462,-1.53527,0
61.3899,-46.2036,-1.52654,0
62.008,-52.7323,-1.44169,0
62.0754,-52.6764,-1.45173,0
62.1412,-52.6188,-1.4617,0
62.2055,-52.5596,-1.47159,0
62.2683,-52.4989,-1.4814,0
62.3295,-52.4366,-1.49114,0
62.3891,-52.3729,-1.50078,0
62.447,-52.3079,-1.51031,0
62.5009,-52.2394,-1.52057,0
62.5513,-52.1684,-1.53126,0
62.6002,-52.0964,-1.54176,0
62.6471,-52.0236,-1.55206,0
62.6923,-51.9498,-1.56217,0
62.7358,-51.8752,-1.57209,0
62.7773,-51.7999,-1.5818,0
62.8172,-51.7237,-1.59131,0
62.8552,-51.6469,-1.60061,0
62.8914,-51.5695,-1.60969,0
62.9258,-51.4914,-1.61857,0
62.9584,-51.4127,-1.62722,0
62.989,-51.3335,-1.63565,0
63.018,-51.2539,-1.64386,0
63.045,-51.1738,-1.65185,0
63.0702,-51.0933,-1.6596,0
63.0937,-51.0125,-1.66713,0
63.1152,-50.9313,-1.67443,0
63.1379,-50.8509,-1.68075,0
63.1635,-50.7715,-1.68572,0
63.1873,-50.6915,-1.69049,0
63.2094,-50.611,-1.69502,0
63.2298,-50.5301,-1.69932,0
63.2484,-50.4488,-1.70341,0
63.2653,-50.367,-1.70726,0
63.2805,-50.2849,-1.71088,0
63.294,-50.2025,-1.71427,0
63.3056,-50.1198,-1.71742,0
63.3155,-50.0369,-1.72034,0
63.3223,-49.9536,-1.72334,0
63.3273,-49.8702,-1.72609,0
63.3305,-49.7868,-1.72862,0
63.3319,-49.7033,-1.73091,0
63.3315,-49.6197,-1.73297,0
63.3292,-49.5362,-1.73478,0
63.3252,-49.4528,-1.73637,0
63.3192,-49.3695,-1.73771,0
63.3116,-49.2863,-1.73882,0
63.302,-49.2033,-1.73968,0
63.2908,-49.1205,-1.74032,0
63.2777,-49.038,-1.74071,0
63.2628,-48.9557,-1.74086,0
63.2462,-48.8738,-1.74078,0
63.2277,-48.7922,-1.74045,0
63.2075,-48.7111,-1.73988,0
63.1855,-48.6304,-1.73908,0
63.1618,-48.5501,-1.73803,0
63.1364,-48.4704,-1.73675,0
63.1098,-48.391,-1.73506,0
63.0837,-48.3113,-1.73267,0
63.0557,-48.2321,-1.73003,0
63.0259,-48.1535,-1.72716,0
62.9943,-48.0755,-1.72407,0
62.9609,-47.9981,-1.72072,0
62.9268,-47.921,-1.71694,0
62.8927,-47.8434,-1.71243,0
62.8569,-47.7665,-1.7077,0
62.8192,-47.6902,-1.70271,0
62.7799,-47.6146,-1.69747,0
62.7388,-47.5398,-1.69199,0
62.696,-47.4657,-1.68628,0
62.6516,-47.3924,-1.6803,0
62.6053,-47.32,-1.67411,0
62.5573,-47.2485,-1.66766,0
62.5077,-47.1779,-1.66099,0
62.4562,-47.1085,-1.65417,0
62.4022,-47.041,-1.64738,0
62.3466,-46.9746,-1.64037,0
62.2893,-46.9093,-1.63316,0
62.2305,-46.8453,-1.62573,0
62.1701,-46.7826,-1.6181,0
62.1081,-46.7212,-1.61027,0
62.0447,-46.6612,-1.60223,0
61.9798,-46.6025,-1.59399,0
61.9134,-46.5453,-1.58557,0
61.8443,-46.4913,-1.57751,0
61.7731,-46.44,-1.5696,0
61.7007,-46.3904,-1.56154,0
61.6272,-46.3425,-1.55329,0
61.5524,-46.2962,-1.54491,0
61.4766,-46.2517,-1.53636,0
61.3997,-46.2089,-1.52765,0
61.3217,-46.1679,-1.51881,0
61.9011,-52.6957,-1.4325,0
61.9678,-52.6424,-1.44234,0
62.0332,-52.5875,-1.45211,0
62.0971,-52.531,-1.4618,0
62.1595,-52.473,-1.47144,0
62.2204,-52.4134,-1.481,0
62.2798,-52.3525,-1.49046,0
62.3374,-52.2901,-1.49984,0
62.3936,-52.2263,-1.50913,0
62.448,-52.1613,-1.51831,0
62.4987,-52.0932,-1.52815,0
62.5461,-52.0228,-1.53837,0
62.5917,-51.9515,-1.54841,0
62.6356,-51.8793,-1.55825,0
62.6778,-51.8063,-1.56791,0
62.7182,-51.7326,-1.57737,0
62.7569,-51.6582,-1.58663,0
62.7937,-51.583,-1.59569,0
62.8288,-51.5072,-1.60453,0
62.8621,-51.4309,-1.61317,0
62.8937,-51.354,-1.62159,0
62.9234,-51.2765,-1.6298,0
62.9514,-51.1986,-1.63779,0
62.9777,-51.1203,-1.64556,0
63.002,-51.0416,-1.65311,0
63.0246,-50.9625,-1.66043,0
63.0454,-50.8832,-1.66753,0
63.0716,-50.8058,-1.67258,0
63.0962,-50.7279,-1.67739,0
63.119,-50.6496,-1.682,0
63.1402,-50.5707,-1.68637,0
63.1598,-50.4914,-1.69054,0
63.1776,-50.4117,-1.69448,0
63.1937,-50.3316,-1.69818,0
63.2081,-50.2512,-1.70168,0
63.2209,-50.1705,-1.70493,0
63.2312,-50.0894,-1.70809,0
63.2393,-50.0081,-1.71118,0
63.2455,-49.9266,-1.71405,0
63.2499,-49.845,-1.7167,0
63.2526,-49.7634,-1.7191,0
63.2535,-49.6817,-1.72128,0
63.2526,-49.6,-1.72324,0
63.25,-49.5183,-1.72496,0
63.2455,-49.4367,-1.72645,0
63.2393,-49.3552,-1.72771,0
63.2313,-49.2739,-1.72873,0
63.2216,-49.1928,-1.72952,0
63.2102,-49.1118,-1.73008,0
63.1969,-49.0312,-1.7304,0
63.1819,-48.9508,-1.73049,0
63.1652,-48.8707,-1.73035,0
63.1466,-48.7911,-1.72997,0
63.1265,-48.7118,-1.72935,0
63.1045,-48.633,-1.7285,0
63.0809,-48.5546,-1.72742,0
63.0555,-48.4767,-1.72611,0
63.0288,-48.3993,-1.72445,0
63.0027,-48.3215,-1.72204,0
62.9748,-48.2443,-1.71939,0
62.9452,-48.1676,-1.71652,0
62.9137,-48.0915,-1.71342,0
62.8807,-48.0161,-1.71008,0
62.8481,-47.9401,-1.70593,0
62.8141,-47.8645,-1.70145,0
62.7786,-47.7895,-1.69673,0
62.7412,-47.7151,-1.69177,0
62.7022,-47.6415,-1.68657,0
62.6615,-47.5686,-1.68113,0
62.6191,-47.4964,-1.67547,0
62.5749,-47.4251,-1.66955,0
62.5292,-47.3546,-1.66341,0
62.4818,-47.2851,-1.65704,0
62.432,-47.2171,-1.65068,0
62.3802,-47.1504,-1.6442,0
62.327,-47.0848,-1.6375,0
62.2722,-47.0203,-1.63058,0
62.2157,-46.957,-1.62346,0
62.1577,-46.8949,-1.61615,0
62.0983,-46.8341,-1.60862,0
62.0373,-46.7746,-1.60091,0
61.9748,-46.7164,-1.593,0
61.911,-46.6595,-1.5849,0
61.8457,-46.6041,-1.57661,0
61.7777,-46.5521,-1.56874,0
61.7079,-46.5025,-1.56097,0
61.6368,-46.4545,-1.55304,0
61.5646,-46.4081,-1.54496,0
61.4913,-46.3634,-1.53671,0
61.417,-46.3205,-1.52832,0
61.3416,-46.2792,-1.51977,0
61.8926,-52.7023,-1.43126,0
61.9595,-52.6492,-1.44109,0
62.025,-52.5945,-1.45087,0
62.0891,-52.5382,-1.46059,0
62.1516,-52.4804,-1.47022,0
62.2128,-52.421,-1.47979,0
62.2723,-52.3602,-1.48927,0
62.3303,-52.298,-1.49866,0
62.3866,-52.2344,-1.50796,0
62.4412,-52.1695,-1.51715,0
62.4926,-52.102,-1.52685,0
62.5402,-52.0317,-1.53709,0
62.586,-51.9605,-1.54715,0
62.6302,-51.8885,-1.55702,0
62.6726,-51.8156,-1.56671,0
62.7132,-51.742,-1.57619,0
62.752,-51.6676,-1.58547,0
62.7891,-51.5925,-1.59455,0
62.8245,-51.5169,-1.60342,0
62.858,-51.4406,-1.61209,0
62.8898,-51.3637,-1.62053,0
62.9198,-51.2863,-1.62878,0
62.948,-51.2085,-1.63679,0
62.9744,-51.1302,-1.64459,0
62.9991,-51.0516,-1.65216,0
63.0218,-50.9725,-1.65951,0
63.0428,-50.8932,-1.66664,0
63.0684,-50.8156,-1.67195,0
63.0931,-50.7378,-1.6768,0
63.1162,-50.6595,-1.68143,0
63.1377,-50.5807,-1.68584,0
63.1573,-50.5014,-1.69003,0
63.1754,-50.4218,-1.69399,0
63.1918,-50.3418,-1.69773,0
63.2064,-50.2614,-1.70125,0
63.2194,-50.1807,-1.70453,0
63.2302,-50.0997,-1.70769,0
63.2384,-50.0184,-1.71081,0
63.2448,-49.9369,-1.7137,0
63.2495,-49.8554,-1.71637,0
63.2523,-49.7737,-1.71881,0
63.2534,-49.692,-1.72102,0
63.2528,-49.6103,-1.723,0
63.2503,-49.5286,-1.72475,0
63.2462,-49.447,-1.72628,0
63.2402,-49.3655,-1.72756,0
63.2325,-49.2842,-1.72862,0
63.223,-49.203,-1.72944,0
63.2116,-49.122,-1.73003,0
63.1986,-49.0413,-1.73038,0
63.1838,-48.9609,-1.73049,0
63.1673,-48.8808,-1.73038,0
63.1491,-48.8011,-1.73003,0
63.1291,-48.7218,-1.72945,0
63.1074,-48.6429,-1.72862,0
63.0839,-48.5645,-1.72757,0
63.0588,-48.4865,-1.72629,0
63.032,-48.4091,-1.72474,0
63.0061,-48.3313,-1.72236,0
62.9784,-48.254,-1.71974,0
62.949,-48.1773,-1.7169,0
62.9177,-48.1011,-1.71382,0
62.885,-48.0256,-1.71052,0
62.8523,-47.9497,-1.70648,0
62.8186,-47.874,-1.70203,0
62.7832,-47.7989,-1.69734,0
62.746,-47.7245,-1.69242,0
62.7073,-47.6508,-1.68724,0
62.6667,-47.5778,-1.68183,0
62.6245,-47.5055,-1.67619,0
62.5806,-47.4341,-1.67031,0
62.5351,-47.3635,-1.6642,0
62.4879,-47.2938,-1.65785,0
62.4384,-47.2256,-1.65149,0
62.3869,-47.1588,-1.64503,0
62.3338,-47.093,-1.63835,0
62.2791,-47.0284,-1.63147,0
62.2229,-46.9649,-1.62437,0
62.1652,-46.9027,-1.61709,0
62.1059,-46.8417,-1.60959,0
62.0451,-46.782,-1.6019,0
61.9828,-46.7236,-1.59401,0
61.9191,-46.6666,-1.58593,0
61.854,-46.611,-1.57767,0
61.7865,-46.5585,-1.5697,0
61.7167,-46.5087,-1.56195,0
61.6459,-46.4605,-1.55405,0
61.5738,-46.4139,-1.54598,0
61.5006,-46.369,-1.53776,0
61.4264,-46.3258,-1.52939,0
61.3511,-46.2843,-1.52087,0
61.9511,-52.656,-1.43986,0
62.0169,-52.6015,-1.44964,0
62.0811,-52.5454,-1.45936,0
62.1439,-52.4878,-1.46902,0
62.2052,-52.4286,-1.47859,0
62.2649,-52.368,-1.48808,0
62.323,-52.306,-1.49748,0
62.3796,-52.2425,-1.50679,0
62.4345,-52.1778,-1.516,0
62.4865,-52.1108,-1.52554,0
62.5343,-52.0406,-1.5358,0
62.5804,-51.9696,-1.54589,0
62.6247,-51.8976,-1.55579,0
62.6673,-51.8249,-1.56549,0
62.7082,-51.7513,-1.575,0
62.7472,-51.677,-1.58431,0
62.7846,-51.6021,-1.59342,0
62.8202,-51.5265,-1.60231,0
62.8539,-51.4502,-1.61101,0
62.8859,-51.3734,-1.61949,0
62.9161,-51.2961,-1.62774,0
62.9445,-51.2184,-1.63579,0
62.9712,-51.1401,-1.64362,0
62.996,-51.0615,-1.65123,0
63.0191,-50.9825,-1.65861,0
63.0403,-50.9032,-1.66576,0
63.0651,-50.8254,-1.67133,0
63.0901,-50.7477,-1.6762,0
63.1134,-50.6694,-1.68086,0
63.1351,-50.5907,-1.68529,0
63.155,-50.5115,-1.68951,0
63.1732,-50.4319,-1.6935,0
63.1898,-50.3519,-1.69727,0
63.2047,-50.2716,-1.70082,0
63.2177,-50.1909,-1.70413,0
63.229,-50.11,-1.70727,0
63.2373,-50.0287,-1.71042,0
63.2441,-49.9472,-1.71335,0
63.249,-49.8657,-1.71605,0
63.2521,-49.784,-1.71852,0
63.2534,-49.7023,-1.72076,0
63.253,-49.6206,-1.72277,0
63.2508,-49.5389,-1.72455,0
63.2468,-49.4573,-1.7261,0
63.2411,-49.3758,-1.72742,0
63.2335,-49.2944,-1.7285,0
63.2242,-49.2132,-1.72935,0
63.2132,-49.1323,-1.72996,0
63.2004,-49.0515,-1.73035,0
63.1858,-48.9711,-1.73049,0
63.1695,-48.8909,-1.73041,0
63.1515,-48.8111,-1.73009,0
63.1317,-48.7318,-1.72953,0
63.1102,-48.6528,-1.72874,0
63.087,-48.5743,-1.72771,0
63.0621,-48.4964,-1.72646,0
63.0355,-48.4189,-1.72496,0
63.0095,-48.3411,-1.72266,0
62.982,-48.2638,-1.72008,0
62.9527,-48.1869,-1.71727,0
62.9219,-48.1107,-1.71422,0
62.8892,-48.0351,-1.71095,0
62.8564,-47.9593,-1.70703,0
62.8229,-47.8835,-1.7026,0
62.7877,-47.8084,-1.69794,0
62.7509,-47.7339,-1.69305,0
62.7123,-47.66,-1.68791,0
62.6719,-47.5869,-1.68254,0
62.6299,-47.5146,-1.67692,0
62.5863,-47.4431,-1.67107,0
62.5409,-47.3724,-1.66498,0
62.494,-47.3026,-1.65866,0
62.4448,-47.2341,-1.65229,0
62.3935,-47.1672,-1.64585,0
62.3406,-47.1013,-1.63921,0
62.2862,-47.0365,-1.63234,0
62.2301,-46.9729,-1.62528,0
62.1726,-46.9105,-1.61801,0
62.1134,-46.8493,-1.61054,0
62.0528,-46.7895,-1.60288,0
61.9908,-46.7309,-1.59501,0
61.9272,-46.6738,-1.58696,0
61.8623,-46.618,-1.57872,0
61.7951,-46.5649,-1.57067,0
61.7256,-46.5149,-1.56295,0
61.6548,-46.4665,-1.55506,0
61.583,-46.4197,-1.54702,0
61.51,-46.3746,-1.53881,0
61.4359,-46.3312,-1.53045,0
61.3607,-46.2895,-1.52195,0
61.2845,-46.2495,-1.51329,0
61.8479,-52.6217,-1.43092,0
61.913,-52.5698,-1.44051,0
61.9768,-52.5163,-1.45005,0
62.0391,-52.4612,-1.45952,0
62.1002,-52.4047,-1.46892,0
62.1597,-52.3466,-1.47824,0
62.2176,-52.2872,-1.48749,0
62.2741,-52.2264,-1.49665,0
62.3288,-52.1643,-1.5057,0
62.3821,-52.1008,-1.51467,0
62.4337,-52.0362,-1.52353,0
62.4827,-51.9696,-1.5326,0
62.5274,-51.9,-1.54244,0
62.5705,-51.8296,-1.55207,0
62.6119,-51.7584,-1.56153,0
62.6516,-51.6864,-1.57079,0
62.6895,-51.6138,-1.57987,0
62.7257,-51.5404,-1.58873,0
62.7602,-51.4664,-1.5974,0
62.793,-51.3918,-1.60586,0
62.824,-51.3167,-1.61412,0
62.8532,-51.241,-1.62216,0
62.8808,-51.1649,-1.63,0
62.9066,-51.0884,-1.63761,0
62.9305,-51.0115,-1.64501,0
62.9528,-50.9342,-1.65219,0
62.9756,-50.8574,-1.65855,0
63.0013,-50.7817,-1.66348,0
63.0254,-50.7055,-1.6682,0
63.0477,-50.6287,-1.67271,0
63.0686,-50.5515,-1.677,0
63.0877,-50.4739,-1.68107,0
63.1052,-50.3959,-1.68492,0
63.1209,-50.3175,-1.68855,0
63.135,-50.2388,-1.69196,0
63.1466,-50.1596,-1.69534,0
63.1562,-50.0802,-1.69859,0
63.164,-50.0006,-1.70163,0
63.1702,-49.9209,-1.70443,0
63.1745,-49.8411,-1.70702,0
63.1771,-49.7612,-1.70937,0
63.178,-49.6812,-1.71151,0
63.1771,-49.6013,-1.71343,0
63.1745,-49.5214,-1.71511,0
63.1702,-49.4415,-1.71657,0
63.1641,-49.3618,-1.71779,0
63.1563,-49.2822,-1.7188,0
63.1468,-49.2028,-1.71958,0
63.1356,-49.1236,-1.72012,0
63.1227,-49.0446,-1.72044,0
63.1079,-48.966,-1.72052,0
63.0915,-48.8877,-1.72037,0
63.0734,-48.8097,-1.72,0
63.0536,-48.7321,-1.7194,0
63.0321,-48.655,-1.71856,0
63.0089,-48.5783,-1.7175,0
62.9841,-48.5021,-1.7162,0
62.9577,-48.4265,-1.71468,0
62.9315,-48.3507,-1.71244,0
62.9041,-48.2751,-1.70985,0
62.875,-48.2002,-1.70701,0
62.8442,-48.1258,-1.70397,0
62.8122,-48.0518,-1.70058,0
62.7806,-47.9773,-1.69642,0
62.7473,-47.9034,-1.69202,0
62.7123,-47.8302,-1.68738,0
62.6756,-47.7575,-1.68251,0
62.6373,-47.6856,-1.67741,0
62.5973,-47.6143,-1.67207,0
62.5557,-47.5439,-1.6665,0
62.5124,-47.4742,-1.6607,0
62.4675,-47.4054,-1.6547,0
62.4201,-47.3383,-1.64876,0
62.371,-47.2722,-1.6426,0
62.3204,-47.2071,-1.63625,0
62.2682,-47.143,-1.62968,0
62.2145,-47.0801,-1.62292,0
62.1592,-47.0184,-1.61595,0
62.1024,-46.9578,-1.60878,0
62.0442,-46.8985,-1.60142,0
61.9846,-46.8404,-1.59386,0
61.9234,-46.7836,-1.58613,0
61.8609,-46.7283,-1.5782,0
61.7971,-46.6742,-1.57008,0
61.7309,-46.623,-1.56222,0
61.6627,-46.5746,-1.55463,0
61.5932,-46.5277,-1.54688,0
61.5227,-46.4825,-1.53897,0
61.451,-46.4389,-1.53091,0
61.3783,-46.3969,-1.5227,0
61.3045,-46.3567,-1.51436,0
61.8395,-52.6281,-1.4297,0
61.9049,-52.5764,-1.43931,0
61.9688,-52.5231,-1.44884,0
62.0314,-52.4682,-1.45833,0
62.0926,-52.4119,-1.46774,0
62.1522,-52.354,-1.47707,0
62.2103,-52.2948,-1.48632,0
62.267,-52.2342,-1.49549,0
62.322,-52.1722,-1.50457,0
62.3755,-52.1089,-1.51354,0
62.4273,-52.0444,-1.52242,0
62.477,-51.9783,-1.53135,0
62.5219,-51.9089,-1.5412,0
62.5652,-51.8386,-1.55087,0
62.6068,-51.7675,-1.56034,0
62.6466,-51.6956,-1.56964,0
62.6848,-51.623,-1.57873,0
62.7212,-51.5497,-1.58762,0
62.7559,-51.4758,-1.59631,0
62.7889,-51.4012,-1.60481,0
62.8202,-51.3262,-1.61308,0
62.8496,-51.2506,-1.62115,0
62.8773,-51.1746,-1.62902,0
62.9034,-51.0981,-1.63666,0
62.9277,-51.0212,-1.64409,0
62.9501,-50.944,-1.6513,0
62.9722,-50.8669,-1.65791,0
62.9981,-50.7913,-1.66287,0
63.0224,-50.7151,-1.66761,0
63.045,-50.6385,-1.67215,0
63.066,-50.5613,-1.67646,0
63.0853,-50.4837,-1.68056,0
63.103,-50.4058,-1.68445,0
63.119,-50.3274,-1.6881,0
63.1334,-50.2487,-1.69155,0
63.1453,-50.1696,-1.69492,0
63.1551,-50.0903,-1.6982,0
63.1632,-50.0107,-1.70125,0
63.1695,-49.931,-1.70409,0
63.1741,-49.8512,-1.7067,0
63.1769,-49.7713,-1.70909,0
63.178,-49.6913,-1.71126,0
63.1773,-49.6114,-1.71319,0
63.1749,-49.5314,-1.71491,0
63.1709,-49.4516,-1.71639,0
63.165,-49.3718,-1.71765,0
63.1574,-49.2922,-1.71869,0
63.1481,-49.2128,-1.71949,0
63.1371,-49.1336,-1.72006,0
63.1244,-49.0546,-1.72041,0
63.1098,-48.9759,-1.72052,0
63.0937,-48.8975,-1.72041,0
63.0758,-48.8195,-1.72007,0
63.0562,-48.7419,-1.71948,0
63.0349,-48.6647,-1.71868,0
63.012,-48.588,-1.71764,0
62.9873,-48.5117,-1.71638,0
62.961,-48.436,-1.71488,0
62.9348,-48.3602,-1.71275,0
62.9076,-48.2847,-1.71018,0
62.8787,-48.2096,-1.70738,0
62.8482,-48.1351,-1.70437,0
62.8161,-48.0612,-1.7011,0
62.7847,-47.9867,-1.69695,0
62.7516,-47.9127,-1.69259,0
62.7169,-47.8394,-1.68798,0
62.6803,-47.7667,-1.68314,0
62.6423,-47.6946,-1.67806,0
62.6024,-47.6233,-1.67275,0
62.5611,-47.5527,-1.66721,0
62.518,-47.483,-1.66145,0
62.4734,-47.414,-1.65545,0
62.4262,-47.3467,-1.64952,0
62.3773,-47.2805,-1.64339,0
62.3269,-47.2152,-1.63706,0
62.2748,-47.1511,-1.63052,0
62.2213,-47.088,-1.62378,0
62.1663,-47.0261,-1.61684,0
62.1098,-46.9654,-1.60969,0
62.0517,-46.9059,-1.60236,0
61.9922,-46.8477,-1.59484,0
61.9312,-46.7907,-1.58712,0
61.8689,-46.7352,-1.57921,0
61.8052,-46.681,-1.57112,0
61.7395,-46.6292,-1.56317,0
61.6713,-46.5806,-1.5556,0
61.602,-46.5335,-1.54787,0
61.5316,-46.4881,-1.53997,0
61.4601,-46.4443,-1.53193,0
61.3875,-46.4021,-1.52375,0
61.3138,-46.3617,-1.51542,0
61.8966,-52.583,-1.4381,0
61.9609,-52.5299,-1.44765,0
62.0236,-52.4753,-1.45713,0
62.0849,-52.4191,-1.46655,0
62.1448,-52.3614,-1.47589,0
62.2031,-52.3023,-1.48516,0
62.2599,-52.2419,-1.49434,0
62.3152,-52.1801,-1.50342,0
62.3688,-52.117,-1.51242,0
62.4209,-52.0526,-1.5213,0
62.4711,-51.987,-1.53009,0
62.5162,-51.9177,-1.53997,0
62.5598,-51.8475,-1.54966,0
62.6016,-51.7765,-1.55916,0
62.6417,-51.7047,-1.56848,0
62.6802,-51.6322,-1.57759,0
62.7168,-51.559,-1.58651,0
62.7516,-51.4851,-1.59523,0
62.7848,-51.4107,-1.60374,0
62.8162,-51.3357,-1.61205,0
62.846,-51.2602,-1.62015,0
62.874,-51.1842,-1.62803,0
62.9002,-51.1077,-1.63571,0
62.9246,-51.0309,-1.64317,0
62.9473,-50.9537,-1.6504,0
62.9689,-50.8764,-1.65727,0
62.995,-50.8009,-1.66225,0
63.0194,-50.7248,-1.66703,0
63.0423,-50.6482,-1.67158,0
63.0634,-50.5711,-1.67592,0
