9.23744,-0.747402,0.270892,0
9.17318,-0.63249,0.248939,0
9.10612,-0.520723,0.227249,0
9.08184,-0.410791,0.216019,0
9.06714,-0.301338,0.207659,0
9.04949,-0.192559,0.199339,0
9.02891,-0.0845605,0.191087,0
9.00546,0.0226074,0.182894,0
8.97917,0.128877,0.174739,0
8.95008,0.234131,0.166663,0
8.91825,0.33832,0.158655,0
8.88372,0.441377,0.150716,0
8.84655,0.543193,0.142874,0
8.80678,0.64373,0.135111,0
8.76449,0.74291,0.127445,0
8.71971,0.840635,0.119896,0
8.67252,0.936885,0.112445,0
8.6163,1.0291,0.103607,0
8.54522,1.11433,0.0920637,0
8.47292,1.19726,0.0808234,0
8.39947,1.27793,0.0698762,0
8.35553,1.37116,0.0661945,0
8.31042,1.46382,0.0628937,0
8.26336,1.55551,0.0597883,0
8.21435,1.64623,0.0568586,0
8.16342,1.7359,0.054134,0
8.11106,1.82481,0.0517023,0
8.06002,1.91481,0.0502375,0
8.00712,2.00392,0.0490266,0
7.95238,2.09215,0.0480012,0
7.89581,2.17943,0.0472199,0
7.83741,2.26576,0.0466535,0
7.77718,2.3511,0.0463215,0
7.71515,2.43542,0.0462141,0
7.6513,2.51866,0.046341,0
7.58567,2.60084,0.0466926,0
7.51824,2.68189,0.0472785,0
7.44904,2.76179,0.0481086,0
7.36623,2.82708,0.0456281,0
7.27807,2.88559,0.042132,0
7.18909,2.94217,0.0388996,0
7.09932,2.99684,0.0359113,0
6.34278,-4.77091,0.558206,0
6.4492,-4.73581,0.555862,0
6.55511,-4.69826,0.55346,0
6.66047,-4.65822,0.550989,0
6.7652,-4.61572,0.54845,0
6.86926,-4.57074,0.545853,0
6.97258,-4.52331,0.543196,0
7.07512,-4.47342,0.540482,0
7.17681,-4.42104,0.537708,0
7.27759,-4.36622,0.534866,0
7.37739,-4.30896,0.531986,0
7.47617,-4.24924,0.529017,0
7.57386,-4.18711,0.526019,0
7.6704,-4.12254,0.522952,0
7.76572,-4.0556,0.519857,0
7.85977,-3.98624,0.516693,0
7.94728,-3.9096,0.511507,0
8.02373,-3.8224,0.502825,0
8.09764,-3.73315,0.493978,0
8.19146,-3.66036,0.492874,0
8.29165,-3.591,0.494349,0
8.38943,-3.51776,0.495277,0
8.48459,-3.44071,0.495687,0
8.57691,-3.3599,0.49553,0
8.66618,-3.27544,0.494827,0
8.75219,-3.18742,0.493568,0
8.83472,-3.09594,0.491732,0
8.91359,-3.00109,0.48931,0
8.98861,-2.90308,0.486331,0
9.05958,-2.80198,0.482767,0
9.12635,-2.69802,0.478636,0
9.18875,-2.59131,0.473919,0
9.24662,-2.48206,0.468636,0
9.29985,-2.37044,0.462786,0
9.34829,-2.25669,0.45639,0
9.39185,-2.14099,0.449456,0
9.43044,-2.02355,0.441986,0
9.46397,-1.90462,0.433997,0
9.4924,-1.7844,0.425511,0
9.51568,-1.66315,0.416556,0
9.53377,-1.54107,0.407112,0
9.52409,-1.41462,0.39182,0
9.47923,-1.28458,0.369085,0
9.43019,-1.15707,0.346419,0
9.37724,-1.03222,0.323831,0
9.32063,-0.910176,0.301409,0
9.26063,-0.791045,0.279134,0
9.19748,-0.67498,0.257103,0
9.13144,-0.562012,0.235296,0
9.08655,-0.451738,0.219144,0
9.07297,-0.34208,0.210775,0
9.05641,-0.233037,0.202445,0
9.03692,-0.124746,0.194173,0
9.01454,-0.0172266,0.185931,0
8.9893,0.089375,0.177767,0
8.96125,0.195029,0.169652,0
8.93043,0.299619,0.161624,0
8.8969,0.403105,0.153655,0
8.86071,0.505381,0.145794,0
8.82191,0.606387,0.138011,0
8.78055,0.706084,0.130296,0
8.73669,0.804365,0.122698,0
8.69039,0.901182,0.115208,0
8.64172,0.996465,0.107825,0
8.57186,1.08282,0.0963313,0
8.50001,1.16661,0.0849738,0
8.42698,1.24812,0.0739191,0
8.37184,1.33637,0.0674738,0
8.32747,1.42937,0.0641145,0
8.28114,1.52145,0.0609309,0
8.23285,1.61252,0.0579328,0
8.18263,1.70259,0.0551301,0
8.1305,1.79159,0.0525129,0
8.07927,1.88136,0.0507648,0
8.02706,1.9708,0.0494465,0
7.97301,2.05937,0.0483527,0
7.91712,2.14701,0.0474738,0
7.8594,2.2337,0.0468293,0
7.79985,2.31939,0.0464191,0
7.73849,2.4041,0.0462238,0
7.67532,2.48775,0.0462629,0
7.61035,2.57034,0.0465266,0
7.54359,2.65181,0.0470344,0
7.47505,2.73215,0.047757,0
7.39888,2.80476,0.0470246,0
7.31104,2.86399,0.0434113,0
7.22236,2.92131,0.0400715,0
7.13288,2.97668,0.0369953,0
7.04263,3.03015,0.0341535,0
6.40958,-4.74919,0.556741,0
6.51569,-4.71256,0.554368,0
6.62126,-4.67342,0.551898,0
6.72622,-4.63187,0.549407,0
6.83055,-4.58779,0.54682,0
6.93414,-4.54129,0.544193,0
7.03699,-4.49229,0.541497,0
7.139,-4.44087,0.538753,0
7.24012,-4.38694,0.535931,0
7.3403,-4.33059,0.53306,0
7.43947,-4.27179,0.53012,0
7.53757,-4.21056,0.527142,0
7.63455,-4.14689,0.524105,0
7.73033,-4.08084,0.521029,0
7.82486,-4.01237,0.517874,0
7.91807,-3.9415,0.514671,0
7.99552,-3.85514,0.506058,0
8.07038,-3.76667,0.497298,0
8.15354,-3.68524,0.49221,0
8.25456,-3.61732,0.493861,0
8.35328,-3.54551,0.494993,0
8.44943,-3.46987,0.495599,0
8.54284,-3.39046,0.495657,0
8.63327,-3.30735,0.495159,0
8.72051,-3.22066,0.494114,0
8.80436,-3.13043,0.492474,0
8.88463,-3.03684,0.490277,0
8.9611,-2.93998,0.487503,0
9.0336,-2.84002,0.484163,0
9.10197,-2.7371,0.480237,0
9.16601,-2.6314,0.475745,0
9.22558,-2.52308,0.470677,0
9.28056,-2.41231,0.465032,0
8.93594,-0.480254,0.220823,0
8.92388,-0.374053,0.212728,0
8.90896,-0.268408,0.204661,0
8.8912,-0.163438,0.196634,0
8.87064,-0.0591992,0.188655,0
8.84731,0.0441895,0.180745,0
8.82126,0.146709,0.172884,0
8.79253,0.248262,0.165081,0
8.76116,0.34874,0.157366,0
8.7272,0.448115,0.14972,0
8.69071,0.546309,0.142142,0
8.65173,0.643252,0.134661,0
8.61031,0.738867,0.127279,0
8.56652,0.833115,0.119974,0
8.5204,0.925918,0.112786,0
8.46851,1.01587,0.104896,0
8.39999,1.09814,0.0937531,0
8.33025,1.17826,0.082884,0
8.28244,1.26694,0.0777473,0
8.23969,1.35782,0.0744172,0
8.195,1.44778,0.0712629,0
8.14841,1.53679,0.0683039,0
8.10113,1.62551,0.0658234,0
8.05415,1.71464,0.0640559,0
8.00534,1.80293,0.0625227,0
7.95472,1.8904,0.0611945,0
7.90229,1.977,0.0600715,0
7.84805,2.06268,0.0592023,0
7.79203,2.14743,0.0585383,0
7.73422,2.23123,0.0580793,0
7.67463,2.31402,0.0578547,0
7.61328,2.3958,0.0578645,0
7.55016,2.47651,0.0580988,0
7.4853,2.55615,0.058548,0
7.41869,2.63467,0.0592316,0
7.34942,2.711,0.0598566,0
7.26411,2.76951,0.0562531,0
7.17795,2.82617,0.052884,0
7.09098,2.88094,0.0497785,0
7.00324,2.93382,0.0469172,0
6.33006,-4.64314,0.554739,0
6.43329,-4.60779,0.552415,0
6.53599,-4.57007,0.550062,0
6.63811,-4.5299,0.547611,0
6.73959,-4.48734,0.54512,0
6.84038,-4.4424,0.542562,0
6.94042,-4.39506,0.539954,0
7.03965,-4.34534,0.537288,0
7.13801,-4.2932,0.534554,0
7.23545,-4.2387,0.531771,0
7.33191,-4.18185,0.528948,0
7.42732,-4.12259,0.526038,0
7.52164,-4.06101,0.523099,0
7.61479,-3.99707,0.520101,0
7.70485,-3.9289,0.516273,0
7.78272,-3.84804,0.508138,0
7.85824,-3.76508,0.499837,0
7.93137,-3.68013,0.49139,0
8.00203,-3.59326,0.482796,0
8.07019,-3.50455,0.474075,0
8.14365,-3.4201,0.467982,0
8.23478,-3.34812,0.468538,0
8.32335,-3.2726,0.468558,0
8.40915,-3.19366,0.468089,0
8.492,-3.11133,0.467083,0
8.5717,-3.02572,0.46555,0
8.64808,-2.93696,0.463489,0
8.72095,-2.84517,0.460902,0
8.79015,-2.75044,0.457767,0
8.8555,-2.65294,0.454085,0
8.91688,-2.55281,0.449876,0
8.97412,-2.45022,0.44514,0
9.0271,-2.34533,0.439866,0
9.0757,-2.23835,0.434085,0
9.11983,-2.12944,0.427786,0
9.15937,-2.01881,0.420999,0
9.19427,-1.90663,0.413714,0
9.22445,-1.79315,0.40596,0
9.24986,-1.67854,0.397738,0
9.27047,-1.56304,0.389075,0
9.27648,-1.44506,0.377552,0
9.2398,-1.32106,0.356341,0
9.19901,-1.1992,0.33513,0
9.15434,-1.07962,0.313968,0
9.10602,-0.962471,0.292894,0
9.05427,-0.847842,0.271917,0
8.99933,-0.735918,0.251116,0
8.94775,-0.626836,0.231986,0
8.93969,-0.51998,0.223851,0
8.92871,-0.413574,0.215736,0
8.91486,-0.307734,0.207659,0
8.89815,-0.20251,0.199632,0
8.87863,-0.0979785,0.191624,0
8.85633,0.00574219,0.183695,0
8.83129,0.108613,0.175794,0
8.80355,0.210527,0.167982,0
8.77316,0.311426,0.160218,0
8.74016,0.41123,0.152532,0
8.70461,0.509844,0.144954,0
8.66655,0.607275,0.137425,0
8.62603,0.703369,0.130023,0
8.58312,0.798154,0.122679,0
8.53786,0.891484,0.115462,0
8.49032,0.983359,0.108333,0
8.42568,1.06772,0.0978742,0
8.35639,1.14864,0.0869074,0
8.29789,1.23283,0.0790363,0
8.25585,1.32405,0.0756281,0
8.21189,1.41434,0.072425,0
8.166,1.50371,0.0693879,0
8.11822,1.5921,0.0665461,0
8.07188,1.68149,0.0646906,0
8.02375,1.77012,0.0630695,0
7.97381,1.85789,0.061673,0
7.92205,1.94482,0.0604621,0
7.86848,2.03084,0.0594953,0
7.81313,2.11595,0.0587531,0
7.75598,2.20011,0.0582258,0
7.69705,2.28328,0.0579035,0
7.63636,2.36543,0.0578449,0
7.5739,2.44655,0.0579816,0
7.50969,2.5266,0.058343,0
7.44373,2.60553,0.0589484,0
7.37604,2.68332,0.0597785,0
7.29602,2.74792,0.0575617,0
7.21017,2.80528,0.0541047,0
7.1235,2.86073,0.0509113,0
7.03604,2.91434,0.0479523,0
6.29144,-4.65569,0.555579,0
6.39486,-4.62125,0.553284,0
6.49777,-4.58439,0.550931,0
6.60011,-4.54516,0.548538,0
6.70184,-4.50349,0.546048,0
6.80289,-4.45944,0.543519,0
6.90321,-4.41301,0.540941,0
7.00275,-4.36415,0.538284,0
7.10144,-4.31293,0.535589,0
7.19923,-4.25932,0.532825,0
7.29606,-4.20332,0.530003,0
7.39187,-4.14496,0.527132,0
7.48661,-4.08424,0.524202,0
7.5802,-4.02118,0.521224,0
7.6726,-3.95579,0.518196,0
7.75395,-3.87844,0.511195,0
7.83036,-3.79624,0.502943,0
7.90439,-3.71203,0.494554,0
7.97598,-3.62587,0.486019,0
8.04507,-3.53785,0.477357,0
8.11163,-3.44802,0.468558,0
8.20109,-3.37535,0.468372,0
8.29064,-3.30117,0.468616,0
8.3775,-3.2235,0.468323,0
8.46147,-3.14239,0.467503,0
8.54237,-3.058,0.466175,0
8.62,-2.97041,0.46431,0
8.6942,-2.87974,0.461917,0
8.76479,-2.78608,0.458988,0
8.83159,-2.6896,0.455511,0
8.89447,-2.59043,0.451497,0
8.95327,-2.48874,0.446956,0
9.00785,-2.38471,0.441898,0
9.0581,-2.27847,0.436302,0
9.10391,-2.17024,0.430189,0
9.14517,-2.06025,0.423597,0
9.18181,-1.94862,0.416478,0
9.21375,-1.83559,0.40889,0
9.24094,-1.72139,0.400862,0
9.26335,-1.60618,0.392347,0
9.28094,-1.49021,0.383411,0
9.25397,-1.36705,0.364241,0
9.21468,-1.24438,0.34303,0
9.17143,-1.12393,0.321849,0
9.12445,-1.00584,0.300726,0
9.07395,-0.890283,0.27973,0
9.02017,-0.777324,0.258851,0
8.96334,-0.667139,0.238177,0
8.94303,-0.559785,0.226888,0
8.93314,-0.453203,0.218773,0
8.92036,-0.347139,0.210677,0
8.90471,-0.24167,0.20262,0
8.88624,-0.136875,0.194613,0
8.86497,-0.0328223,0.186644,0
8.84094,0.0703613,0.178734,0
8.81421,0.172637,0.170882,0
8.7848,0.273926,0.163109,0
8.75277,0.374131,0.155404,0
8.71816,0.473213,0.147777,0
8.68103,0.571104,0.140218,0
8.64142,0.667695,0.132767,0
8.5994,0.762969,0.125404,0
8.55501,0.856855,0.118138,0
8.50831,0.949268,0.110989,0
8.4512,1.037,0.102034,0
8.38237,1.11873,0.0909602,0
8.31306,1.19859,0.0803547,0
8.27175,1.29013,0.0768879,0
8.2285,1.38079,0.0735969,0
8.18333,1.47049,0.0705012,0
8.13626,1.55927,0.0675813,0
8.08936,1.64825,0.0653547,0
8.04191,1.73717,0.0636457,0
7.99264,1.82527,0.0621613,0
7.94156,1.91251,0.0608918,0
7.88866,1.99886,0.0598469,0
7.83397,2.08433,0.059007,0
7.7775,2.16884,0.0583918,0
7.71923,2.25237,0.0580109,0
7.65919,2.33491,0.0578449,0
7.59739,2.41644,0.0578938,0
7.53383,2.49688,0.0581867,0
7.46852,2.57623,0.0586945,0
7.40148,2.65446,0.0594367,0
7.3278,2.72605,0.0589191,0
7.24228,2.78409,0.0553742,0
7.15591,2.84028,0.0520637,0
7.06874,2.89456,0.0490363,0
6.9808,2.94697,0.0462434,0
6.35636,-4.63438,0.554163,0
6.45946,-4.59842,0.55182,0
6.56203,-4.56006,0.549437,0
6.66398,-4.51932,0.546995,0
6.7653,-4.47615,0.544476,0
6.86589,-4.43059,0.541898,0
6.96574,-4.38265,0.53929,0
7.06475,-4.33229,0.536595,0
7.16288,-4.27956,0.533851,0
7.26007,-4.22447,0.531058,0
7.35627,-4.16699,0.528196,0
7.45141,-4.10714,0.525286,0
7.54545,-4.04495,0.522327,0
7.63829,-3.98044,0.519329,0
7.72487,-3.90853,0.514222,0
7.80215,-3.82712,0.506038,0
7.87707,-3.74365,0.497698,0
7.94957,-3.65822,0.489222,0
8.0196,-3.57088,0.480599,0
8.08711,-3.48171,0.471839,0
8.16706,-3.40213,0.468177,0
8.25756,-3.32925,0.468587,0
8.34544,-3.25284,0.468489,0
8.43051,-3.17304,0.467884,0
8.51258,-3.08984,0.466732,0
8.59145,-3.00346,0.465081,0
8.66695,-2.91391,0.462884,0
8.7389,-2.82134,0.46015,0
8.80713,-2.72589,0.456868,0
8.8715,-2.6277,0.45306,0
8.93183,-2.52693,0.448714,0
8.988,-2.42376,0.443851,0
9.03988,-2.31833,0.43845,0
8.79159,-0.480752,0.220404,0
8.78024,-0.377949,0.212571,0
8.76613,-0.275664,0.204759,0
8.74927,-0.174014,0.196995,0
8.72971,-0.0730469,0.189261,0
8.70748,0.0271191,0.181605,0
8.68261,0.126455,0.173978,0
8.65516,0.224863,0.166419,0
8.62515,0.322266,0.158939,0
8.59264,0.418623,0.151517,0
8.55767,0.513838,0.144183,0
8.5203,0.607842,0.136937,0
8.48056,0.700605,0.129769,0
8.43852,0.792051,0.122698,0
8.39422,0.882139,0.115706,0
8.34773,0.970762,0.108841,0
8.28781,1.05329,0.0993586,0
8.22648,1.13395,0.0901203,0
8.18668,1.22342,0.0866926,0
8.14499,1.31203,0.0834504,0
8.10251,1.40032,0.0806574,0
8.06012,1.48885,0.0785285,0
8.01592,1.57662,0.0766047,0
7.96993,1.6636,0.0749152,0
7.92216,1.7498,0.0734016,0
7.8726,1.83515,0.072132,0
7.82128,1.91964,0.0710676,0
7.76819,2.00324,0.0702082,0
7.71335,2.08591,0.0695832,0
7.65676,2.16763,0.0691633,0
7.59844,2.24836,0.0689777,0
7.53839,2.32808,0.0689973,0
7.47662,2.40677,0.0692414,0
7.41314,2.48438,0.0697004,0
7.34796,2.56089,0.0703937,0
7.28086,2.636,0.0712336,0
7.19775,2.69338,0.0676691,0
7.11379,2.74889,0.0643684,0
7.02902,2.80261,0.0612922,0
6.94348,2.85446,0.0584797,0
6.28015,-4.53377,0.552249,0
6.38054,-4.49908,0.549993,0
6.48039,-4.46205,0.547679,0
6.57967,-4.4227,0.545306,0
6.6783,-4.381,0.542874,0
6.77624,-4.33695,0.540374,0
6.87343,-4.2906,0.537825,0
6.96982,-4.2419,0.535228,0
7.06535,-4.19089,0.532552,0
7.15996,-4.13759,0.529857,0
7.25361,-4.08195,0.527073,0
7.34622,-4.02402,0.524251,0
7.43775,-3.96384,0.52139,0
7.5213,-3.89411,0.515521,0
7.59894,-3.818,0.507796,0
7.67438,-3.73981,0.499925,0
7.74756,-3.65962,0.491888,0
7.81844,-3.57751,0.483734,0
7.88695,-3.49355,0.475433,0
7.95304,-3.4078,0.466995,0
8.01668,-3.32039,0.45846,0
8.07782,-3.23133,0.449798,0
8.14454,-3.14634,0.443812,0
8.2255,-3.07039,0.443226,0
8.30368,-2.99129,0.442161,0
8.37888,-2.90914,0.440589,0
8.45094,-2.82405,0.438529,0
8.51971,-2.73613,0.43596,0
8.58503,-2.64551,0.432903,0
8.64674,-2.55229,0.42932,0
8.70473,-2.45665,0.425267,0
8.75884,-2.3587,0.420687,0
8.80898,-2.25864,0.415638,0
8.85502,-2.1566,0.410091,0
8.89687,-2.05279,0.404075,0
8.93446,-1.94736,0.397601,0
8.9677,-1.84052,0.390667,0
8.99654,-1.73243,0.383284,0
9.02094,-1.62328,0.375472,0
9.04085,-1.51331,0.367239,0
9.0297,-1.39785,0.35181,0
8.99762,-1.2806,0.331946,0
8.96165,-1.16525,0.312064,0
8.92198,-1.05191,0.2922,0
8.87881,-0.940771,0.272415,0
8.83235,-0.831914,0.252708,0
8.80727,-0.726416,0.239095,0
8.8026,-0.622646,0.231204,0
8.7951,-0.519219,0.223333,0
8.7848,-0.41624,0.215501,0
8.77171,-0.31373,0.207669,0
8.75587,-0.211836,0.199886,0
8.73732,-0.110605,0.192142,0
8.71608,-0.0101172,0.184437,0
8.69219,0.089541,0.1768,0
8.66569,0.188291,0.169222,0
8.63663,0.286074,0.161712,0
8.60505,0.382803,0.15429,0
8.571,0.478467,0.146907,0
8.53451,0.572939,0.139632,0
8.49565,0.666191,0.132415,0
8.45446,0.758105,0.125325,0
8.411,0.848711,0.118304,0
8.36532,0.9379,0.11138,0
8.31246,1.02358,0.103382,0
8.24597,1.10256,0.0926887,0
8.20175,1.19016,0.0879426,0
8.16075,1.2791,0.084632,0
8.11786,1.36713,0.081507,0
8.07614,1.45592,0.0793,0
8.03261,1.54397,0.0773078,0
7.98729,1.63127,0.0755109,0
7.94018,1.71775,0.0739387,0
7.89129,1.80342,0.072591,0
7.84062,1.88823,0.0714387,0
7.78819,1.97216,0.0705109,0
7.734,2.0552,0.0697883,0
7.67806,2.13728,0.0692805,0
7.62039,2.21838,0.0690168,0
7.56098,2.29849,0.0689582,0
7.49985,2.37757,0.0691145,0
7.43701,2.45558,0.0694953,0
7.37246,2.5325,0.0701008,0
7.30622,2.60829,0.0709406,0
7.22884,2.67218,0.0689777,0
7.14519,2.72841,0.0655695,0
7.06072,2.78278,0.0624152,0
6.97546,2.83533,0.0594953,0
6.2426,-4.54611,0.553079,0
6.34317,-4.51228,0.550833,0
6.44323,-4.47614,0.548558,0
6.54273,-4.43764,0.546194,0
6.6416,-4.39682,0.543792,0
6.73981,-4.35364,0.541312,0
6.83728,-4.30814,0.538782,0
6.93398,-4.26032,0.536195,0
7.02984,-4.2102,0.533568,0
7.1248,-4.15772,0.530863,0
7.21881,-4.10297,0.528128,0
7.31181,-4.0459,0.525316,0
7.40375,-3.98654,0.522454,0
7.49181,-3.92195,0.518362,0
7.57024,-3.84662,0.510696,0
7.64651,-3.7692,0.502874,0
7.72054,-3.68975,0.494905,0
7.79228,-3.60834,0.48678,0
7.86168,-3.52507,0.478538,0
7.92868,-3.43999,0.470159,0
7.99325,-3.35317,0.461654,0
8.05532,-3.2647,0.45303,0
8.11486,-3.1747,0.44432,0
8.19563,-3.09908,0.443509,0
8.27487,-3.02114,0.44262,0
8.3512,-2.94012,0.441234,0
8.42445,-2.85612,0.439359,0
8.49446,-2.76925,0.436976,0
8.56109,-2.67961,0.434105,0
8.62416,-2.58733,0.430716,0
8.68355,-2.49259,0.426839,0
8.73913,-2.39548,0.422454,0
8.79076,-2.29619,0.417581,0
8.83834,-2.19486,0.41222,0
8.88176,-2.0917,0.40639,0
8.92095,-1.98685,0.400071,0
8.95582,-1.88051,0.393304,0
8.98631,-1.77285,0.386077,0
9.01236,-1.66407,0.378421,0
9.03395,-1.55441,0.370364,0
9.04062,-1.44198,0.359183,0
9.01005,-1.32411,0.339359,0
8.9755,-1.20805,0.319495,0
8.93719,-1.09393,0.299612,0
8.8953,-0.981963,0.279798,0
8.85004,-0.872227,0.260042,0
8.80828,-0.765186,0.242054,0
8.80467,-0.661299,0.234144,0
8.79823,-0.557734,0.226263,0
8.78897,-0.454561,0.218411,0
8.77691,-0.351865,0.21057,0
8.7621,-0.249766,0.202786,0
8.74455,-0.148271,0.195023,0
8.72431,-0.0475,0.187308,0
8.7014,0.0524609,0.179661,0
8.67587,0.151562,0.172054,0
8.64777,0.249717,0.164515,0
8.61712,0.346865,0.157054,0
8.58398,0.442939,0.149642,0
8.5484,0.537852,0.142337,0
8.51041,0.631562,0.135101,0
8.47009,0.723994,0.127952,0
8.42747,0.815088,0.120911,0
8.38261,0.904824,0.113948,0
8.33556,0.993076,0.107112,0
8.2709,1.07336,0.096634,0
8.21654,1.15678,0.0892316,0
8.17626,1.24604,0.085843,0
8.13408,1.33443,0.0826496,0
8.0919,1.42291,0.0801008,0
8.04905,1.51123,0.0780305,0
8.0044,1.59882,0.0761555,0
7.95795,1.6856,0.0745148,0
7.90972,1.77158,0.0730695,0
7.85972,1.8567,0.0718488,0
7.80794,1.94098,0.0708332,0
7.75441,2.02434,0.0700422,0
7.69913,2.10678,0.0694562,0
7.6421,2.18824,0.0691047,0
7.58333,2.26874,0.0689484,0
7.52284,2.3482,0.0690266,0
7.46063,2.4266,0.0693391,0
7.39672,2.50395,0.0698566,0
7.33111,2.58015,0.0706086,0
7.2598,2.65074,0.0703156,0
7.17648,2.70768,0.0668,0
7.09231,2.76272,0.0635676,0
7.00734,2.81596,0.0605598,0
6.92161,2.86735,0.0577961,0
6.30573,-4.52517,0.551683,0
6.40599,-4.48988,0.549407,0
6.5057,-4.45228,0.547093,0
6.60481,-4.41229,0.544681,0
6.70328,-4.37,0.542239,0
6.80102,-4.3254,0.539739,0
6.89802,-4.27843,0.537171,0
6.9942,-4.22915,0.534554,0
7.0895,-4.17755,0.531878,0
7.18387,-4.12365,0.529154,0
7.27726,-4.06745,0.52637,0
7.3696,-4.00896,0.523548,0
7.46085,-3.94817,0.520648,0
7.54125,-3.87494,0.513558,0
7.61833,-3.7983,0.505804,0
7.6932,-3.71962,0.497903,0
7.76581,-3.63894,0.489837,0
7.83608,-3.55634,0.481634,0
7.90399,-3.47191,0.473294,0
7.96946,-3.38575,0.464847,0
8.03247,-3.29787,0.456263,0
8.09296,-3.20843,0.447581,0
8.16539,-3.12732,0.443704,0
8.24566,-3.05057,0.443011,0
8.32309,-2.97067,0.4418,0
8.39751,-2.88778,0.44012,0
8.46875,-2.80195,0.437923,0
8.53665,-2.71335,0.435237,0
8.60107,-2.62203,0.432025,0
8.66185,-2.52819,0.428343,0
8.71886,-2.43195,0.424154,0
8.77198,-2.33345,0.419446,0
8.82108,-2.23285,0.414261,0
8.65567,-0.48124,0.220013,0
8.64497,-0.381611,0.212415,0
8.63159,-0.28249,0.204847,0
8.61557,-0.183975,0.197337,0
8.59693,-0.0861035,0.189847,0
8.5757,0.0110254,0.182405,0
8.55194,0.107363,0.175013,0
8.52566,0.202793,0.167698,0
8.49692,0.297285,0.160433,0
8.46575,0.390781,0.153226,0
8.4322,0.483184,0.146107,0
8.39631,0.574453,0.139075,0
8.35814,0.664512,0.132113,0
8.31773,0.753311,0.125247,0
8.27513,0.840791,0.11848,0
8.2304,0.926914,0.11181,0
8.18138,1.0107,0.104681,0
8.13404,1.09454,0.0985871,0
8.09675,1.18254,0.0956281,0
8.05879,1.27041,0.0931477,0
8.01905,1.3576,0.0908723,0
7.97754,1.44402,0.0888215,0
7.93426,1.52976,0.0869562,0
7.88923,1.61472,0.0852961,0
7.84245,1.69887,0.0838508,0
7.79392,1.78219,0.0826203,0
7.74367,1.8647,0.0815754,0
7.69168,1.94629,0.0807648,0
7.63798,2.02696,0.0801691,0
7.58257,2.10671,0.0797785,0
7.52547,2.18548,0.0796027,0
7.46667,2.26324,0.0796516,0
7.40619,2.33998,0.0799055,0
7.34405,2.41567,0.0803742,0
7.28024,2.49023,0.0810871,0
7.21478,2.5637,0.0819953,0
7.13418,2.62041,0.0786262,0
7.05233,2.67486,0.0753547,0
6.96966,2.72752,0.0723371,0
6.88622,2.7784,0.0695441,0
6.23262,-4.4296,0.549886,0
6.33031,-4.39556,0.547689,0
6.42745,-4.35921,0.545413,0
6.52402,-4.3206,0.543089,0
6.61994,-4.27973,0.540716,0
6.71518,-4.23658,0.538284,0
6.80968,-4.19117,0.535814,0
6.90337,-4.14349,0.533255,0
6.99622,-4.09356,0.530667,0
7.08816,-4.04137,0.528011,0
7.17913,-3.98697,0.525325,0
7.26739,-3.92832,0.521761,0
7.3467,-3.85886,0.514603,0
7.42401,-3.78729,0.507298,0
7.49927,-3.71364,0.499827,0
7.57241,-3.63798,0.4922,0
7.64339,-3.56039,0.484427,0
7.71214,-3.48094,0.476527,0
7.77862,-3.39971,0.468489,0
7.84277,-3.31675,0.460335,0
7.90456,-3.23216,0.452073,0
7.96393,-3.14599,0.443685,0
8.02085,-3.05834,0.435208,0
8.07528,-2.96926,0.426624,0
8.13132,-2.88144,0.419359,0
8.20247,-2.80248,0.417757,0
8.27066,-2.7208,0.415706,0
8.33573,-2.63647,0.413177,0
8.39756,-2.54961,0.410189,0
8.456,-2.46034,0.406712,0
8.51093,-2.36881,0.402777,0
8.56223,-2.27513,0.398372,0
8.60979,-2.17946,0.393509,0
8.65351,-2.08197,0.388196,0
8.69332,-1.98281,0.382435,0
8.72912,-1.88215,0.376243,0
8.76085,-1.78015,0.369622,0
8.78846,-1.67698,0.362581,0
8.81191,-1.57285,0.35515,0
8.83016,-1.4677,0.347044,0
8.80589,-1.35502,0.32845,0
8.77775,-1.24388,0.309808,0
8.74589,-1.13437,0.291097,0
8.71051,-1.02672,0.272415,0
8.67179,-0.921025,0.253782,0
8.6717,-0.819971,0.245765,0
8.6702,-0.719209,0.238109,0
8.66595,-0.618691,0.230472,0
8.65897,-0.518516,0.222855,0
8.64927,-0.418691,0.215247,0
8.63689,-0.319375,0.207669,0
8.62185,-0.220615,0.20012,0
8.60418,-0.1225,0.19262,0
8.58392,-0.0250879,0.185169,0
8.56109,0.0715527,0.177757,0
8.53575,0.167334,0.170404,0
8.50792,0.262178,0.163118,0
8.47765,0.356025,0.155921,0
8.44498,0.448857,0.148753,0
8.40996,0.540557,0.141693,0
8.37264,0.631084,0.134691,0
8.33306,0.720352,0.127796,0
8.29127,0.80834,0.120989,0
8.24732,0.894971,0.114271,0
8.20127,0.980205,0.107659,0
8.14804,1.06179,0.0998664,0
8.11044,1.14963,0.0965949,0
8.07315,1.23773,0.0940461,0
8.03407,1.32516,0.0917121,0
7.99322,1.41188,0.0895637,0
7.9506,1.49789,0.0876203,0
7.90623,1.58313,0.0858918,0
7.86009,1.66758,0.0843781,0
7.81222,1.75124,0.0830402,0
7.76261,1.83403,0.0819465,0
7.71127,1.91596,0.0810578,0
7.6582,1.99698,0.0803645,0
7.60343,2.07708,0.0798957,0
7.54696,2.15621,0.0796516,0
7.48879,2.23437,0.0796125,0
7.42894,2.31149,0.0797883,0
7.36741,2.38758,0.0801789,0
7.30422,2.46257,0.0807941,0
7.23938,2.53645,0.0816242,0
7.16449,2.59966,0.0798957,0
7.08294,2.65477,0.0765559,0
7.00058,2.70811,0.0734309,0
6.91742,2.75965,0.0705598,0
6.19608,-4.44172,0.550696,0
6.29395,-4.40852,0.548509,0
6.3913,-4.37303,0.546273,0
6.48809,-4.33528,0.543988,0
6.58426,-4.29523,0.541614,0
6.67976,-4.25293,0.539202,0
6.77453,-4.20837,0.536741,0
6.86854,-4.16153,0.534212,0
6.96171,-4.11246,0.531654,0
7.05399,-4.0611,0.529017,0
7.14533,-4.00751,0.526321,0
7.23567,-3.9517,0.523597,0
7.31735,-3.88501,0.517288,0
7.39542,-3.81422,0.510042,0
7.47145,-3.74132,0.50262,0
7.54539,-3.66643,0.495062,0
7.61719,-3.58955,0.487347,0
7.68677,-3.51077,0.479486,0
7.7541,-3.43021,0.471507,0
7.81913,-3.34787,0.463392,0
7.8818,-3.26388,0.455159,0
7.94208,-3.17829,0.44682,0
7.99992,-3.09118,0.438372,0
8.05528,-3.00264,0.429827,0
8.10814,-2.91271,0.421204,0
8.17628,-2.83226,0.418421,0
8.24559,-2.75156,0.416517,0
8.31184,-2.66821,0.414173,0
8.3749,-2.58229,0.411361,0
8.43462,-2.4939,0.40805,0
8.49087,-2.40319,0.4043,0
8.54353,-2.31028,0.400062,0
8.5925,-2.21536,0.395384,0
8.63767,-2.11854,0.390247,0
8.67894,-2.01996,0.384632,0
8.71624,-1.91986,0.378616,0
8.7495,-1.81831,0.372122,0
8.77865,-1.71557,0.365247,0
8.80366,-1.61178,0.357962,0
8.82448,-1.50711,0.350267,0
8.81541,-1.39687,0.335394,0
8.78868,-1.28513,0.316761,0
8.75819,-1.175,0.298079,0
8.72411,-1.06665,0.279398,0
8.68661,-0.960205,0.260726,0
8.67155,-0.857588,0.248626,0
8.67109,-0.756768,0.24097,0
8.66786,-0.656133,0.233323,0
8.66189,-0.55582,0.225696,0
8.6532,-0.455859,0.218079,0
8.64182,-0.356348,0.210491,0
8.62776,-0.257383,0.202943,0
8.61107,-0.159014,0.195413,0
8.59177,-0.0613184,0.187943,0
8.5699,0.0356055,0.180521,0
8.54549,0.131699,0.173157,0
8.51858,0.226924,0.165833,0
8.48922,0.321162,0.158597,0
8.45744,0.414385,0.151409,0
8.42329,0.506504,0.14431,0
8.38682,0.597471,0.137298,0
8.34807,0.687217,0.130364,0
8.3071,0.775693,0.123519,0
8.26395,0.862822,0.116771,0
8.21868,0.948594,0.11012,0
8.16513,1.03031,0.102025,0
8.12435,1.11683,0.0977082,0
8.08726,1.20495,0.0949836,0
8.04885,1.29266,0.0925422,0
8.00866,1.37964,0.0903352,0
7.9667,1.46591,0.0883234,0
7.92298,1.55143,0.0865168,0
7.8775,1.63619,0.0849055,0
7.83027,1.72014,0.0835188,0
7.78131,1.80324,0.0823371,0
7.73061,1.88552,0.0813605,0
7.67819,1.96688,0.0805988,0
7.62405,2.04733,0.080052,0
7.56821,2.12683,0.0797102,0
7.51067,2.20536,0.0795832,0
7.45145,2.28286,0.0796906,0
7.39055,2.35932,0.0800129,0
7.32798,2.43475,0.0805305,0
7.26375,2.50902,0.081302,0
7.19468,2.57862,0.0812238,0
7.11344,2.63442,0.0777668,0
7.03138,2.68844,0.0745637,0
6.94851,2.74064,0.0715949,0
6.86488,2.79105,0.0688801,0
6.25751,-4.42116,0.549329,0
6.35506,-4.38652,0.547112,0
6.45207,-4.3496,0.544827,0
6.54847,-4.31042,0.542493,0
6.64424,-4.26897,0.540111,0
6.73928,-4.22526,0.537669,0
6.83359,-4.17926,0.535169,0
6.92707,-4.13103,0.53262,0
7.01969,-4.08051,0.530003,0
7.11139,-4.02776,0.527347,0
7.20211,-3.97278,0.524632,0
7.28774,-3.91088,0.519964,0
7.36655,-3.84086,0.512767,0
7.44335,-3.76873,0.505404,0
7.51807,-3.69456,0.497884,0
7.59067,-3.61844,0.490238,0
7.66109,-3.54038,0.482445,0
7.72927,-3.46045,0.474495,0
7.79516,-3.37877,0.466429,0
7.85871,-3.2954,0.458245,0
7.91989,-3.21038,0.449935,0
7.97864,-3.12382,0.441527,0
8.03493,-3.0358,0.433021,0
8.08873,-2.94641,0.424437,0
8.14969,-2.86162,0.418997,0
8.2201,-2.78197,0.417288,0
8.28751,-2.69961,0.415111,0
8.35177,-2.61463,0.412464,0
8.41275,-2.52713,0.409339,0
8.47031,-2.43727,0.405745,0
8.52432,-2.34518,0.401702,0
8.57468,-2.25098,0.397181,0
8.62128,-2.15483,0.3922,0
8.52744,-0.48168,0.219632,0
8.51733,-0.385068,0.212279,0
8.50463,-0.288936,0.204935,0
8.48937,-0.193359,0.19764,0
8.47159,-0.0983984,0.190374,0
8.4513,-0.00416016,0.183157,0
8.42855,0.0893262,0.175989,0
8.40337,0.181973,0.16888,0
8.37579,0.273711,0.161839,0
8.34587,0.364473,0.154857,0
8.31364,0.454238,0.147933,0
8.27914,0.542891,0.141087,0
8.24243,0.630391,0.134339,0
8.20354,0.716689,0.127669,0
8.16252,0.801728,0.121087,0
8.11943,0.885449,0.114593,0
8.08294,0.971357,0.110423,0
8.05049,1.05899,0.107923,0
8.01507,1.14552,0.105316,0
7.9779,1.23137,0.102913,0
7.93898,1.31655,0.100696,0
7.89832,1.40105,0.0986848,0
7.85593,1.48479,0.0968781,0
7.81182,1.56781,0.0952668,0
7.76599,1.65002,0.0938605,0
7.71846,1.73142,0.0926691,0
7.66923,1.81197,0.091673,0
7.61831,1.89166,0.0908918,0
7.56571,1.97043,0.0903254,0
7.51144,2.04829,0.0899543,0
7.4555,2.12518,0.089798,0
7.39792,2.20107,0.0898664,0
7.33869,2.27596,0.0901301,0
7.27782,2.34979,0.0906184,0
7.21534,2.42255,0.0913117,0
7.15124,2.49418,0.0922395,0
7.07323,2.55045,0.0891242,0
6.99338,2.60386,0.0859113,0
6.91273,2.65552,0.0829328,0
6.8313,2.70544,0.0801789,0
6.1873,-4.33027,0.54763,0
6.2824,-4.29683,0.545482,0
6.37698,-4.26118,0.543275,0
6.47097,-4.22332,0.541019,0
6.56432,-4.18321,0.538675,0
6.657,-4.14093,0.536312,0
6.74892,-4.09642,0.53387,0
6.84007,-4.04973,0.5314,0
6.93036,-4.00082,0.528851,0
7.01976,-3.94976,0.526273,0
7.10157,-3.88836,0.520325,0
7.18036,-3.82318,0.513548,0
7.25728,-3.7559,0.506624,0
7.33228,-3.68655,0.499534,0
7.40529,-3.61523,0.492308,0
7.47627,-3.54194,0.484905,0
7.54516,-3.46681,0.477386,0
7.61191,-3.38987,0.46973,0
7.67646,-3.31119,0.461946,0
7.73877,-3.23085,0.454036,0
7.7988,-3.14894,0.446038,0
7.8565,-3.06549,0.437913,0
7.91184,-2.98059,0.429691,0
7.96478,-2.89434,0.42139,0
8.01529,-2.80677,0.413001,0
8.06333,-2.71801,0.404534,0
8.10889,-2.6281,0.395989,0
8.16687,-2.54499,0.392259,0
8.22554,-2.46161,0.389329,0
8.28101,-2.37599,0.38596,0
8.33318,-2.28822,0.382142,0
8.38192,-2.19849,0.377913,0
8.42715,-2.10687,0.373216,0
8.46877,-2.01354,0.368109,0
8.5067,-1.91864,0.362581,0
8.54087,-1.82236,0.356663,0
8.57123,-1.7248,0.350325,0
8.5977,-1.62617,0.343607,0
8.62027,-1.52661,0.336507,0
8.62308,-1.42303,0.324691,0
8.60198,-1.31602,0.307171,0
8.5772,-1.21037,0.289593,0
8.5489,-1.10622,0.271976,0
8.53656,-1.00581,0.259456,0
8.5407,-0.90792,0.252025,0
8.54216,-0.810117,0.244622,0
8.54094,-0.712451,0.23721,0
8.53706,-0.614971,0.229788,0
8.53054,-0.517832,0.222396,0
8.5214,-0.421055,0.215023,0
8.50966,-0.324727,0.207679,0
8.49536,-0.228926,0.200355,0
8.47851,-0.133711,0.19307,0
8.45915,-0.039209,0.185843,0
8.43732,0.0545605,0.178665,0
8.41304,0.14752,0.171536,0
8.38635,0.239619,0.164446,0
8.3573,0.330762,0.157445,0
8.32593,0.420898,0.150491,0
8.29227,0.509961,0.143636,0
8.25637,0.5979,0.136849,0
8.21829,0.684658,0.13014,0
8.17806,0.770166,0.123529,0
8.13573,0.854394,0.117005,0
8.09635,0.939258,0.111859,0
8.06325,1.02658,0.108948,0
8.02848,1.11333,0.106263,0
7.99196,1.19945,0.103773,0
7.95369,1.28486,0.101507,0
7.91368,1.36963,0.0994172,0
7.87194,1.45367,0.0975227,0
7.82847,1.53694,0.0958527,0
7.78328,1.61947,0.0943488,0
7.73638,1.70117,0.0930891,0
7.68779,1.78205,0.0920148,0
7.6375,1.86205,0.0911652,0
7.58552,1.94118,0.0905012,0
7.53187,2.01937,0.0900715,0
7.47655,2.09662,0.0898469,0
7.41958,2.17291,0.0898078,0
7.36096,2.24815,0.0900129,0
7.3007,2.32238,0.0904133,0
7.23882,2.39553,0.0910383,0
7.17532,2.46759,0.0918781,0
7.10279,2.53009,0.090384,0
7.02325,2.58415,0.0870832,0
6.94289,2.63647,0.0839973,0
6.86175,2.68704,0.0811652,0
6.15171,-4.34217,0.548431,0
6.247,-4.30955,0.546292,0
6.34178,-4.27473,0.544105,0
6.436,-4.23769,0.541849,0
6.52959,-4.19843,0.539564,0
6.62253,-4.15696,0.5372,0
6.71474,-4.11328,0.534798,0
6.80618,-4.06739,0.532327,0
6.8968,-4.01933,0.529818,0
6.98654,-3.96905,0.527239,0
7.07174,-3.91211,0.522806,0
7.1512,-3.84773,0.516097,0
7.22882,-3.78123,0.509222,0
7.30454,-3.71266,0.5022,0
7.3783,-3.64205,0.495013,0
7.45005,-3.5695,0.487689,0
7.51973,-3.49503,0.480198,0
7.58727,-3.41877,0.472611,0
7.65265,-3.34073,0.464857,0
7.7158,-3.261,0.456995,0
7.77669,-3.17967,0.449036,0
7.83526,-3.09679,0.44096,0
7.89148,-3.01241,0.432777,0
7.94532,-2.92666,0.424505,0
7.99674,-2.83957,0.416136,0
8.04571,-2.75122,0.407689,0
8.09219,-2.66174,0.399183,0
8.1442,-2.57549,0.393245,0
8.20403,-2.49297,0.390482,0
8.26071,-2.40816,0.387269,0
8.31412,-2.32119,0.383616,0
8.36415,-2.23217,0.379534,0
8.41071,-2.14124,0.375023,0
8.45368,-2.04853,0.370071,0
8.493,-1.95421,0.3647,0
8.52858,-1.85842,0.358919,0
8.56036,-1.76132,0.352737,0
8.58829,-1.66306,0.346155,0
8.61232,-1.56383,0.339202,0
8.62998,-1.46322,0.331175,0
8.61028,-1.35576,0.313704,0
8.58686,-1.24959,0.296155,0
8.55985,-1.14485,0.278548,0
8.53432,-1.04229,0.26222,0
8.53947,-0.944414,0.254798,0
8.54193,-0.846572,0.247386,0
8.5417,-0.748828,0.239964,0
8.53881,-0.651289,0.232552,0
8.53328,-0.553994,0.22514,0
8.52511,-0.45707,0.217767,0
8.51434,-0.360586,0.210413,0
8.50099,-0.26458,0.203079,0
8.48509,-0.169141,0.195784,0
8.46666,-0.0743652,0.188538,0
8.44575,0.0196875,0.181341,0
8.42237,0.112959,0.174183,0
8.39658,0.205391,0.167083,0
8.36841,0.296875,0.160062,0
8.33789,0.387412,0.153079,0
8.30508,0.476875,0.146195,0
8.27001,0.565244,0.139368,0
8.23274,0.652451,0.13263,0
8.19331,0.738428,0.12598,0
8.15176,0.823135,0.119427,0
8.10995,0.907246,0.113411,0
8.0755,0.993955,0.109945,0
8.04165,1.08105,0.107249,0
8.00578,1.16741,0.104681,0
7.96816,1.25311,0.102318,0
7.9288,1.33812,0.100159,0
7.8877,1.42243,0.0981965,0
7.84487,1.50601,0.0964387,0
7.80033,1.58878,0.0948957,0
7.75407,1.6708,0.0935383,0
7.7061,1.75198,0.0923957,0
7.65644,1.83231,0.091468,0
7.60509,1.91177,0.0907355,0
7.55207,1.99032,0.0902082,0
7.49737,2.06793,0.0898957,0
7.44101,2.14456,0.0898078,0
7.38301,2.22021,0.0899152,0
7.32336,2.29483,0.0902375,0
7.26208,2.36839,0.0907844,0
7.19918,2.44085,0.0915461,0
7.13223,2.50948,0.091673,0
7.053,2.5642,0.0882746,0
6.97295,2.61718,0.0851203,0
6.89209,2.6684,0.0821906,0
6.81047,2.71785,0.0795148,0
6.21153,-4.32196,0.547083,0
6.30651,-4.28796,0.544915,0
6.40094,-4.25174,0.542689,0
6.49477,-4.21332,0.540413,0
6.58796,-4.17268,0.538079,0
6.68044,-4.12982,0.535696,0
6.77218,-4.08475,0.533245,0
6.86311,-4.03749,0.530755,0
6.95319,-3.98804,0.528196,0
7.04166,-3.93553,0.525247,0
7.12178,-3.87199,0.518626,0
7.20009,-3.80628,0.51181,0
7.27654,-3.73846,0.504837,0
7.35104,-3.6686,0.497708,0
7.42354,-3.59677,0.490433,0
7.49399,-3.523,0.483001,0
7.56234,-3.4474,0.475452,0
7.62853,-3.37003,0.467767,0
7.69252,-3.29093,0.459954,0
7.75425,-3.21017,0.452015,0
7.8137,-3.12785,0.443978,0
7.8708,-3.04402,0.435833,0
7.92553,-2.95879,0.427601,0
7.97786,-2.87219,0.419271,0
8.02774,-2.78432,0.410853,0
8.07516,-2.69524,0.402366,0
8.12112,-2.60562,0.394154,0
8.18208,-2.524,0.391556,0
8.23995,-2.44005,0.388519,0
8.2946,-2.35387,0.385042,0
8.3459,-2.26559,0.381107,0
8.39376,-2.17535,0.376761,0
8.43808,-2.08329,0.371966,0
8.40625,-0.4821,0.21928,0
8.39669,-0.38835,0.212152,0
8.38462,-0.29502,0.205013,0
8.37007,-0.202236,0.197933,0
8.35307,-0.110039,0.190882,0
8.33365,-0.0185254,0.18388,0
8.31184,0.0722656,0.176927,0
8.28768,0.162275,0.170013,0
8.2612,0.251387,0.163167,0
8.23244,0.3396,0.15638,0
8.20144,0.426836,0.149652,0
8.16824,0.513008,0.143011,0
8.13288,0.598066,0.136458,0
8.09963,0.683398,0.131068,0
8.0675,0.768877,0.126614,0
8.03359,0.853594,0.122327,0
8.00178,0.939102,0.119232,0
7.97133,1.02533,0.117171,0
7.93664,1.10994,0.114622,0
7.90022,1.19389,0.112269,0
7.86209,1.27718,0.11012,0
7.82225,1.35978,0.108157,0
7.78072,1.44165,0.1064,0
7.7375,1.52277,0.104847,0
7.6926,1.60313,0.10347,0
7.64602,1.68267,0.102327,0
7.59778,1.76138,0.101361,0
7.54789,1.83922,0.100618,0
7.49635,1.91619,0.100062,0
7.44317,1.99223,0.0997199,0
7.38836,2.06732,0.0995832,0
7.33194,2.14143,0.0996613,0
7.27391,2.21452,0.0999543,0
7.21428,2.28659,0.100443,0
7.15307,2.35759,0.101146,0
7.09028,2.42747,0.102073,0
7.01473,2.48331,0.0991926,0
6.9368,2.53572,0.0960285,0
6.85807,2.58643,0.0930793,0
6.77857,2.63539,0.0903742,0
6.14402,-4.23541,0.545482,0
6.23667,-4.20258,0.543372,0
6.32879,-4.16758,0.541214,0
6.42034,-4.13042,0.538997,0
6.51124,-4.0911,0.536722,0
6.60147,-4.04964,0.534407,0
6.69096,-4.00602,0.532025,0
6.77968,-3.96027,0.529612,0
6.86365,-3.90712,0.524993,0
6.94351,-3.84816,0.518763,0
7.0217,-3.78709,0.512366,0
7.09816,-3.72389,0.505804,0
7.17282,-3.65864,0.499075,0
7.24563,-3.59142,0.4922,0
7.31653,-3.52228,0.485189,0
7.38546,-3.45126,0.47804,0
7.45237,-3.37841,0.470726,0
7.51722,-3.30384,0.463314,0
7.57994,-3.22759,0.455775,0
7.64051,-3.14973,0.448109,0
7.69887,-3.0703,0.440335,0
7.75499,-2.98941,0.432454,0
7.80882,-2.90714,0.424495,0
7.86034,-2.82351,0.416429,0
7.90951,-2.73864,0.408304,0
7.95631,-2.6526,0.400101,0
8.0007,-2.56542,0.39181,0
8.04266,-2.47723,0.38348,0
8.08217,-2.38805,0.375071,0
8.1199,-2.29833,0.366859,0
8.16955,-2.21407,0.363167,0
8.21597,-2.12795,0.359075,0
8.25907,-2.04007,0.354554,0
8.29877,-1.95058,0.349642,0
8.33499,-1.85961,0.344329,0
8.36767,-1.76733,0.338636,0
8.39675,-1.67389,0.332571,0
8.42218,-1.57941,0.326146,0
8.44393,-1.48402,0.319339,0
8.43378,-1.38219,0.304251,0
8.4154,-1.28033,0.287718,0
8.3977,-1.18033,0.272249,0
8.40713,-1.08553,0.265091,0
8.41395,-0.990615,0.257913,0
8.41816,-0.895664,0.250706,0
8.41978,-0.800762,0.243509,0
8.41881,-0.706016,0.236321,0
8.41527,-0.611455,0.229134,0
8.40917,-0.517168,0.221956,0
8.40055,-0.423262,0.214798,0
8.38941,-0.329766,0.207679,0
8.37578,-0.236777,0.200579,0
8.35969,-0.144346,0.193509,0
8.34117,-0.0525781,0.186497,0
8.32025,0.0385059,0.179505,0
8.29696,0.128809,0.172591,0
8.27134,0.218281,0.165696,0
8.24343,0.306836,0.1589,0
8.21326,0.394414,0.152161,0
8.18087,0.480996,0.145482,0
8.14631,0.566494,0.13888,0
8.11115,0.651338,0.132767,0
8.07969,0.7371,0.128245,0
8.04644,0.8221,0.1239,0
8.01227,0.906641,0.119954,0
7.98356,0.993516,0.118099,0
7.94977,1.07847,0.11555,0
7.914,1.16266,0.113128,0
7.8765,1.24619,0.110911,0
7.8373,1.32907,0.108861,0
7.7964,1.41121,0.107034,0
7.75381,1.49262,0.105394,0
7.70953,1.57327,0.103958,0
7.66358,1.65312,0.102728,0
7.61596,1.73214,0.101693,0
7.56668,1.81032,0.100853,0
7.51575,1.88761,0.100247,0
7.46318,1.96399,0.0998273,0
7.40898,2.03943,0.0996125,0
7.35316,2.11391,0.0996223,0
7.29573,2.18739,0.0998176,0
7.2367,2.25982,0.100247,0
7.17608,2.33126,0.100853,0
7.11388,2.40154,0.101702,0
7.04358,2.46334,0.100433,0
6.96595,2.5164,0.0971711,0
6.88752,2.56771,0.0941535,0
6.80829,2.61734,0.0913508,0
6.10935,-4.24712,0.546263,0
6.20219,-4.21509,0.544183,0
6.29451,-4.18089,0.542034,0
6.38628,-4.14454,0.539837,0
6.47743,-4.10603,0.537581,0
6.56791,-4.06535,0.535277,0
6.65769,-4.02255,0.532933,0
6.74669,-3.97759,0.530521,0
6.83346,-3.92852,0.527269,0
6.91393,-3.8704,0.521107,0
6.99275,-3.81011,0.514778,0
7.06986,-3.74768,0.508255,0
7.1452,-3.6832,0.501605,0
7.21871,-3.61671,0.494779,0
7.29032,-3.54827,0.487816,0
7.35999,-3.47794,0.480716,0
7.42767,-3.40579,0.47348,0
7.49328,-3.33184,0.466077,0
7.55681,-3.2562,0.458587,0
7.61818,-3.17894,0.45098,0
7.67737,-3.10008,0.443245,0
7.73433,-3.01975,0.435413,0
7.78902,-2.93797,0.427474,0
7.8414,-2.85485,0.419466,0
7.89146,-2.77044,0.411351,0
7.93914,-2.6848,0.403167,0
7.98443,-2.59804,0.394905,0
8.0273,-2.51022,0.386595,0
8.06773,-2.42141,0.378216,0
8.1057,-2.33167,0.369788,0
8.15141,-2.2457,0.364583,0
8.19904,-2.16025,0.360638,0
8.24339,-2.07303,0.356282,0
8.28437,-1.98412,0.351517,0
8.3219,-1.89371,0.34637,0
8.35591,-1.80188,0.340804,0
8.38633,-1.70887,0.334896,0
8.41313,-1.61474,0.328577,0
8.43625,-1.51969,0.321917,0
8.43971,-1.42044,0.310384,0
8.42267,-1.31818,0.2939,0
8.40208,-1.21708,0.277318,0
8.40392,-1.1209,0.267767,0
8.41171,-1.02602,0.260589,0
8.41689,-0.931074,0.253402,0
8.41948,-0.836143,0.246204,0
8.41947,-0.741348,0.239017,0
8.41689,-0.646689,0.23181,0
8.41175,-0.552295,0.224642,0
8.40406,-0.458223,0.217464,0
8.39385,-0.364561,0.210325,0
8.38115,-0.271367,0.203216,0
8.36598,-0.17873,0.196136,0
8.34836,-0.086709,0.189095,0
8.32833,0.0046582,0.182093,0
8.30592,0.0952344,0.175159,0
8.28117,0.185029,0.168255,0
8.2541,0.273916,0.161439,0
8.22476,0.361875,0.154671,0
8.1932,0.448848,0.147962,0
8.15945,0.534736,0.141341,0
8.12355,0.619521,0.134798,0
8.09163,0.705225,0.129905,0
8.05904,0.790498,0.125501,0
8.02468,0.87501,0.121263,0
7.99448,0.961201,0.118753,0
7.96267,1.04692,0.116488,0
7.92754,1.13134,0.114017,0
7.89068,1.21513,0.111712,0
7.85212,1.29823,0.109613,0
7.81185,1.38065,0.107698,0
7.76989,1.46235,0.105989,0
7.72624,1.5433,0.104466,0
7.68091,1.62343,0.103177,0
7.63391,1.70276,0.102064,0
7.58525,1.78128,0.101146,0
7.53493,1.8589,0.100443,0
7.48298,1.93562,0.0999543,0
7.42938,2.01142,0.0996711,0
7.37417,2.08625,0.0995832,0
7.31733,2.16012,0.0997199,0
7.2589,2.23296,0.100052,0
7.19887,2.30476,0.100599,0
7.13725,2.37547,0.101361,0
7.07231,2.44311,0.101722,0
6.99499,2.49681,0.0983625,0
6.91686,2.54877,0.095257,0
6.83792,2.59904,0.0923664,0
6.75823,2.64758,0.0897199,0
6.16763,-4.22728,0.544964,0
6.26015,-4.1939,0.542835,0
6.35214,-4.15833,0.540648,0
6.44351,-4.12063,0.538421,0
6.53426,-4.08077,0.536146,0
6.6243,-4.03876,0.533812,0
6.7136,-3.99459,0.531419,0
6.8021,-3.9483,0.528997,0
6.88411,-3.89232,0.523421,0
6.96355,-3.83283,0.517152,0
7.04131,-3.7712,0.510706,0
7.11732,-3.70749,0.504105,0
7.19152,-3.64175,0.497357,0
7.26385,-3.57401,0.490433,0
7.33425,-3.50438,0.483382,0
7.40267,-3.43289,0.476185,0
7.46906,-3.35963,0.46887,0
7.53337,-3.2846,0.4614,0
7.59555,-3.20793,0.453821,0
7.65556,-3.12968,0.446146,0
7.71336,-3.04986,0.438333,0
7.7689,-2.96861,0.430433,0
7.82214,-2.886,0.422464,0
7.87307,-2.80205,0.414378,0
7.92164,-2.71686,0.406214,0
7.96782,-2.63053,0.398001,0
8.0116,-2.5431,0.3897,0
8.05294,-2.45462,0.381341,0
8.09183,-2.36523,0.372933,0
8.13283,-2.27707,0.36596,0
8.18167,-2.19234,0.362161,0
8.22725,-2.10574,0.357952,0
8.2695,-2.01745,0.353333,0
8.29154,-0.48252,0.218958,0
8.28247,-0.391436,0.212015,0
8.27098,-0.300801,0.205111,0
8.25709,-0.210635,0.198206,0
8.24082,-0.121064,0.191361,0
8.22221,-0.0321289,0.184554,0
8.20128,0.056123,0.177786,0
8.17807,0.143604,0.171077,0
8.15261,0.230264,0.164417,0
8.12493,0.316025,0.157825,0
8.09936,0.401934,0.152445,0
8.07337,0.487568,0.147591,0
8.04559,0.572539,0.142894,0
8.01602,0.656816,0.138372,0
7.98469,0.740371,0.134017,0
7.95161,0.823184,0.129808,0
7.92382,0.908096,0.127708,0
7.89496,0.992861,0.12597,0
7.86124,1.07573,0.123568,0
7.82556,1.15786,0.121273,0
7.78819,1.23933,0.119173,0
7.74915,1.3201,0.117269,0
7.70844,1.40018,0.11555,0
7.66607,1.47949,0.114046,0
7.62206,1.55808,0.112708,0
7.57641,1.63584,0.111585,0
7.52913,1.71277,0.110667,0
7.48022,1.78887,0.109945,0
7.4297,1.86407,0.109427,0
7.37758,1.93837,0.109105,0
7.32387,2.01172,0.109007,0
7.26857,2.08411,0.109085,0
7.2117,2.15554,0.109368,0
7.15326,2.22589,0.109886,0
7.09328,2.29521,0.110589,0
7.03176,2.36345,0.111497,0
6.95854,2.41882,0.10887,0
6.88244,2.47024,0.105755,0
6.80555,2.52002,0.102835,0
6.72789,2.5681,0.100159,0
6.10265,-4.14476,0.543431,0
6.19296,-4.11251,0.54137,0
6.28274,-4.07814,0.539251,0
6.37195,-4.04167,0.537083,0
6.46053,-4.00311,0.534866,0
6.54843,-3.96243,0.532591,0
6.63296,-3.91574,0.528675,0
6.71355,-3.86285,0.522982,0
6.79265,-3.80776,0.517093,0
6.8702,-3.75055,0.511038,0
6.94614,-3.69127,0.504837,0
7.0204,-3.62996,0.49848,0
7.09293,-3.56663,0.491937,0
7.16366,-3.50143,0.485277,0
7.23255,-3.43435,0.47847,0
7.29954,-3.36541,0.471507,0
7.36457,-3.29478,0.464446,0
7.42761,-3.22242,0.45723,0
7.48861,-3.14845,0.449915,0
7.54751,-3.07291,0.442474,0
7.60429,-2.99591,0.434954,0
7.6589,-2.91742,0.427308,0
7.7113,-2.83758,0.419564,0
7.76147,-2.75647,0.411751,0
7.80937,-2.67413,0.403861,0
7.85497,-2.59063,0.395882,0
7.89825,-2.50606,0.387845,0
7.93918,-2.42047,0.379749,0
7.97774,-2.33396,0.371605,0
8.01392,-2.24657,0.363411,0
8.04769,-2.1584,0.355189,0
8.07905,-2.06951,0.346917,0
8.10799,-1.97995,0.338616,0
8.1418,-1.89243,0.332571,0
8.17645,-1.80512,0.327474,0
8.20775,-1.71656,0.322015,0
8.23566,-1.62687,0.316185,0
8.26011,-1.53623,0.310023,0
8.27263,-1.44281,0.301038,0
8.26005,-1.34471,0.285491,0
8.26999,-1.25223,0.277308,0
8.28184,-1.16039,0.270374,0
8.29115,-1.06837,0.263411,0
8.29794,-0.97624,0.256458,0
8.30221,-0.884072,0.249466,0
8.30397,-0.791953,0.242484,0
8.30323,-0.699951,0.235501,0
8.3,-0.608105,0.228509,0
8.2943,-0.516582,0.221556,0
8.28614,-0.425361,0.214612,0
8.27555,-0.334531,0.207679,0
8.26255,-0.244199,0.200784,0
8.24717,-0.154395,0.193909,0
8.22942,-0.0652051,0.187093,0
8.20935,0.023291,0.180316,0
8.18699,0.111084,0.173568,0
8.16236,0.198037,0.166907,0
8.1355,0.28415,0.160277,0
8.10859,0.369853,0.1543,0
8.08327,0.455723,0.149378,0
8.05616,0.540928,0.144632,0
8.02725,0.625479,0.140032,0
7.99658,0.709297,0.135618,0
7.96415,0.792393,0.131361,0
7.93412,0.876367,0.128411,0
7.90593,0.961279,0.126614,0
7.87412,1.04494,0.124476,0
7.83906,1.12731,0.122103,0
7.80231,1.20902,0.119945,0
7.7639,1.29006,0.117962,0
7.72381,1.37041,0.116155,0
7.68206,1.45001,0.114573,0
7.63866,1.52888,0.113177,0
7.59362,1.60692,0.111995,0
7.54694,1.68419,0.110989,0
7.49864,1.76058,0.110198,0
7.44873,1.83611,0.109613,0
7.3972,1.91077,0.109212,0
7.34408,1.98449,0.109007,0
7.28937,2.05726,0.109027,0
7.23308,2.12902,0.109241,0
7.17523,2.19978,0.109671,0
7.11583,2.26949,0.110296,0
7.05488,2.33813,0.111136,0
6.9867,2.3992,0.110111,0
6.91091,2.45129,0.106878,0
6.83431,2.50167,0.10389,0
6.75693,2.55037,0.101136,0
6.06885,-4.15624,0.544183,0
6.15935,-4.12477,0.542142,0
6.24933,-4.09119,0.540042,0
6.33876,-4.05553,0.537903,0
6.42758,-4.01774,0.535706,0
6.51574,-3.97785,0.53345,0
6.60254,-3.93489,0.530755,0
6.68367,-3.88282,0.52512,0
6.76334,-3.82854,0.5193,0
6.84147,-3.77213,0.513314,0
6.91802,-3.71361,0.507171,0
6.99291,-3.65304,0.500862,0
7.06609,-3.59047,0.494388,0
7.1375,-3.52597,0.487777,0
7.20708,-3.45956,0.481019,0
7.27479,-3.39132,0.474114,0
7.34056,-3.32132,0.467093,0
7.40435,-3.24959,0.459935,0
7.46611,-3.17622,0.452659,0
7.5258,-3.10126,0.445257,0
7.58338,-3.02478,0.437757,0
7.6388,-2.94685,0.430169,0
7.69203,-2.86752,0.422474,0
7.74303,-2.78688,0.414691,0
7.79178,-2.70499,0.40682,0
7.83824,-2.6219,0.39887,0
7.88238,-2.53773,0.390862,0
7.92419,-2.4525,0.382777,0
7.96364,-2.36633,0.374652,0
8.00071,-2.27924,0.366468,0
8.03538,-2.19135,0.358245,0
8.06764,-2.10273,0.350003,0
8.09749,-2.01341,0.341702,0
8.12803,-1.92464,0.334378,0
8.16392,-1.83784,0.329437,0
8.19648,-1.74973,0.324095,0
8.22565,-1.66045,0.318411,0
8.2514,-1.57013,0.312366,0
8.27368,-1.47894,0.30597,0
8.26514,-1.38117,0.291292,0
8.26493,-1.28641,0.279876,0
8.27771,-1.19466,0.272962,0
8.28797,-1.10271,0.266019,0
8.29571,-1.01061,0.259056,0
8.30092,-0.918437,0.252073,0
8.30361,-0.826289,0.245091,0
8.3038,-0.734228,0.238099,0
8.30149,-0.642344,0.231126,0
8.29671,-0.550664,0.224144,0
8.28947,-0.459316,0.217191,0
8.27978,-0.36834,0.210257,0
8.26768,-0.277822,0.203343,0
8.25318,-0.187822,0.196478,0
8.23631,-0.0983887,0.189632,0
8.21711,-0.00960938,0.182835,0
8.19559,0.0784277,0.176087,0
8.17181,0.165713,0.169378,0
8.14578,0.252148,0.162738,0
8.11756,0.337686,0.156165,0
8.09292,0.423779,0.151185,0
8.06648,0.509229,0.14639,0
8.03824,0.594033,0.141722,0
8.00822,0.678145,0.137239,0
7.97645,0.761504,0.132933,0
7.94418,0.8446,0.129124,0
7.91664,0.929688,0.127259,0
7.88676,1.01409,0.125404,0
7.85233,1.09668,0.122972,0
7.81621,1.17864,0.120716,0
7.77842,1.25995,0.118655,0
7.73895,1.34053,0.11682,0
7.69782,1.42042,0.11515,0
7.65504,1.49956,0.113675,0
7.61061,1.57791,0.112405,0
7.56454,1.65547,0.111351,0
7.51684,1.73219,0.110482,0
7.46753,1.80807,0.109798,0
7.4166,1.88306,0.109329,0
7.36407,1.95712,0.109056,0
7.30995,2.03023,0.108997,0
7.25425,2.10238,0.109134,0
7.19698,2.17353,0.109486,0
7.13816,2.24362,0.110032,0
7.07778,2.31267,0.110794,0
7.01474,2.37937,0.111361,0
6.93926,2.43206,0.10806,0
6.86296,2.48306,0.104993,0
6.78587,2.53241,0.102122,0
6.70802,2.58003,0.0995344,0
6.12566,-4.13675,0.542903,0
6.21585,-4.10395,0.540833,0
6.3055,-4.06906,0.538704,0
6.39453,-4.03206,0.536517,0
6.48295,-3.99298,0.5343,0
6.57066,-3.95178,0.532025,0
6.65359,-3.9025,0.527249,0
6.73381,-3.84904,0.521497,0
6.81252,-3.79341,0.51557,0
6.88967,-3.73568,0.509486,0
6.96518,-3.67588,0.503236,0
7.03901,-3.61405,0.496829,0
7.11109,-3.55024,0.490267,0
7.18136,-3.48453,0.483558,0
7.24977,-3.41697,0.476702,0
7.31626,-3.34762,0.46973,0
7.3808,-3.27653,0.462611,0
7.44332,-3.20376,0.455384,0
7.50379,-3.12939,0.44804,0
7.56215,-3.05348,0.440579,0
7.61839,-2.97605,0.433001,0
7.67244,-2.89724,0.425345,0
7.72428,-2.81708,0.417591,0
7.77387,-2.73565,0.409759,0
7.82119,-2.65301,0.401839,0
7.8662,-2.56925,0.393861,0
7.90888,-2.4844,0.385804,0
7.94921,-2.39857,0.377698,0
7.98717,-2.31184,0.369534,0
8.02274,-2.22421,0.361321,0
8.0559,-2.13586,0.353089,0
8.08665,-2.04679,0.344808,0
8.11497,-1.95708,0.336507,0
8.18279,-0.48291,0.218646,0
8.17418,-0.394385,0.211907,0
8.16322,-0.30627,0.205179,0
8.14994,-0.218623,0.19848,0
8.13436,-0.131533,0.19182,0
8.11671,-0.045,0.185257,0
8.10042,0.0414258,0.17973,0
