45.9365,-37.9428,0.146331,0
46.0213,-37.9071,0.141839,0
46.1053,-37.8696,0.137405,0
46.1883,-37.8303,0.13306,0
46.2703,-37.7893,0.128792,0
46.3514,-37.7464,0.124583,0
46.4313,-37.7018,0.120452,0
46.5101,-37.6555,0.1164,0
46.5878,-37.6075,0.112435,0
46.6645,-37.5578,0.108548,0
46.7398,-37.5065,0.104749,0
46.8138,-37.4537,0.101029,0
46.8868,-37.3992,0.0973957,0
46.9583,-37.3432,0.0938508,0
47.0287,-37.2857,0.0903938,0
47.0976,-37.2267,0.0870441,0
47.1652,-37.1663,0.0837629,0
47.2313,-37.1045,0.0805793,0
47.296,-37.0413,0.0775031,0
47.3593,-36.9767,0.0745148,0
47.4211,-36.9108,0.0716145,0
47.4814,-36.8436,0.0688215,0
47.5402,-36.7752,0.0661262,0
47.5973,-36.7056,0.0635285,0
47.653,-36.6346,0.0609992,0
47.7062,-36.5621,0.0583234,0
47.7578,-36.4884,0.0557551,0
47.8078,-36.4137,0.0533039,0
47.8562,-36.338,0.0509699,0
47.9028,-36.2614,0.0487434,0
47.9477,-36.1839,0.046634,0
47.991,-36.1054,0.044632,0
48.0329,-36.0263,0.0428449,0
48.0734,-35.9465,0.0412922,0
48.1121,-35.8659,0.0398664,0
48.1492,-35.7845,0.038548,0
48.1845,-35.7024,0.0373566,0
48.218,-35.6196,0.0362824,0
48.2498,-35.5361,0.0353352,0
48.2797,-35.452,0.0344953,0
48.3079,-35.3673,0.0337922,0
48.3342,-35.282,0.0332063,0
48.3588,-35.1961,0.0327375,0
48.3815,-35.1098,0.0323957,0
48.4024,-35.023,0.0321711,0
48.4214,-34.9358,0.0320734,0
48.4386,-34.8482,0.032093,0
48.4539,-34.7602,0.0322297,0
48.4673,-34.6719,0.0325031,0
48.4788,-34.5834,0.0329035,0
48.4885,-34.4945,0.0334113,0
48.4963,-34.4055,0.0340363,0
42.4445,-37.617,0.307435,0
42.5238,-37.6677,0.304612,0
42.6041,-37.7165,0.301761,0
42.6856,-37.7635,0.29889,0
42.7693,-37.8064,0.295159,0
42.8543,-37.8467,0.291155,0
42.9402,-37.8849,0.287103,0
43.0268,-37.9211,0.28304,0
43.1142,-37.9553,0.278948,0
43.2024,-37.9874,0.274847,0
43.2913,-38.0175,0.270726,0
43.3809,-38.0455,0.266575,0
43.4709,-38.0713,0.262435,0
43.5615,-38.0951,0.258265,0
43.6527,-38.1168,0.254095,0
43.7441,-38.1363,0.249915,0
43.8361,-38.1538,0.245745,0
43.9284,-38.169,0.241556,0
44.0209,-38.1822,0.237386,0
44.1137,-38.1932,0.233206,0
44.2066,-38.202,0.229027,0
44.2998,-38.2087,0.224866,0
44.393,-38.2132,0.220706,0
44.4862,-38.2157,0.216566,0
44.5794,-38.2159,0.212435,0
44.6726,-38.214,0.208333,0
44.7656,-38.21,0.204232,0
44.8585,-38.2038,0.200159,0
44.9512,-38.1955,0.196107,0
45.0436,-38.185,0.192073,0
45.1359,-38.1725,0.188079,0
45.2273,-38.1563,0.183655,0
45.3181,-38.1369,0.17889,0
45.4084,-38.1154,0.174173,0
45.4981,-38.092,0.169505,0
45.5871,-38.0665,0.164876,0
45.6754,-38.039,0.160286,0
45.7628,-38.009,0.155579,0
45.8494,-37.9771,0.15096,0
45.9352,-37.9433,0.146409,0
46.0201,-37.9077,0.141907,0
46.104,-37.8702,0.137484,0
46.1871,-37.831,0.133128,0
46.2691,-37.7899,0.128851,0
46.3501,-37.747,0.124642,0
46.4301,-37.7025,0.120521,0
46.509,-37.6562,0.116468,0
46.5867,-37.6082,0.112493,0
46.6632,-37.5586,0.108607,0
46.7386,-37.5073,0.104808,0
46.8127,-37.4545,0.101087,0
46.8856,-37.4,0.0974445,0
46.9573,-37.3441,0.0939094,0
47.0276,-37.2866,0.0904523,0
47.0965,-37.2277,0.0870832,0
47.1641,-37.1673,0.0838117,0
47.2302,-37.1054,0.0806281,0
47.295,-37.0422,0.0775422,0
47.3584,-36.9777,0.0745539,0
47.4202,-36.9118,0.0716633,0
47.4805,-36.8447,0.0688605,0
47.5392,-36.7763,0.0661652,0
47.5965,-36.7066,0.0635773,0
47.6521,-36.6357,0.061048,0
47.7053,-36.5632,0.0583625,0
47.757,-36.4895,0.0558039,0
47.807,-36.4149,0.053343,0
47.8554,-36.3392,0.051009,0
47.902,-36.2626,0.0487727,0
47.947,-36.1851,0.0466633,0
47.9904,-36.1066,0.0446711,0
48.0323,-36.0275,0.0428742,0
48.0727,-35.9477,0.0413117,0
48.1116,-35.8671,0.0398859,0
48.1486,-35.7858,0.0385676,0
48.184,-35.7037,0.0373762,0
48.2175,-35.6209,0.036302,0
48.2492,-35.5374,0.0353449,0
48.2793,-35.4533,0.0345148,0
48.3074,-35.3686,0.033802,0
48.3338,-35.2833,0.0332063,0
48.3584,-35.1975,0.0327473,0
48.3811,-35.1111,0.0323957,0
48.402,-35.0243,0.0321711,0
48.4211,-34.9371,0.0320734,0
48.4383,-34.8495,0.032093,0
48.4537,-34.7616,0.0322395,0
48.4671,-34.6733,0.0324934,0
48.4787,-34.5847,0.032884,0
48.4884,-34.4959,0.0334016,0
48.4962,-34.4069,0.0340363,0
42.4434,-37.6162,0.307474,0
42.5226,-37.6669,0.304652,0
42.6029,-37.7158,0.3018,0
46.0718,-37.782,0.14015,0
46.1529,-37.7437,0.135902,0
46.233,-37.7036,0.131722,0
46.3121,-37.6618,0.127611,0
46.3902,-37.6183,0.123577,0
46.4673,-37.5731,0.119622,0
46.5432,-37.5263,0.115755,0
46.618,-37.4779,0.111956,0
46.6916,-37.4279,0.108236,0
46.764,-37.3763,0.104603,0
46.8352,-37.3231,0.101048,0
46.9052,-37.2685,0.097591,0
46.9739,-37.2124,0.0942121,0
47.0412,-37.1548,0.0909211,0
47.1073,-37.0958,0.0877277,0
47.172,-37.0354,0.0846125,0
47.2352,-36.9737,0.0815949,0
47.297,-36.9107,0.078675,0
47.3575,-36.8463,0.0758527,0
47.4163,-36.7808,0.0731281,0
47.4738,-36.7139,0.0704816,0
47.5298,-36.6459,0.0679523,0
47.5841,-36.5767,0.0655012,0
47.637,-36.5064,0.0631672,0
47.6876,-36.4346,0.060716,0
47.7365,-36.3616,0.0583137,0
47.7837,-36.2877,0.0560188,0
47.8294,-36.2128,0.0538508,0
47.8734,-36.137,0.0517805,0
47.9157,-36.0604,0.0498371,0
47.957,-35.9832,0.0481965,0
47.9966,-35.9052,0.0466828,0
48.0345,-35.8265,0.0452766,0
48.0706,-35.7469,0.0439973,0
48.1051,-35.6667,0.0428254,0
48.1379,-35.5857,0.0417805,0
48.169,-35.5041,0.040843,0
48.1982,-35.4218,0.0400422,0
48.2257,-35.339,0.0393391,0
48.2514,-35.2556,0.0387727,0
48.2754,-35.1717,0.0383234,0
48.2976,-35.0873,0.0379816,0
48.318,-35.0024,0.0377668,0
48.3366,-34.9172,0.0376691,0
48.3533,-34.8315,0.0376984,0
48.3682,-34.7455,0.0378352,0
48.3812,-34.6592,0.0381086,0
48.3926,-34.5726,0.0384895,0
48.402,-34.4858,0.0389875,0
42.498,-37.535,0.306263,0
42.5754,-37.5844,0.303509,0
42.6538,-37.632,0.300726,0
42.7339,-37.6769,0.297552,0
42.8159,-37.7181,0.293655,0
42.8988,-37.7573,0.289749,0
42.9825,-37.7946,0.285804,0
43.0671,-37.83,0.281829,0
43.1524,-37.8633,0.277845,0
43.2384,-37.8947,0.273841,0
43.3252,-37.924,0.269818,0
43.4124,-37.9513,0.265775,0
43.5003,-37.9766,0.261732,0
43.5887,-37.9998,0.257669,0
43.6777,-38.0209,0.253597,0
43.767,-38.04,0.249525,0
43.8566,-38.057,0.245443,0
43.9467,-38.0719,0.241361,0
44.037,-38.0848,0.237288,0
44.1275,-38.0955,0.233206,0
44.2182,-38.1041,0.229134,0
44.3091,-38.1107,0.225071,0
44.4,-38.1151,0.221019,0
44.4909,-38.1175,0.216986,0
44.5819,-38.1177,0.212952,0
44.6728,-38.1159,0.208939,0
44.7636,-38.1119,0.204935,0
44.8543,-38.1059,0.20097,0
44.9447,-38.0978,0.197005,0
45.0349,-38.0877,0.193079,0
45.1248,-38.0754,0.189183,0
45.2141,-38.0601,0.184974,0
45.3028,-38.0412,0.180316,0
45.391,-38.0203,0.175716,0
45.4785,-37.9975,0.171155,0
45.5655,-37.9727,0.166634,0
45.6516,-37.9459,0.162171,0
45.7371,-37.9173,0.157757,0
45.8219,-37.8867,0.153392,0
45.9056,-37.8538,0.148929,0
45.9885,-37.8191,0.144544,0
46.0705,-37.7826,0.140218,0
46.1516,-37.7443,0.13597,0
46.2318,-37.7042,0.13178,0
46.3109,-37.6625,0.127669,0
46.3891,-37.619,0.123646,0
46.466,-37.5739,0.119691,0
46.542,-37.5271,0.115804,0
46.6169,-37.4787,0.112005,0
46.6905,-37.4286,0.108284,0
46.763,-37.377,0.104652,0
46.8342,-37.324,0.101107,0
46.9042,-37.2693,0.0976301,0
46.9729,-37.2132,0.0942609,0
47.0402,-37.1557,0.0909797,0
47.1063,-37.0967,0.0877766,0
47.1709,-37.0364,0.0846613,0
47.2343,-36.9747,0.0816438,0
47.2961,-36.9117,0.0787238,0
47.3565,-36.8473,0.0758918,0
47.4155,-36.7817,0.0731574,0
47.4729,-36.715,0.0705207,0
47.5288,-36.647,0.0679816,0
47.5833,-36.5778,0.06555,0
47.6361,-36.5075,0.0631965,0
47.6868,-36.4357,0.0607453,0
47.7357,-36.3627,0.058343,0
47.783,-36.2888,0.0560578,0
47.8287,-36.214,0.0538703,0
47.8727,-36.1382,0.0518098,0
47.915,-36.0616,0.0498664,0
47.9563,-35.9844,0.0482258,0
47.9959,-35.9064,0.0467023,0
48.0338,-35.8277,0.0452961,0
48.0701,-35.7481,0.044007,0
48.1046,-35.6679,0.0428449,0
48.1374,-35.5869,0.0417902,0
48.1685,-35.5053,0.0408625,0
48.1977,-35.4231,0.0400422,0
48.2254,-35.3403,0.0393586,0
48.2511,-35.2569,0.0387824,0
48.2751,-35.173,0.0383234,0
48.2973,-35.0886,0.0379914,0
48.3177,-35.0037,0.0377668,0
48.3363,-34.9185,0.0376691,0
48.353,-34.8328,0.0376984,0
48.368,-34.7468,0.0378352,0
48.3811,-34.6605,0.0380988,0
48.3924,-34.5739,0.0384797,0
48.4019,-34.4871,0.0389777,0
48.4094,-34.4001,0.0396027,0
42.4969,-37.5343,0.306302,0
42.5741,-37.5837,0.303548,0
42.6527,-37.6313,0.300765,0
42.7327,-37.6762,0.297601,0
42.8146,-37.7175,0.293724,0
42.8976,-37.7567,0.289808,0
42.9813,-37.7941,0.285863,0
43.0659,-37.8294,0.281898,0
43.1511,-37.8628,0.277904,0
43.2371,-37.8942,0.2739,0
43.3238,-37.9236,0.269876,0
43.4112,-37.9509,0.265843,0
43.499,-37.9762,0.26179,0
43.5874,-37.9994,0.257728,0
43.6763,-38.0206,0.253655,0
43.7655,-38.0397,0.249583,0
43.8552,-38.0568,0.245511,0
43.9452,-38.0717,0.241429,0
44.0355,-38.0846,0.237347,0
44.1261,-38.0954,0.233275,0
44.2168,-38.104,0.229193,0
44.3077,-38.1106,0.22514,0
44.3986,-38.1151,0.221077,0
44.4895,-38.1175,0.217034,0
44.5805,-38.1177,0.213011,0
44.6715,-38.1159,0.208997,0
44.7623,-38.112,0.205003,0
44.8529,-38.106,0.201029,0
44.9434,-38.098,0.197073,0
45.0335,-38.0878,0.193138,0
45.1234,-38.0756,0.189241,0
45.2128,-38.0603,0.185032,0
45.3016,-38.0415,0.180384,0
45.3896,-38.0206,0.175784,0
45.4772,-37.9978,0.171214,0
45.5641,-37.9731,0.166702,0
45.6503,-37.9464,0.162249,0
45.7359,-37.9177,0.157816,0
45.8206,-37.8872,0.15346,0
45.9044,-37.8543,0.148997,0
45.9873,-37.8196,0.144603,0
46.0693,-37.7831,0.140277,0
46.1505,-37.7449,0.136029,0
46.2306,-37.7049,0.131849,0
46.3098,-37.6631,0.127738,0
46.3879,-37.6197,0.123704,0
46.4649,-37.5746,0.119749,0
46.5409,-37.5278,0.115863,0
46.6157,-37.4794,0.112064,0
46.6894,-37.4294,0.108353,0
46.7618,-37.3778,0.1047,0
46.833,-37.3248,0.101155,0
46.9031,-37.2702,0.0976887,0
46.9718,-37.2141,0.0943195,0
47.0392,-37.1566,0.0910188,0
47.1052,-37.0976,0.0878156,0
47.1699,-37.0373,0.0847102,0
47.2333,-36.9756,0.0816926,0
47.2952,-36.9126,0.0787629,0
47.3555,-36.8483,0.0759406,0
47.4146,-36.7828,0.0732063,0
47.472,-36.716,0.0705598,0
47.528,-36.648,0.0680207,0
47.5824,-36.5789,0.0655793,0
47.6353,-36.5086,0.0632356,0
47.686,-36.4368,0.0607941,0
47.735,-36.3639,0.058382,0
47.7823,-36.29,0.0560969,0
47.828,-36.2151,0.0539094,0
47.872,-36.1394,0.0518488,0
47.9145,-36.0627,0.0498957,0
47.9556,-35.9856,0.0482356,0
47.9953,-35.9076,0.0467219,0
48.0333,-35.8289,0.0453254,0
48.0696,-35.7494,0.0440363,0
48.1041,-35.6691,0.0428645,0
48.1369,-35.5882,0.0418,0
48.168,-35.5066,0.0408723,0
48.1973,-35.4244,0.0400617,0
48.2249,-35.3415,0.0393586,0
48.2507,-35.2582,0.0387922,0
48.2748,-35.1743,0.0383234,0
48.297,-35.0899,0.0379914,0
48.3174,-35.005,0.0377766,0
48.336,-34.9198,0.0376691,0
48.3527,-34.8341,0.0376887,0
48.3678,-34.7481,0.0378352,0
48.3809,-34.6618,0.0380891,0
48.3923,-34.5752,0.0384699,0
48.4017,-34.4884,0.0389777,0
48.4093,-34.4014,0.0395832,0
42.4957,-37.5335,0.306341,0
42.573,-37.5829,0.303587,0
42.6515,-37.6306,0.300804,0
46.0385,-37.6986,0.142845,0
46.1177,-37.6612,0.138685,0
46.1961,-37.6221,0.134603,0
46.2734,-37.5814,0.130579,0
46.3497,-37.539,0.126644,0
46.425,-37.4949,0.122767,0
46.4992,-37.4493,0.118978,0
46.5723,-37.402,0.115267,0
46.6444,-37.3532,0.111634,0
46.7152,-37.3028,0.10807,0
46.7848,-37.251,0.104603,0
46.8532,-37.1977,0.101214,0
46.9204,-37.1429,0.0979133,0
46.9863,-37.0867,0.0947004,0
47.0509,-37.0291,0.0915754,0
47.1141,-36.9702,0.0885285,0
47.1759,-36.9099,0.0855793,0
47.2364,-36.8483,0.0827277,0
47.2955,-36.7855,0.0799641,0
47.3531,-36.7214,0.0772785,0
47.4093,-36.6562,0.0747004,0
47.464,-36.5897,0.0722102,0
47.5172,-36.5221,0.0698371,0
47.5689,-36.4535,0.0675422,0
47.619,-36.3837,0.0653547,0
47.6673,-36.3127,0.0631477,0
47.7135,-36.2404,0.0609113,0
47.7582,-36.1673,0.0587824,0
47.8013,-36.0932,0.0567512,0
47.843,-36.0185,0.0549543,0
47.8834,-35.943,0.0533527,0
47.9221,-35.8668,0.0518684,0
47.9592,-35.7898,0.0504914,0
47.9946,-35.712,0.0492414,0
48.0284,-35.6335,0.0480988,0
48.0605,-35.5543,0.0470734,0
48.0909,-35.4745,0.0461652,0
48.1195,-35.3941,0.0453645,0
48.1464,-35.3131,0.0446809,0
48.1716,-35.2315,0.0441242,0
48.1951,-35.1495,0.0436848,0
48.2168,-35.0669,0.0433527,0
48.2366,-34.984,0.0431477,0
48.2548,-34.9006,0.04305,0
48.2712,-34.8168,0.0430793,0
48.2858,-34.7327,0.043216,0
48.2986,-34.6483,0.0434797,0
48.3096,-34.5636,0.0438508,0
48.3187,-34.4787,0.0443488,0
42.548,-37.4558,0.305189,0
42.6236,-37.5039,0.302493,0
42.7002,-37.5504,0.299769,0
42.7792,-37.5927,0.296077,0
42.8592,-37.6329,0.292278,0
42.9402,-37.6713,0.28846,0
43.0219,-37.7077,0.284603,0
43.1044,-37.7422,0.280736,0
43.1876,-37.7748,0.276839,0
43.2716,-37.8055,0.272933,0
43.3562,-37.8341,0.269007,0
43.4414,-37.8608,0.265062,0
43.5272,-37.8855,0.261116,0
43.6135,-37.9082,0.257152,0
43.7002,-37.9289,0.253177,0
43.7873,-37.9476,0.249202,0
43.875,-37.9642,0.245218,0
43.9628,-37.9788,0.241243,0
44.0509,-37.9914,0.237259,0
44.1393,-38.0019,0.233284,0
44.2279,-38.0104,0.2293,0
44.3166,-38.0168,0.225335,0
44.4053,-38.0212,0.22138,0
44.4941,-38.0235,0.217425,0
44.583,-38.0238,0.213499,0
44.6717,-38.022,0.209583,0
44.7604,-38.0182,0.205677,0
44.8489,-38.0124,0.2018,0
44.9372,-38.0045,0.197933,0
45.0252,-37.9946,0.194105,0
45.113,-37.9827,0.190286,0
45.2003,-37.9682,0.186292,0
45.287,-37.9498,0.181751,0
45.373,-37.9296,0.177259,0
45.4584,-37.9073,0.172796,0
45.5434,-37.8832,0.168382,0
45.6276,-37.8572,0.164027,0
45.711,-37.8293,0.15971,0
45.7938,-37.7996,0.155452,0
45.8759,-37.768,0.151243,0
45.957,-37.7346,0.147093,0
46.0372,-37.6991,0.142904,0
46.1165,-37.6618,0.138753,0
46.1948,-37.6228,0.134661,0
46.2722,-37.582,0.130648,0
46.3486,-37.5396,0.126702,0
46.4238,-37.4956,0.122835,0
46.4981,-37.45,0.119036,0
46.5712,-37.4027,0.115325,0
46.6432,-37.3539,0.111683,0
46.7141,-37.3036,0.108138,0
46.7837,-37.2518,0.104652,0
46.8522,-37.1985,0.101273,0
46.9194,-37.1437,0.0979621,0
46.9852,-37.0876,0.0947492,0
47.0498,-37.03,0.0916145,0
47.1131,-36.9711,0.0885773,0
47.175,-36.9108,0.0856281,0
47.2355,-36.8493,0.082757,0
47.2946,-36.7865,0.0800031,0
47.3523,-36.7224,0.0773176,0
47.4084,-36.6572,0.0747492,0
47.4632,-36.5907,0.072259,0
47.5164,-36.5232,0.0698664,0
47.568,-36.4545,0.0675813,0
47.6183,-36.3848,0.0653938,0
47.6665,-36.3138,0.0631867,0
47.7128,-36.2416,0.0609406,0
47.7575,-36.1684,0.0588117,0
47.8006,-36.0943,0.0567902,0
47.8423,-36.0196,0.0549836,0
47.8827,-35.9442,0.053382,0
47.9216,-35.8679,0.0518879,0
47.9587,-35.7909,0.0505109,0
47.9941,-35.7132,0.0492512,0
48.0279,-35.6347,0.0481086,0
48.06,-35.5556,0.047093,0
48.0904,-35.4757,0.046175,0
48.1191,-35.3953,0.045384,0
48.146,-35.3143,0.0447004,0
48.1712,-35.2328,0.044134,0
48.1948,-35.1507,0.0436848,0
48.2165,-35.0682,0.0433625,0
48.2363,-34.9852,0.0431477,0
48.2545,-34.9018,0.04305,0
48.2709,-34.8181,0.0430793,0
48.2855,-34.734,0.043216,0
48.2984,-34.6496,0.0434699,0
48.3095,-34.5649,0.043841,0
48.3186,-34.48,0.0443391,0
48.326,-34.3948,0.0449445,0
42.547,-37.455,0.305218,0
42.6224,-37.5032,0.302532,0
42.6991,-37.5497,0.299808,0
42.778,-37.592,0.296136,0
42.858,-37.6323,0.292337,0
42.9388,-37.6707,0.288519,0
43.0206,-37.7072,0.284661,0
43.103,-37.7417,0.280794,0
43.1863,-37.7743,0.276907,0
43.2703,-37.805,0.273001,0
43.3549,-37.8337,0.269066,0
43.4401,-37.8604,0.26513,0
43.5259,-37.8852,0.261175,0
43.6122,-37.9079,0.25722,0
43.6989,-37.9286,0.253245,0
43.7861,-37.9473,0.249261,0
43.8736,-37.964,0.245277,0
43.9615,-37.9786,0.241292,0
44.0496,-37.9912,0.237318,0
44.138,-38.0017,0.233343,0
44.2266,-38.0103,0.229359,0
44.3152,-38.0167,0.225394,0
44.404,-38.0211,0.221439,0
44.4928,-38.0235,0.217493,0
44.5816,-38.0238,0.213558,0
44.6703,-38.0221,0.209642,0
44.759,-38.0183,0.205736,0
44.8475,-38.0125,0.201859,0
44.9358,-38.0047,0.198001,0
45.0239,-37.9948,0.194154,0
45.1116,-37.9829,0.190345,0
45.199,-37.9684,0.186361,0
45.2855,-37.9501,0.18182,0
45.3716,-37.9299,0.177318,0
45.4572,-37.9077,0.172874,0
45.5421,-37.8836,0.16845,0
45.6263,-37.8576,0.164095,0
45.7098,-37.8297,0.159779,0
45.7926,-37.8,0.155521,0
45.8745,-37.7685,0.151312,0
45.9558,-37.7351,0.147152,0
46.036,-37.6997,0.142972,0
46.1153,-37.6624,0.138812,0
46.1937,-37.6234,0.13472,0
46.271,-37.5827,0.130706,0
46.3473,-37.5403,0.126761,0
46.4227,-37.4963,0.122884,0
46.497,-37.4507,0.119095,0
46.5702,-37.4035,0.115374,0
46.6422,-37.3547,0.111741,0
46.713,-37.3044,0.108187,0
46.7827,-37.2526,0.1047,0
46.8512,-37.1993,0.101312,0
46.9184,-37.1446,0.0980207,0
46.9842,-37.0884,0.0947981,0
47.0489,-37.0309,0.0916633,0
47.1121,-36.972,0.0886262,0
47.1741,-36.9118,0.0856672,0
47.2345,-36.8502,0.0828156,0
47.2937,-36.7874,0.0800422,0
47.3513,-36.7234,0.0773664,0
47.4076,-36.6582,0.0747785,0
47.4623,-36.5918,0.072298,0
47.5155,-36.5242,0.0699055,0
47.5673,-36.4556,0.0676105,0
47.6175,-36.3858,0.0654133,0
47.6659,-36.3149,0.0632258,0
47.7121,-36.2427,0.0609797,0
47.7569,-36.1695,0.058841,0
47.8,-36.0955,0.0568195,0
47.8417,-36.0208,0.0550031,0
47.8822,-35.9454,0.0534016,0
47.921,-35.8691,0.0519172,0
47.9581,-35.7921,0.0505402,0
47.9936,-35.7144,0.0492805,0
48.0274,-35.6359,0.0481281,0
48.0595,-35.5568,0.0471027,0
48.0899,-35.477,0.0461848,0
48.1187,-35.3966,0.0453938,0
48.1456,-35.3156,0.0447102,0
48.1709,-35.234,0.044134,0
48.1944,-35.152,0.0436945,0
48.2161,-35.0695,0.0433625,0
48.2361,-34.9865,0.0431379,0
48.2543,-34.9031,0.04305,0
48.2707,-34.8193,0.0430695,0
48.2854,-34.7353,0.0432063,0
48.2982,-34.6508,0.0434602,0
48.3092,-34.5662,0.0438313,0
48.3184,-34.4813,0.0443293,0
48.3259,-34.3961,0.0449348,0
42.5458,-37.4542,0.305257,0
42.6213,-37.5025,0.302571,0
42.6979,-37.549,0.299847,0
46.0062,-37.6178,0.145189,0
46.0838,-37.5817,0.141243,0
46.1605,-37.544,0.137357,0
46.2362,-37.5042,0.133431,0
46.3108,-37.4629,0.129573,0
46.3845,-37.4199,0.125794,0
46.4571,-37.3753,0.122083,0
46.5287,-37.3292,0.11845,0
46.5991,-37.2815,0.114896,0
46.6683,-37.2324,0.111409,0
46.7364,-37.1818,0.108021,0
46.8033,-37.1297,0.1047,0
46.8691,-37.0762,0.101468,0
46.9334,-37.0213,0.0983332,0
46.9966,-36.9651,0.0952668,0
47.0585,-36.9075,0.0922785,0
47.119,-36.8486,0.0893977,0
47.1782,-36.7885,0.0866047,0
47.236,-36.7271,0.0838898,0
47.2924,-36.6645,0.0812824,0
47.3473,-36.6007,0.0787629,0
47.4009,-36.5358,0.0763313,0
47.4529,-36.4697,0.0739875,0
47.5035,-36.4026,0.0717512,0
47.5525,-36.3344,0.0696027,0
47.6001,-36.2652,0.0675617,0
47.646,-36.195,0.0655988,0
47.6898,-36.1235,0.0635188,0
47.732,-36.0511,0.0615656,0
47.7731,-35.9782,0.0598859,0
47.8127,-35.9044,0.0583137,0
47.8506,-35.8298,0.0568586,0
47.887,-35.7545,0.0555109,0
47.9216,-35.6784,0.0542805,0
47.9547,-35.6016,0.0531672,0
47.986,-35.5242,0.0521613,0
48.0159,-35.4461,0.0512629,0
48.0438,-35.3674,0.0504914,0
48.0702,-35.2882,0.0498176,0
48.0948,-35.2084,0.0492805,0
48.1177,-35.1281,0.048841,0
48.1391,-35.0474,0.0485188,0
48.1585,-34.9662,0.0483137,0
48.1762,-34.8846,0.048216,0
48.1923,-34.8026,0.0482453,0
48.2065,-34.7204,0.0483918,0
48.219,-34.6378,0.0486457,0
48.2297,-34.5549,0.049007,0
48.2387,-34.4718,0.0494953,0
42.596,-37.3798,0.304144,0
42.6698,-37.4268,0.301517,0
42.7454,-37.4709,0.298353,0
42.8226,-37.512,0.294671,0
42.9007,-37.5514,0.29096,0
42.9797,-37.5888,0.28723,0
43.0595,-37.6245,0.28347,0
43.1401,-37.6582,0.279691,0
43.2214,-37.6901,0.275892,0
43.3034,-37.72,0.272073,0
43.3859,-37.748,0.268236,0
43.4691,-37.7742,0.264388,0
43.5529,-37.7983,0.26053,0
43.6372,-37.8205,0.256654,0
43.7219,-37.8408,0.252777,0
43.807,-37.859,0.24889,0
43.8925,-37.8753,0.245003,0
43.9783,-37.8896,0.241116,0
44.0644,-37.9019,0.23723,0
44.1507,-37.9122,0.233343,0
44.2372,-37.9205,0.229456,0
44.3237,-37.9269,0.225589,0
44.4105,-37.9312,0.221712,0
44.4973,-37.9335,0.217864,0
44.5839,-37.9338,0.214027,0
44.6706,-37.9321,0.210198,0
44.7572,-37.9284,0.20639,0
44.8436,-37.9228,0.202601,0
44.9298,-37.9151,0.198821,0
45.0159,-37.9055,0.195071,0
45.1016,-37.8939,0.191361,0
45.187,-37.8801,0.187562,0
45.2716,-37.8623,0.183138,0
45.3557,-37.8425,0.178734,0
45.4392,-37.8209,0.174378,0
45.5222,-37.7975,0.170071,0
45.6045,-37.7721,0.165804,0
45.6861,-37.745,0.161595,0
45.767,-37.716,0.157425,0
45.8471,-37.6852,0.153314,0
45.9264,-37.6527,0.149251,0
46.005,-37.6183,0.145247,0
46.0827,-37.5823,0.141292,0
46.1594,-37.5446,0.137425,0
46.2351,-37.5049,0.133489,0
46.3097,-37.4635,0.129632,0
46.3834,-37.4205,0.125853,0
46.4559,-37.376,0.122132,0
46.5275,-37.3299,0.118499,0
46.5979,-37.2823,0.114954,0
46.6672,-37.2332,0.111468,0
46.7354,-37.1825,0.10807,0
46.8023,-37.1305,0.104759,0
46.868,-37.077,0.101517,0
46.9324,-37.0221,0.0983625,0
46.9956,-36.9659,0.0953156,0
47.0576,-36.9084,0.0923273,0
47.118,-36.8495,0.0894465,0
47.1773,-36.7894,0.0866437,0
47.2351,-36.728,0.0839289,0
47.2916,-36.6654,0.0813117,0
47.3466,-36.6017,0.0787922,0
47.4001,-36.5368,0.0763605,0
47.4522,-36.4707,0.0740266,0
47.5027,-36.4036,0.0717805,0
47.5519,-36.3355,0.069632,0
47.5994,-36.2663,0.0675813,0
47.6453,-36.1961,0.0656281,0
47.6891,-36.1246,0.0635578,0
47.7313,-36.0522,0.0615852,0
47.7725,-35.9793,0.0599055,0
47.8121,-35.9055,0.0583332,0
47.8501,-35.831,0.0568879,0
47.8865,-35.7556,0.0555305,0
47.9211,-35.6796,0.0543,0
47.9542,-35.6028,0.053177,0
47.9856,-35.5254,0.0521711,0
48.0154,-35.4473,0.0512824,0
48.0434,-35.3687,0.0505012,0
48.0698,-35.2894,0.0498273,0
48.0945,-35.2096,0.0492805,0
48.1175,-35.1293,0.048841,0
48.1387,-35.0486,0.0485285,0
48.1582,-34.9674,0.0483234,0
48.1759,-34.8858,0.048216,0
48.192,-34.8039,0.0482453,0
48.2062,-34.7216,0.048382,0
48.2188,-34.639,0.0486359,0
48.2296,-34.5562,0.0489973,0
48.2385,-34.4731,0.0494855,0
48.2458,-34.3898,0.0500715,0
42.5949,-37.379,0.304183,0
42.6688,-37.4261,0.301556,0
42.7443,-37.4703,0.298402,0
42.8215,-37.5114,0.29472,0
42.8995,-37.5508,0.291019,0
42.9785,-37.5883,0.287288,0
43.0583,-37.6239,0.283529,0
43.1388,-37.6577,0.279739,0
43.2201,-37.6896,0.27595,0
43.302,-37.7196,0.272122,0
43.3847,-37.7476,0.268294,0
43.4679,-37.7738,0.264437,0
43.5516,-37.7979,0.260579,0
43.6359,-37.8202,0.256712,0
43.7205,-37.8404,0.252835,0
43.8057,-37.8587,0.248958,0
43.8912,-37.8751,0.245071,0
43.977,-37.8894,0.241175,0
44.063,-37.9017,0.237279,0
44.1494,-37.9121,0.233402,0
44.2359,-37.9204,0.229525,0
44.3224,-37.9268,0.225648,0
44.4091,-37.9311,0.22178,0
44.4959,-37.9335,0.217933,0
44.5826,-37.9338,0.214085,0
44.6693,-37.9322,0.210257,0
44.7559,-37.9285,0.206439,0
44.8423,-37.9229,0.20265,0
44.9286,-37.9153,0.19888,0
45.0146,-37.9057,0.19514,0
45.1003,-37.8941,0.191409,0
45.1857,-37.8803,0.18763,0
45.2703,-37.8626,0.183196,0
45.3544,-37.8429,0.178802,0
45.438,-37.8213,0.174446,0
45.5209,-37.7978,0.17013,0
45.6032,-37.7725,0.165872,0
45.6848,-37.7454,0.161654,0
45.7658,-37.7164,0.157484,0
45.8459,-37.6857,0.153372,0
45.9252,-37.6532,0.14932,0
46.0038,-37.6189,0.145316,0
46.0815,-37.5829,0.141361,0
46.1582,-37.5452,0.137474,0
46.2339,-37.5055,0.133548,0
46.3085,-37.4641,0.129691,0
46.3822,-37.4212,0.125902,0
46.4549,-37.3767,0.122191,0
46.5265,-37.3306,0.118558,0
46.5969,-37.283,0.115003,0
46.6662,-37.2339,0.111527,0
46.7343,-37.1833,0.108118,0
46.8013,-37.1313,0.104808,0
46.867,-37.0778,0.101566,0
46.9316,-37.023,0.0984211,0
46.9948,-36.9668,0.0953547,0
47.0566,-36.9093,0.0923762,0
47.1172,-36.8504,0.0894855,0
47.1764,-36.7903,0.0866828,0
47.2343,-36.729,0.0839777,0
47.2907,-36.6664,0.0813605,0
47.3457,-36.6027,0.0788312,0
47.3992,-36.5378,0.0763996,0
47.4513,-36.4718,0.0740656,0
47.502,-36.4047,0.0718195,0
47.5511,-36.3365,0.0696711,0
47.5987,-36.2674,0.0676105,0
47.6447,-36.1972,0.0656574,0
47.6884,-36.1257,0.0635773,0
47.7308,-36.0533,0.0616047,0
47.772,-35.9804,0.0599348,0
47.8115,-35.9067,0.0583625,0
47.8495,-35.8321,0.0568977,0
47.8859,-35.7568,0.0555598,0
47.9206,-35.6808,0.0543195,0
47.9537,-35.604,0.0531965,0
47.9852,-35.5266,0.0521809,0
48.0149,-35.4485,0.0512922,0
48.043,-35.3699,0.0505109,0
48.0695,-35.2906,0.0498371,0
48.0941,-35.2109,0.0492902,0
48.1171,-35.1306,0.0488508,0
48.1384,-35.0499,0.0485285,0
48.1579,-34.9687,0.0483137,0
48.1758,-34.8871,0.0482258,0
48.1918,-34.8052,0.0482453,0
48.206,-34.7229,0.048382,0
48.2187,-34.6403,0.0486262,0
48.2295,-34.5574,0.0489973,0
48.2384,-34.4744,0.0494758,0
48.2457,-34.3911,0.0500715,0
42.5938,-37.3783,0.304222,0
42.6676,-37.4254,0.301595,0
42.743,-37.4696,0.29845,0
45.9751,-37.5401,0.147347,0
46.051,-37.5049,0.143489,0
46.126,-37.468,0.139691,0
46.2002,-37.4295,0.13595,0
46.2734,-37.3894,0.132269,0
46.3455,-37.3477,0.128655,0
46.4166,-37.3043,0.125062,0
46.4866,-37.2592,0.121507,0
46.5555,-37.2127,0.11803,0
46.6233,-37.1647,0.114622,0
46.6899,-37.1152,0.111292,0
46.7553,-37.0644,0.10805,0
46.8197,-37.0121,0.104886,0
46.8827,-36.9585,0.1018,0
46.9445,-36.9035,0.0988117,0
47.0051,-36.8473,0.0958918,0
47.0643,-36.7897,0.0930695,0
47.1223,-36.7309,0.0903352,0
47.1788,-36.6709,0.0876789,0
47.2341,-36.6097,0.0851203,0
47.2879,-36.5474,0.0826496,0
47.3402,-36.4839,0.0802668,0
47.3912,-36.4193,0.0779816,0
47.4407,-36.3537,0.0757844,0
47.4888,-36.2871,0.0736945,0
47.5352,-36.2194,0.0716828,0
47.5802,-36.1508,0.0697687,0
47.6237,-36.0812,0.0679523,0
47.6657,-36.0108,0.0662629,0
47.7059,-35.9394,0.0646223,0
47.7447,-35.8672,0.0630891,0
47.7819,-35.7943,0.0616633,0
47.8174,-35.7205,0.0603449,0
47.8514,-35.6461,0.059134,0
47.8837,-35.571,0.0580402,0
47.9145,-35.4952,0.0570539,0
47.9436,-35.4188,0.0561848,0
47.971,-35.3418,0.0554133,0
47.9968,-35.2642,0.0547688,0
48.0209,-35.1862,0.0542316,0
48.0434,-35.1076,0.053802,0
48.0641,-35.0285,0.0534895,0
48.0832,-34.9491,0.0532941,0
48.1006,-34.8692,0.0532063,0
48.1162,-34.789,0.053216,0
48.1302,-34.7085,0.0533625,0
48.1424,-34.6276,0.0536066,0
48.153,-34.5466,0.0539777,0
48.1617,-34.4653,0.0544465,0
42.642,-37.3069,0.303148,0
42.7143,-37.3525,0.300462,0
42.7888,-37.3945,0.296907,0
42.8642,-37.4347,0.293314,0
42.9405,-37.4732,0.2897,0
43.0177,-37.5098,0.286048,0
43.0956,-37.5447,0.282376,0
43.1743,-37.5777,0.278685,0
43.2537,-37.6088,0.274974,0
43.3337,-37.6381,0.271234,0
43.4145,-37.6655,0.267493,0
43.4957,-37.6911,0.263734,0
43.5776,-37.7147,0.259954,0
43.6598,-37.7364,0.256185,0
43.7427,-37.7562,0.252396,0
43.8259,-37.7741,0.248597,0
43.9093,-37.7901,0.244798,0
43.9931,-37.8041,0.240999,0
44.0773,-37.8161,0.2372,0
44.1616,-37.8262,0.233402,0
44.246,-37.8344,0.229612,0
44.3307,-37.8406,0.225833,0
44.4153,-37.8449,0.222054,0
44.5001,-37.8471,0.218284,0
44.5848,-37.8475,0.214525,0
44.6696,-37.8459,0.210784,0
44.7542,-37.8423,0.207064,0
44.8386,-37.8368,0.203362,0
44.9229,-37.8294,0.199681,0
45.007,-37.82,0.196019,0
45.0908,-37.8087,0.192376,0
45.1742,-37.7955,0.188763,0
45.257,-37.7783,0.184456,0
45.3391,-37.7591,0.180159,0
45.4208,-37.738,0.175892,0
45.5019,-37.7152,0.171683,0
45.5823,-37.6905,0.167513,0
45.6621,-37.664,0.163392,0
45.7412,-37.6358,0.15932,0
45.8196,-37.6058,0.155296,0
45.8972,-37.574,0.151331,0
45.9739,-37.5406,0.147405,0
46.0498,-37.5054,0.143548,0
46.1249,-37.4686,0.139739,0
46.199,-37.4301,0.136009,0
46.2722,-37.39,0.132327,0
46.3444,-37.3483,0.128704,0
46.4155,-37.3049,0.125111,0
46.4855,-37.2599,0.121556,0
46.5545,-37.2134,0.118079,0
46.6222,-37.1654,0.114671,0
46.6889,-37.116,0.111351,0
46.7544,-37.0652,0.108099,0
46.8187,-37.0129,0.104935,0
46.8818,-36.9593,0.101849,0
46.9436,-36.9044,0.0988605,0
47.0041,-36.8481,0.0959406,0
47.0634,-36.7906,0.0931086,0
47.1214,-36.7318,0.0903742,0
47.178,-36.6718,0.087718,0
47.2332,-36.6107,0.0851594,0
47.287,-36.5483,0.0826887,0
47.3395,-36.4849,0.0803059,0
47.3904,-36.4203,0.0780207,0
47.4399,-36.3547,0.0758234,0
47.488,-36.2881,0.0737141,0
47.5345,-36.2204,0.0717121,0
47.5795,-36.1518,0.0698078,0
47.623,-36.0823,0.0679816,0
47.6651,-36.0119,0.0662922,0
47.7053,-35.9405,0.0646516,0
47.7441,-35.8683,0.0631086,0
47.7812,-35.7954,0.0616828,0
47.8169,-35.7217,0.0603645,0
47.8509,-35.6473,0.0591535,0
47.8833,-35.5721,0.05805,0
47.9141,-35.4964,0.0570734,0
47.9431,-35.4199,0.0561848,0
47.9706,-35.343,0.0554328,0
47.9965,-35.2654,0.0547785,0
48.0205,-35.1873,0.0542316,0
48.043,-35.1088,0.053802,0
48.0638,-35.0297,0.0534895,0
48.083,-34.9503,0.0532844,0
48.1003,-34.8704,0.0531965,0
48.116,-34.7903,0.0532258,0
48.1301,-34.7097,0.0533625,0
48.1423,-34.6289,0.0536066,0
48.1528,-34.5478,0.053968,0
48.1616,-34.4665,0.0544367,0
48.1686,-34.385,0.0550227,0
42.6409,-37.3061,0.303187,0
42.7132,-37.3519,0.300521,0
42.7877,-37.3939,0.296956,0
42.8631,-37.4341,0.293372,0
42.9393,-37.4726,0.289749,0
43.0164,-37.5093,0.286107,0
43.0944,-37.5441,0.282425,0
43.1731,-37.5772,0.278734,0
43.2525,-37.6083,0.275032,0
43.3325,-37.6377,0.271292,0
43.4133,-37.6651,0.267552,0
43.4945,-37.6907,0.263792,0
43.5763,-37.7143,0.260023,0
43.6586,-37.7361,0.256234,0
43.7414,-37.7559,0.252445,0
43.8245,-37.7738,0.248655,0
43.908,-37.7898,0.244857,0
43.9919,-37.8039,0.241058,0
44.0759,-37.816,0.237259,0
44.1603,-37.8261,0.23346,0
44.2448,-37.8343,0.229671,0
44.3294,-37.8405,0.225882,0
44.4141,-37.8448,0.222103,0
44.4988,-37.8471,0.218343,0
44.5836,-37.8475,0.214583,0
44.6683,-37.8459,0.210843,0
44.7529,-37.8424,0.207122,0
44.8373,-37.8369,0.203421,0
44.9216,-37.8295,0.19973,0
45.0057,-37.8202,0.196068,0
45.0895,-37.8089,0.192435,0
45.173,-37.7957,0.188821,0
45.2556,-37.7786,0.184525,0
45.3379,-37.7594,0.180218,0
45.4195,-37.7384,0.17596,0
45.5006,-37.7155,0.171741,0
45.5811,-37.6909,0.167571,0
45.6609,-37.6644,0.16345,0
45.74,-37.6362,0.159378,0
45.8184,-37.6063,0.155355,0
45.896,-37.5745,0.15139,0
45.9727,-37.5411,0.147464,0
46.0487,-37.506,0.143607,0
46.1237,-37.4692,0.139808,0
46.198,-37.4307,0.136068,0
46.2711,-37.3907,0.132386,0
46.3433,-37.349,0.128763,0
46.4144,-37.3056,0.125169,0
46.4845,-37.2606,0.121614,0
46.5534,-37.2141,0.118128,0
46.6213,-37.1662,0.11473,0
46.6879,-37.1168,0.1114,0
46.7534,-37.0659,0.108148,0
46.8177,-37.0137,0.104984,0
46.8808,-36.9601,0.101898,0
46.9427,-36.9052,0.0988996,0
47.0033,-36.849,0.0959797,0
47.0626,-36.7915,0.0931477,0
47.1205,-36.7327,0.0904133,0
47.1771,-36.6728,0.0877668,0
47.2324,-36.6116,0.0851984,0
47.2862,-36.5493,0.082718,0
47.3386,-36.4859,0.0803352,0
47.3897,-36.4213,0.07805,0
47.4392,-36.3557,0.075843,0
47.4872,-36.2891,0.0737531,0
47.5338,-36.2215,0.0717414,0
47.5788,-36.1529,0.0698273,0
47.6224,-36.0833,0.0680012,0
47.6644,-36.013,0.0663215,0
47.7048,-35.9416,0.0646711,0
47.7435,-35.8694,0.0631281,0
47.7807,-35.7965,0.0617023,0
47.8163,-35.7228,0.060384,0
47.8503,-35.6484,0.059173,0
47.8827,-35.5733,0.0580695,0
47.9136,-35.4975,0.0570832,0
47.9427,-35.4211,0.0562043,0
47.9702,-35.3442,0.0554426,0
47.9961,-35.2666,0.0547883,0
48.0203,-35.1886,0.0542414,0
48.0427,-35.11,0.0538215,0
48.0635,-35.031,0.0534992,0
48.0827,-34.9515,0.0532844,0
48.1002,-34.8717,0.0532063,0
48.1158,-34.7915,0.0532258,0
48.1298,-34.711,0.0533527,0
48.1421,-34.6301,0.0535969,0
48.1527,-34.5491,0.0539582,0
48.1614,-34.4677,0.054427,0
48.1685,-34.3862,0.0550129,0
42.6398,-37.3054,0.303236,0
42.712,-37.3512,0.300579,0
42.7865,-37.3933,0.297015,0
45.9452,-37.4654,0.149427,0
46.0195,-37.431,0.145648,0
46.0929,-37.3951,0.141927,0
46.1655,-37.3575,0.138275,0
46.237,-37.3183,0.134671,0
46.3077,-37.2776,0.131136,0
46.3773,-37.2353,0.127659,0
46.4459,-37.1915,0.124251,0
46.5134,-37.1462,0.120911,0
46.5798,-37.0994,0.11763,0
46.6452,-37.0512,0.114427,0
46.7093,-37.0016,0.111273,0
46.7723,-36.9505,0.108167,0
46.834,-36.8981,0.105159,0
46.8945,-36.8443,0.10222,0
46.9538,-36.7893,0.0993684,0
47.0118,-36.7331,0.0966047,0
47.0684,-36.6756,0.0939191,0
47.1239,-36.6169,0.0913215,0
47.1779,-36.5571,0.0888117,0
47.2305,-36.4961,0.0863996,0
47.282,-36.434,0.0840559,0
47.3317,-36.3709,0.0818098,0
47.3801,-36.3066,0.0796223,0
47.427,-36.2413,0.0775129,0
47.4724,-36.175,0.0754914,0
47.5163,-36.1078,0.0735578,0
47.5589,-36.0398,0.0718098,0
47.6009,-35.9714,0.0704231,0
47.6411,-35.902,0.069134,0
47.6792,-35.8315,0.0676789,0
47.7156,-35.76,0.0662727,0
47.7505,-35.6879,0.0649836,0
47.7837,-35.615,0.0638117,0
47.8154,-35.5415,0.0627375,0
47.8455,-35.4673,0.0617707,0
47.874,-35.3925,0.0609113,0
47.9009,-35.3171,0.0601594,0
47.9262,-35.2412,0.0595246,0
47.9498,-35.1647,0.0589973,0
47.9718,-35.0878,0.0585773,0
47.9922,-35.0104,0.0582746,0
48.0108,-34.9326,0.0580695,0
48.0278,-34.8544,0.0579914,0
48.0431,-34.7759,0.0580109,0
48.0568,-34.6971,0.0581477,0
48.0687,-34.6179,0.0583918,0
48.079,-34.5385,0.0587531,0
48.0875,-34.4589,0.0592121,0
42.6862,-37.2369,0.3022,0
42.7577,-37.2802,0.299007,0
42.8305,-37.3212,0.295521,0
42.9041,-37.3606,0.292015,0
42.9787,-37.3982,0.28848,0
43.0541,-37.434,0.284915,0
43.1302,-37.4681,0.281321,0
43.2071,-37.5004,0.277718,0
43.2847,-37.5308,0.274085,0
43.363,-37.5595,0.270443,0
43.4418,-37.5863,0.26678,0
43.5213,-37.6113,0.263109,0
43.6012,-37.6344,0.259427,0
43.6816,-37.6557,0.255726,0
43.7626,-37.6751,0.252025,0
43.8438,-37.6926,0.248314,0
43.9254,-37.7082,0.244603,0
44.0073,-37.7219,0.240882,0
44.0895,-37.7338,0.237171,0
44.172,-37.7437,0.23347,0
44.2546,-37.7517,0.229749,0
44.3373,-37.7578,0.226048,0
44.4201,-37.762,0.222357,0
44.503,-37.7643,0.218675,0
44.5858,-37.7647,0.215013,0
44.6686,-37.7631,0.211351,0
44.7512,-37.7597,0.207708,0
44.8339,-37.7543,0.204095,0
44.9162,-37.7471,0.200491,0
44.9984,-37.738,0.196917,0
45.0803,-37.727,0.193353,0
45.162,-37.7141,0.189818,0
45.2428,-37.6976,0.185726,0
45.3232,-37.6789,0.181517,0
45.403,-37.6584,0.177357,0
45.4823,-37.6362,0.173226,0
45.5611,-37.6121,0.169154,0
45.6391,-37.5863,0.16512,0
45.7165,-37.5588,0.161136,0
45.793,-37.5295,0.1572,0
45.869,-37.4985,0.153314,0
45.9441,-37.4659,0.149486,0
46.0184,-37.4316,0.145716,0
46.0918,-37.3956,0.141995,0
46.1643,-37.3581,0.138333,0
46.2359,-37.3189,0.13472,0
46.3065,-37.2782,0.131185,0
46.3762,-37.2359,0.127718,0
46.4448,-37.1922,0.1243,0
46.5123,-37.1469,0.12095,0
46.5788,-37.1001,0.117679,0
46.6441,-37.052,0.114466,0
46.7083,-37.0023,0.111321,0
46.7712,-36.9513,0.108226,0
46.833,-36.8989,0.105208,0
46.8935,-36.8452,0.102259,0
46.9529,-36.7902,0.0994074,0
47.0109,-36.734,0.0966438,0
47.0677,-36.6765,0.093968,0
47.123,-36.6178,0.0913605,0
47.1771,-36.558,0.0888508,0
47.2298,-36.4971,0.0864289,0
47.2811,-36.435,0.0840949,0
47.331,-36.3718,0.0818488,0
47.3794,-36.3076,0.0796516,0
47.4263,-36.2423,0.0775422,0
47.4718,-36.176,0.0755109,0
47.5156,-36.1088,0.0735871,0
47.5584,-36.0408,0.0718391,0
47.6002,-35.9724,0.0704523,0
47.6405,-35.9031,0.0691535,0
47.6787,-35.8325,0.0676984,0
47.7151,-35.7611,0.066302,0
47.7499,-35.689,0.0650129,0
47.7832,-35.6161,0.0638313,0
47.815,-35.5426,0.0627473,0
47.8451,-35.4684,0.0617805,0
47.8736,-35.3936,0.0609211,0
47.9005,-35.3182,0.0601789,0
47.9258,-35.2423,0.0595344,0
47.9495,-35.1659,0.059007,0
47.9715,-35.089,0.0585871,0
47.9919,-35.0116,0.0582746,0
48.0105,-34.9338,0.0580793,0
48.0276,-34.8556,0.0579914,0
48.0429,-34.7771,0.0580109,0
48.0566,-34.6983,0.0581379,0
48.0685,-34.6191,0.0583918,0
48.0788,-34.5397,0.0587434,0
48.0874,-34.4601,0.0592121,0
48.0943,-34.3803,0.0597785,0
42.6852,-37.2362,0.302239,0
42.7566,-37.2795,0.299056,0
42.8293,-37.3206,0.295579,0
42.903,-37.36,0.292064,0
42.9776,-37.3976,0.288538,0
43.053,-37.4335,0.284964,0
43.1291,-37.4676,0.28138,0
43.2059,-37.4999,0.277777,0
43.2836,-37.5304,0.274144,0
43.3618,-37.5591,0.270501,0
43.4406,-37.5859,0.266839,0
43.5201,-37.6109,0.263167,0
43.6,-37.6341,0.259476,0
43.6805,-37.6554,0.255775,0
43.7612,-37.6748,0.252083,0
43.8426,-37.6924,0.248372,0
43.9242,-37.708,0.244661,0
44.0062,-37.7218,0.240941,0
44.0884,-37.7336,0.23723,0
44.1708,-37.7436,0.233519,0
44.2534,-37.7516,0.229808,0
44.336,-37.7577,0.226107,0
44.4188,-37.762,0.222425,0
44.5016,-37.7642,0.218734,0
44.5845,-37.7647,0.215071,0
44.6673,-37.7632,0.211419,0
44.75,-37.7597,0.207767,0
44.8326,-37.7544,0.204154,0
44.915,-37.7472,0.20055,0
44.9971,-37.7381,0.196966,0
45.0791,-37.7271,0.193411,0
45.1606,-37.7143,0.189876,0
45.2416,-37.6979,0.185784,0
45.322,-37.6792,0.181575,0
45.4018,-37.6588,0.177415,0
45.4812,-37.6365,0.173294,0
45.5598,-37.6125,0.169222,0
45.6379,-37.5867,0.165179,0
45.7152,-37.5592,0.161195,0
45.792,-37.53,0.157259,0
45.8679,-37.499,0.153372,0
45.943,-37.4664,0.149544,0
46.0172,-37.4321,0.145765,0
46.0906,-37.3962,0.142044,0
46.1632,-37.3587,0.138382,0
46.2348,-37.3195,0.134779,0
46.3055,-37.2788,0.131243,0
46.3752,-37.2366,0.127757,0
46.4437,-37.1928,0.124349,0
46.5113,-37.1476,0.120999,0
46.5778,-37.1009,0.117728,0
46.6431,-37.0527,0.114525,0
46.7073,-37.0031,0.11137,0
46.7703,-36.9521,0.108275,0
46.8321,-36.8997,0.105247,0
46.8927,-36.846,0.102318,0
46.952,-36.791,0.0994563,0
47.0101,-36.7348,0.0966828,0
47.0667,-36.6774,0.0939973,0
47.1222,-36.6187,0.0913996,0
47.1763,-36.5589,0.0888898,0
47.229,-36.498,0.0864582,0
47.2803,-36.4359,0.084134,0
47.3302,-36.3728,0.0818879,0
47.3787,-36.3086,0.0796906,0
47.4256,-36.2433,0.0775715,0
47.471,-36.1771,0.0755598,0
47.515,-36.1098,0.0736164,0
47.5577,-36.0419,0.0718586,0
47.5995,-35.9735,0.0704719,0
47.6399,-35.9042,0.0691828,0
47.678,-35.8336,0.0677277,0
47.7145,-35.7622,0.0663215,0
47.7494,-35.6901,0.0650227,0
47.7827,-35.6172,0.063841,0
47.8145,-35.5437,0.0627668,0
47.8446,-35.4695,0.0618,0
47.8732,-35.3947,0.0609309,0
47.9001,-35.3194,0.0601887,0
47.9254,-35.2435,0.0595441,0
47.9491,-35.1671,0.0590168,0
47.9712,-35.0901,0.0585969,0
47.9916,-35.0128,0.0582844,0
48.0102,-34.935,0.0580793,0
48.0273,-34.8568,0.0579914,0
48.0427,-34.7783,0.0580109,0
48.0564,-34.6995,0.0581379,0
48.0684,-34.6203,0.058382,0
48.0787,-34.541,0.0587336,0
48.0873,-34.4614,0.0592023,0
48.0942,-34.3816,0.0597688,0
42.6841,-37.2354,0.302269,0
42.7555,-37.2789,0.299114,0
42.8283,-37.32,0.295628,0
45.9166,-37.3935,0.151419,0
45.9891,-37.36,0.147728,0
46.061,-37.3249,0.144085,0
46.132,-37.2882,0.140501,0
46.2021,-37.2499,0.136986,0
46.2712,-37.2101,0.133519,0
46.3393,-37.1688,0.13012,0
46.4065,-37.126,0.126771,0
46.4725,-37.0817,0.123509,0
46.5376,-37.036,0.120296,0
46.6016,-36.9889,0.117152,0
46.6645,-36.9404,0.114085,0
46.7261,-36.8906,0.111087,0
46.7866,-36.8394,0.108167,0
46.8459,-36.7869,0.105296,0
46.904,-36.7332,0.102513,0
46.9607,-36.6781,0.0998078,0
47.0163,-36.6219,0.0971906,0
47.0705,-36.5645,0.094632,0
47.1234,-36.506,0.0921613,0
47.1749,-36.4463,0.089759,0
47.2252,-36.3855,0.0874445,0
47.2738,-36.3237,0.085218,0
47.3212,-36.2608,0.0830695,0
47.3672,-36.1969,0.081009,0
47.4116,-36.1321,0.0790363,0
47.4547,-36.0663,0.077132,0
47.497,-36.0001,0.0756477,0
47.538,-35.9332,0.0742902,0
47.5774,-35.8653,0.0730305,0
47.6154,-35.7966,0.0718586,0
47.6517,-35.727,0.0707453,0
47.6859,-35.6564,0.069466,0
47.7185,-35.585,0.0683137,0
47.7496,-35.513,0.067259,0
47.7791,-35.4403,0.0663117,0
47.807,-35.3671,0.0654719,0
47.8334,-35.2933,0.0647395,0
47.8581,-35.2189,0.0641145,0
47.8812,-35.1441,0.0635969,0
47.9028,-35.0687,0.0631867,0
47.9227,-34.9929,0.0628937,0
47.9409,-34.9167,0.0626887,0
47.9577,-34.8402,0.0626106,0
47.9727,-34.7633,0.0626301,0
47.9859,-34.686,0.0627668,0
47.9977,-34.6085,0.0630012,0
48.0077,-34.5308,0.0633625,0
48.016,-34.4528,0.0638117,0
42.7291,-37.1689,0.30098,0
42.7993,-37.2107,0.297601,0
42.8705,-37.2509,0.294202,0
42.9425,-37.2893,0.290775,0
43.0154,-37.3261,0.287318,0
43.0891,-37.3612,0.283821,0
43.1634,-37.3945,0.280316,0
43.2388,-37.4261,0.27679,0
43.3145,-37.4559,0.273245,0
43.391,-37.484,0.269671,0
43.4681,-37.5103,0.266097,0
43.5458,-37.5347,0.262513,0
43.624,-37.5574,0.2589,0
43.7027,-37.5782,0.255286,0
43.7817,-37.5972,0.251663,0
43.8612,-37.6143,0.24804,0
43.9409,-37.6296,0.244407,0
44.0211,-37.6431,0.240775,0
44.1015,-37.6547,0.237152,0
44.182,-37.6644,0.233519,0
44.2627,-37.6723,0.229896,0
44.3437,-37.6783,0.226282,0
44.4246,-37.6824,0.222669,0
44.5057,-37.6847,0.219066,0
44.5866,-37.685,0.215472,0
44.6677,-37.6836,0.211898,0
44.7484,-37.6803,0.208343,0
44.8292,-37.6751,0.204798,0
44.9098,-37.668,0.201273,0
44.9902,-37.6591,0.197777,0
45.0702,-37.6484,0.1943,0
45.1501,-37.6358,0.190843,0
45.2292,-37.6201,0.186937,0
45.3079,-37.6019,0.182825,0
45.3861,-37.5819,0.178753,0
45.4636,-37.5602,0.17472,0
45.5405,-37.5368,0.170726,0
45.617,-37.5116,0.16678,0
45.6927,-37.4847,0.162884,0
45.7677,-37.4561,0.159036,0
45.842,-37.4259,0.155237,0
45.9155,-37.394,0.151487,0
45.9881,-37.3605,0.147786,0
46.06,-37.3254,0.144144,0
46.1309,-37.2888,0.14056,0
46.201,-37.2505,0.137034,0
46.2701,-37.2107,0.133568,0
46.3383,-37.1695,0.130169,0
46.4055,-37.1267,0.126829,0
46.4716,-37.0824,0.123558,0
46.5366,-37.0368,0.120345,0
46.6006,-36.9897,0.11721,0
46.6634,-36.9412,0.114134,0
46.7251,-36.8913,0.111126,0
46.7856,-36.8402,0.108196,0
46.845,-36.7877,0.105345,0
46.903,-36.734,0.102562,0
46.9599,-36.679,0.0998566,0
47.0155,-36.6228,0.0972199,0
47.0697,-36.5654,0.0946711,0
47.1226,-36.5069,0.0921906,0
47.1741,-36.4472,0.0898078,0
47.2244,-36.3864,0.0874836,0
47.2732,-36.3246,0.085257,0
47.3205,-36.2617,0.0831086,0
47.3665,-36.1979,0.0810383,0
47.411,-36.1331,0.0790656,0
47.454,-36.0673,0.0771613,0
47.4963,-36.0012,0.0756672,0
47.5373,-35.9342,0.0743098,0
47.5769,-35.8663,0.07305,0
47.6148,-35.7976,0.0718684,0
47.6512,-35.7281,0.0707551,0
47.6854,-35.6575,0.0694953,0
47.718,-35.5861,0.0683332,0
47.7491,-35.5141,0.0672688,0
47.7786,-35.4415,0.0663215,0
47.8066,-35.3682,0.0654914,0
47.833,-35.2944,0.0647492,0
47.8577,-35.2201,0.0641242,0
47.8809,-35.1452,0.0636066,0
47.9025,-35.0699,0.0631965,0
47.9224,-34.9941,0.062884,0
47.9407,-34.9179,0.0626984,0
47.9574,-34.8413,0.0626106,0
47.9724,-34.7644,0.0626301,0
47.9858,-34.6872,0.062757,0
47.9975,-34.6097,0.0630012,0
48.0076,-34.532,0.0633527,0
48.016,-34.454,0.063802,0
48.0227,-34.3759,0.0643684,0
42.728,-37.1682,0.301029,0
42.7983,-37.2101,0.29765,0
42.8694,-37.2503,0.294251,0
42.9413,-37.2888,0.290823,0
43.0143,-37.3256,0.287357,0
43.0879,-37.3607,0.28388,0
43.1623,-37.394,0.280374,0
43.2375,-37.4256,0.276839,0
43.3134,-37.4555,0.273294,0
43.3898,-37.4836,0.26973,0
43.467,-37.5099,0.266155,0
43.5446,-37.5343,0.262562,0
43.6228,-37.557,0.258958,0
43.7014,-37.5779,0.255345,0
43.7805,-37.5969,0.251722,0
43.86,-37.6141,0.248099,0
43.9398,-37.6294,0.244466,0
44.0198,-37.6429,0.240843,0
44.1002,-37.6545,0.23721,0
44.1808,-37.6643,0.233577,0
44.2616,-37.6722,0.229954,0
44.3424,-37.6782,0.226331,0
44.4234,-37.6823,0.222718,0
44.5044,-37.6846,0.219124,0
44.5854,-37.6851,0.21553,0
44.6663,-37.6836,0.211956,0
44.7473,-37.6803,0.208402,0
44.828,-37.6752,0.204857,0
44.9086,-37.6681,0.201341,0
44.989,-37.6593,0.197825,0
45.0691,-37.6486,0.194349,0
45.1489,-37.636,0.190902,0
45.2281,-37.6203,0.186995,0
45.3068,-37.6022,0.182884,0
45.3848,-37.5823,0.178821,0
45.4624,-37.5606,0.174788,0
45.5395,-37.5371,0.170794,0
45.6158,-37.512,0.166839,0
45.6915,-37.4851,0.162943,0
45.7666,-37.4566,0.159095,0
45.8408,-37.4264,0.155286,0
45.9143,-37.3945,0.151536,0
45.987,-37.3611,0.147845,0
46.0588,-37.326,0.144202,0
46.1298,-37.2893,0.140618,0
46.1999,-37.2511,0.137093,0
46.2691,-37.2114,0.133626,0
46.3373,-37.1701,0.130228,0
46.4045,-37.1273,0.126878,0
46.4705,-37.0831,0.123607,0
46.5356,-37.0375,0.120394,0
46.5997,-36.9904,0.117259,0
46.6625,-36.9419,0.114183,0
46.7242,-36.8921,0.111175,0
46.7848,-36.841,0.108245,0
46.8441,-36.7885,0.105394,0
46.9022,-36.7348,0.102601,0
46.9591,-36.6799,0.0998957,0
47.0146,-36.6237,0.097259,0
47.0688,-36.5663,0.0947102,0
47.1218,-36.5078,0.0922297,0
47.1734,-36.4481,0.0898371,0
47.2237,-36.3874,0.0875227,0
47.2724,-36.3256,0.0852863,0
47.3198,-36.2627,0.0831379,0
47.3658,-36.1989,0.0810676,0
47.4103,-36.1341,0.0790949,0
47.4534,-36.0683,0.0771906,0
47.4957,-36.0022,0.0756867,0
47.5367,-35.9352,0.0743293,0
47.5762,-35.8674,0.0730695,0
47.6143,-35.7987,0.0718977,0
47.6507,-35.7292,0.0707746,0
47.6849,-35.6586,0.0695148,0
47.7176,-35.5872,0.068343,0
47.7486,-35.5152,0.0672883,0
47.7782,-35.4426,0.066341,0
47.8062,-35.3693,0.0654914,0
47.8325,-35.2955,0.064759,0
47.8573,-35.2212,0.064134,0
47.8805,-35.1464,0.0636164,0
47.9021,-35.071,0.0631965,0
47.9221,-34.9953,0.0628937,0
47.9405,-34.9191,0.0626984,0
47.9572,-34.8425,0.0626106,0
47.9723,-34.7656,0.0626301,0
47.9856,-34.6884,0.062757,0
47.9973,-34.6109,0.0630012,0
48.0074,-34.5332,0.063343,0
48.0159,-34.4552,0.063802,0
48.0226,-34.3771,0.0643586,0
42.727,-37.1676,0.301087,0
42.7971,-37.2094,0.297708,0
42.8683,-37.2496,0.29431,0
45.8889,-37.3244,0.153343,0
45.9601,-37.2917,0.14973,0
46.0304,-37.2574,0.146165,0
46.0998,-37.2215,0.142659,0
46.1684,-37.1841,0.139202,0
46.2361,-37.1452,0.135814,0
46.3028,-37.1048,0.132484,0
46.3686,-37.063,0.129212,0
46.4334,-37.0197,0.126009,0
46.497,-36.975,0.122864,0
46.5596,-36.929,0.119788,0
46.6212,-36.8816,0.11679,0
46.6816,-36.8328,0.113851,0
46.7408,-36.7828,0.11098,0
46.7989,-36.7314,0.108177,0
46.8558,-36.6788,0.105452,0
46.9114,-36.625,0.102806,0
46.9658,-36.57,0.100228,0
47.0189,-36.5139,0.0977277,0
47.0707,-36.4566,0.0953059,0
47.1213,-36.3982,0.0929621,0
47.1704,-36.3387,0.0906867,0
47.2181,-36.2782,0.088509,0
47.2646,-36.2167,0.0863996,0
47.3095,-36.1542,0.0843781,0
47.3531,-36.0907,0.0824348,0
47.3957,-36.0266,0.0807551,0
47.4373,-35.962,0.0793488,0
47.4773,-35.8963,0.0780109,0
47.516,-35.8299,0.0767707,0
47.5533,-35.7626,0.0756281,0
47.5889,-35.6946,0.0745637,0
47.6231,-35.6257,0.0736066,0
47.6556,-35.5561,0.0726496,0
47.686,-35.4856,0.0716242,0
47.715,-35.4144,0.0706867,0
47.7423,-35.3426,0.0698664,0
47.7681,-35.2703,0.0691535,0
47.7924,-35.1975,0.0685383,0
47.8152,-35.1241,0.0680305,0
47.8363,-35.0503,0.0676301,0
47.8558,-34.9761,0.0673371,0
47.8736,-34.9014,0.0671418,0
47.89,-34.8264,0.0670734,0
47.9047,-34.7511,0.0670832,0
47.9177,-34.6754,0.0672199,0
47.9292,-34.5995,0.0674543,0
47.939,-34.5233,0.0677961,0
47.9471,-34.4469,0.0682453,0
42.7706,-37.103,0.299554,0
42.8394,-37.1439,0.296253,0
42.9089,-37.1832,0.292933,0
42.9794,-37.2208,0.289573,0
43.0506,-37.2569,0.286185,0
43.1227,-37.2912,0.282786,0
43.1955,-37.3238,0.279349,0
43.269,-37.3547,0.275902,0
43.3432,-37.3839,0.272435,0
43.418,-37.4114,0.268948,0
43.4934,-37.4371,0.265443,0
43.5694,-37.4611,0.261927,0
43.6459,-37.4833,0.258411,0
43.7227,-37.5036,0.254876,0
43.8001,-37.5222,0.251331,0
43.8778,-37.539,0.247777,0
43.9559,-37.5541,0.244232,0
44.0342,-37.5672,0.240677,0
44.1129,-37.5786,0.237122,0
44.1916,-37.5882,0.233577,0
44.2706,-37.5959,0.230032,0
44.3498,-37.6018,0.226488,0
44.429,-37.6058,0.222952,0
44.5082,-37.6081,0.219437,0
44.5875,-37.6085,0.215921,0
44.6667,-37.6071,0.212425,0
44.7458,-37.6039,0.208948,0
44.8248,-37.5988,0.205472,0
44.9036,-37.5919,0.202025,0
44.9823,-37.5833,0.198607,0
45.0606,-37.5728,0.195198,0
45.1387,-37.5605,0.19182,0
45.2162,-37.5455,0.188109,0
45.2932,-37.5278,0.184085,0
45.3696,-37.5083,0.180101,0
45.4455,-37.4871,0.176146,0
45.5209,-37.4642,0.172239,0
45.5957,-37.4397,0.168382,0
45.6697,-37.4134,0.164564,0
45.7431,-37.3856,0.160794,0
45.8159,-37.356,0.157073,0
45.8878,-37.3249,0.153402,0
45.9589,-37.2922,0.149779,0
46.0293,-37.2579,0.146224,0
46.0988,-37.2221,0.142718,0
46.1674,-37.1847,0.139261,0
46.2351,-37.1458,0.135862,0
46.3019,-37.1055,0.132532,0
46.3676,-37.0637,0.129261,0
46.4323,-37.0204,0.126058,0
