46.8333,-44.4454,0.0532258,0
47.0642,-44.3375,0.0393586,0
47.2916,-44.2251,0.0257014,0
47.5153,-44.1081,0.0122492,0
47.7303,-43.9718,-0.00251152,0
47.9333,-43.8102,-0.0191863,0
48.1311,-43.6464,-0.0354656,0
48.3241,-43.4803,-0.051325,0
48.5179,-43.3255,-0.0654168,0
48.7077,-43.1692,-0.0790594,0
48.8934,-43.0108,-0.0923211,0
49.0749,-42.8504,-0.105212,0
49.2523,-42.6879,-0.117731,0
49.4255,-42.5235,-0.129889,0
49.5945,-42.3572,-0.141686,0
49.7595,-42.1892,-0.153132,0
49.9205,-42.0194,-0.164216,0
50.0775,-41.848,-0.174958,0
50.2249,-41.6675,-0.186159,0
50.3663,-41.4836,-0.197243,0
50.5037,-41.2989,-0.207936,0
50.637,-41.1134,-0.218249,0
50.7684,-40.9293,-0.227927,0
50.8989,-40.7476,-0.236862,0
51.0258,-40.565,-0.245436,0
51.1491,-40.3816,-0.253649,0
51.2689,-40.1972,-0.26152,0
51.3852,-40.012,-0.26904,0
51.498,-39.826,-0.276208,0
51.6073,-39.6391,-0.283034,0
51.7133,-39.4515,-0.289528,0
51.8146,-39.2621,-0.295798,0
51.9109,-39.0709,-0.301911,0
52.0036,-38.8791,-0.307702,0
52.0929,-38.6865,-0.313171,0
52.181,-38.4947,-0.318112,0
52.2762,-38.3079,-0.321804,0
52.3681,-38.1199,-0.325192,0
52.4571,-37.9307,-0.328278,0
52.5429,-37.7404,-0.331071,0
52.6251,-37.5486,-0.3336,0
52.7034,-37.3554,-0.335905,0
52.7787,-37.161,-0.337897,0
52.8511,-36.9657,-0.339577,0
52.9204,-36.7692,-0.340964,0
52.9866,-36.5717,-0.342038,0
53.0498,-36.3731,-0.342809,0
53.1099,-36.1734,-0.343278,0
53.1701,-35.9734,-0.3432,0
53.2314,-35.773,-0.342487,0
53.2898,-35.5713,-0.341452,0
53.3452,-35.3682,-0.340114,0
53.3927,-35.1629,-0.338845,0
53.433,-34.956,-0.337585,0
41.584,-37.7348,-0.406508,174
41.753,-37.6822,-0.428819,174
41.9127,-37.6322,-0.449641,174
42.027,-37.6446,-0.459954,174
42.1074,-37.7105,-0.46173,174
42.1742,-37.8027,-0.459454,174
42.2365,-37.9079,-0.45525,174
42.269,-38.0803,-0.441584,174
40.0351,-43.1327,0.248835,174
40.0833,-43.6117,0.291966,174
40.3308,-43.6567,0.275776,174
40.5397,-43.7952,0.272791,174
40.5286,-44.556,0.351029,0
40.775,-44.6467,0.3416,0
41.0234,-44.7319,0.332147,0
41.54,-43.8655,0.20517,174
41.7806,-43.8934,0.191639,174
41.9926,-44.0381,0.19297,174
42.1914,-44.2665,0.204664,174
42.4033,-44.4712,0.213681,174
42.5971,-44.8362,0.241597,174
42.7991,-45.2527,0.275238,0
43.0656,-45.2578,0.261737,0
43.4445,-43.9968,0.106167,174
43.68,-43.9939,0.094687,174
43.8607,-45.2352,0.221575,0
44.1238,-45.2153,0.208333,0
44.3858,-45.1891,0.195164,0
44.6463,-45.157,0.182073,0
44.9054,-45.1188,0.16909,0
45.1628,-45.0747,0.156204,0
45.416,-44.9981,0.140613,0
45.6659,-44.9149,0.125067,0
45.9126,-44.8266,0.109744,0
46.1559,-44.7334,0.0946467,0
46.396,-44.6354,0.0797785,0
46.6328,-44.534,0.0652668,0
46.8667,-44.4302,0.0512189,0
47.0971,-44.3217,0.0373811,0
47.324,-44.2085,0.0237482,0
47.5472,-44.091,0.01034,0
47.7598,-43.9487,-0.0049334,0
47.962,-43.7868,-0.0215545,0
48.1591,-43.6226,-0.0377605,0
48.3519,-43.4575,-0.0534393,0
48.5454,-43.3032,-0.0673943,0
48.7347,-43.1466,-0.0809832,0
48.9198,-42.9879,-0.0941961,0
49.1006,-42.8271,-0.107028,0
49.2773,-42.6644,-0.119509,0
49.4499,-42.4997,-0.131618,0
49.6184,-42.3332,-0.143356,0
49.7829,-42.1649,-0.154753,0
49.9434,-41.9949,-0.165788,0
50.0997,-41.8232,-0.176471,0
50.2455,-41.6412,-0.18778,0
50.3862,-41.4571,-0.198805,0
50.523,-41.2723,-0.20944,0
50.6559,-41.0867,-0.219694,0
50.7873,-40.9033,-0.229225,0
50.9173,-40.7215,-0.238112,0
51.0438,-40.5387,-0.246637,0
51.1666,-40.3551,-0.254802,0
51.2858,-40.1706,-0.262624,0
51.4016,-39.9853,-0.270085,0
51.5138,-39.7992,-0.277204,0
51.6227,-39.6122,-0.283991,0
51.7282,-39.4244,-0.290436,0
51.8286,-39.2347,-0.296706,0
51.9245,-39.0434,-0.302761,0
52.0166,-38.8514,-0.308503,0
52.1055,-38.6588,-0.313932,0
52.1949,-38.4679,-0.318659,0
52.2896,-38.2809,-0.322311,0
52.3811,-38.0928,-0.325651,0
52.4696,-37.9035,-0.328698,0
52.555,-37.7129,-0.331442,0
52.6366,-37.5209,-0.333952,0
52.7145,-37.3275,-0.336208,0
52.7893,-37.133,-0.338151,0
52.8612,-36.9375,-0.339792,0
52.93,-36.7409,-0.34113,0
52.9959,-36.5432,-0.342165,0
53.0586,-36.3444,-0.342897,0
53.1183,-36.1446,-0.343317,0
53.1791,-35.9447,-0.343112,0
53.24,-35.7441,-0.34235,0
53.2979,-35.5422,-0.341276,0
53.3529,-35.3389,-0.339889,0
53.3987,-35.1333,-0.338679,0
53.4385,-34.9261,-0.33737,0
41.5671,-37.7062,-0.372651,174
41.7361,-37.6547,-0.395969,174
41.8958,-37.6057,-0.417727,174
42.017,-37.6071,-0.430296,174
42.1033,-37.6616,-0.433756,174
42.1694,-37.7525,-0.431284,174
42.2369,-37.8451,-0.428498,174
42.2771,-37.9975,-0.41669,174
40.005,-43.0438,0.316611,174
40.052,-43.5152,0.361875,174
40.2709,-43.625,0.354443,174
40.4911,-43.7335,0.347456,174
40.7087,-43.8516,0.342414,174
40.9159,-44.0055,0.342777,0
41.1496,-44.0871,0.333865,0
41.4762,-43.8481,0.283251,174
41.7251,-43.8457,0.265284,174
41.9447,-43.9526,0.262299,174
42.1062,-44.342,0.295761,174
42.348,-44.3949,0.286572,174
42.5796,-44.5109,0.285887,0
42.826,-44.5485,0.276102,0
43.0759,-44.5567,0.263426,0
43.3696,-44.1004,0.195601,174
43.6216,-43.9075,0.160976,174
43.8463,-44.068,0.169252,174
44.0698,-44.5302,0.213231,0
44.3161,-44.509,0.200828,0
44.5612,-44.4821,0.188514,0
44.8051,-44.4495,0.176282,0
45.0476,-44.4113,0.164134,0
45.2874,-44.356,0.15077,0
45.5236,-44.2823,0.136072,0
45.7569,-44.2037,0.121566,0
45.9873,-44.1204,0.107254,0
46.2147,-44.0325,0.0931574,0
46.4389,-43.94,0.0792609,0
46.66,-43.8432,0.0655842,0
46.8779,-43.742,0.0521271,0
47.0923,-43.6367,0.0388947,0
47.3037,-43.5273,0.025882,0
47.5118,-43.4152,0.0132404,0
47.7149,-43.2945,0.000305862,0
47.91,-43.1587,-0.0136395,0
48.101,-43.02,-0.027282,0
48.2873,-42.8768,-0.0407879,0
48.4695,-42.7314,-0.0539324,0
48.6479,-42.5838,-0.0667254,0
48.8223,-42.434,-0.0791766,0
48.9929,-42.2821,-0.0912762,0
49.1595,-42.1282,-0.103034,0
49.3223,-41.9725,-0.11445,0
49.4813,-41.8148,-0.125524,0
49.6365,-41.6553,-0.136266,0
49.7879,-41.4942,-0.146677,0
49.9355,-41.3313,-0.156745,0
50.0794,-41.1669,-0.166501,0
50.2147,-40.9949,-0.176637,0
50.3484,-40.8245,-0.1861,0
50.4787,-40.6531,-0.195202,0
50.6045,-40.4797,-0.204069,0
50.7264,-40.3049,-0.212643,0
50.8446,-40.129,-0.220886,0
50.9592,-39.9522,-0.228796,0
51.0703,-39.7744,-0.236384,0
51.1778,-39.5957,-0.243649,0
51.2819,-39.4161,-0.250583,0
51.3824,-39.2357,-0.257214,0
51.4795,-39.0544,-0.263512,0
51.5732,-38.8724,-0.269499,0
51.6635,-38.6896,-0.275182,0
51.7518,-38.507,-0.280417,0
51.8468,-38.3295,-0.284333,0
51.9387,-38.1508,-0.287966,0
52.0277,-37.9709,-0.291276,0
52.1137,-37.7899,-0.294313,0
52.1967,-37.6076,-0.297048,0
52.2767,-37.4242,-0.299489,0
52.3537,-37.2397,-0.301647,0
52.4277,-37.054,-0.303493,0
52.4987,-36.8672,-0.305055,0
52.5666,-36.6792,-0.306325,0
52.631,-36.4899,-0.30736,0
52.6919,-36.2995,-0.308132,0
52.7499,-36.108,-0.30861,0
52.8098,-35.9166,-0.308356,0
52.8655,-35.7238,-0.307917,0
52.9137,-35.5288,-0.307555,0
52.9586,-35.3328,-0.306921,0
53.0004,-35.1359,-0.305983,0
53.0388,-34.9379,-0.304772,0
41.592,-37.6986,-0.376104,174
41.7596,-37.6475,-0.399188,174
41.918,-37.5989,-0.420734,174
42.0326,-37.6098,-0.43163,174
42.1127,-37.6746,-0.43342,174
42.179,-37.7657,-0.430904,174
42.2468,-37.8586,-0.428072,174
42.2818,-38.0224,-0.414574,174
40.0335,-43.0626,0.315996,174
40.0682,-43.5655,0.365749,174
40.3077,-43.628,0.351615,174
40.5314,-43.7268,0.343387,174
40.7371,-43.8769,0.34288,174
40.9494,-44.0176,0.341502,0
41.1834,-44.0984,0.332596,0
41.5151,-43.8375,0.279268,174
41.9249,-43.2125,0.180357,174
41.9742,-43.9776,0.263149,174
42.1393,-44.357,0.295334,174
42.3831,-44.4008,0.2851,174
42.6145,-44.5198,0.284876,0
42.8619,-44.5501,0.27428,0
43.1118,-44.5574,0.26161,0
43.4131,-44.0006,0.18189,174
43.654,-43.9231,0.161255,174
43.8582,-44.5437,0.2239,0
44.1053,-44.5275,0.211444,0
44.3514,-44.5055,0.199056,0
44.5964,-44.4777,0.186751,0
44.8401,-44.4443,0.174534,0
45.0823,-44.4054,0.162401,0
45.3215,-44.3457,0.148646,0
45.5573,-44.2713,0.133978,0
45.7902,-44.192,0.119495,0
46.0202,-44.108,0.105213,0
46.2471,-44.0194,0.0911506,0
46.4709,-43.9263,0.0772834,0
46.6915,-43.8289,0.0636457,0
46.9088,-43.7271,0.0502131,0
47.123,-43.6212,0.0370051,0
47.3337,-43.5112,0.0240314,0
47.5415,-43.399,0.0114631,0
47.7432,-43.2751,-0.0017205,0
47.9377,-43.139,-0.0156219,0
48.128,-42.9995,-0.0292449,0
48.3137,-42.8561,-0.0427019,0
48.4954,-42.7103,-0.0557977,0
48.6732,-42.5624,-0.0685418,0
48.8471,-42.4123,-0.0809344,0
49.0171,-42.2601,-0.0929852,0
49.1832,-42.106,-0.104694,0
49.3455,-41.9499,-0.116061,0
49.5038,-41.792,-0.127087,0
49.6585,-41.6323,-0.13778,0
49.8093,-41.4709,-0.148151,0
49.9564,-41.3078,-0.158171,0
50.0998,-41.1431,-0.167878,0
50.2341,-40.9705,-0.178024,0
50.3673,-40.7999,-0.187438,0
50.4971,-40.6284,-0.196481,0
50.6223,-40.4546,-0.205319,0
50.7436,-40.2797,-0.213845,0
50.8612,-40.1037,-0.222048,0
50.9755,-39.9267,-0.229909,0
51.0859,-39.7488,-0.237438,0
51.193,-39.57,-0.244655,0
51.2966,-39.3902,-0.25155,0
51.3966,-39.2097,-0.258132,0
51.4932,-39.0283,-0.264391,0
51.5864,-38.8462,-0.270339,0
51.6762,-38.6633,-0.275973,0
51.7657,-38.4815,-0.280993,0
51.8602,-38.3039,-0.28487,0
51.9517,-38.125,-0.288454,0
52.0402,-37.945,-0.291735,0
52.1259,-37.7638,-0.294723,0
52.2084,-37.5814,-0.297419,0
52.288,-37.3978,-0.299821,0
52.3645,-37.2131,-0.30193,0
52.438,-37.0272,-0.303737,0
52.5086,-36.8402,-0.305261,0
52.5762,-36.6521,-0.306481,0
52.6399,-36.4626,-0.307497,0
52.7004,-36.272,-0.30822,0
52.758,-36.0804,-0.308649,0
52.8184,-35.8891,-0.308278,0
52.8726,-35.6958,-0.307878,0
52.9203,-35.5007,-0.307487,0
52.9648,-35.3046,-0.306803,0
53.0061,-35.1075,-0.305827,0
53.0441,-34.9094,-0.304577,0
41.6166,-37.6911,-0.379521,174
41.7829,-37.6404,-0.402374,174
41.9394,-37.5931,-0.423546,174
42.0476,-37.6134,-0.432823,174
42.1221,-37.6876,-0.433077,174
42.1886,-37.779,-0.430517,174
42.2539,-37.8773,-0.426848,174
42.2867,-38.0474,-0.412433,174
40.0479,-43.1116,0.319805,174
40.0909,-43.6016,0.367583,174
40.3444,-43.6311,0.348808,174
40.5642,-43.7393,0.342019,174
40.7554,-43.9309,0.347311,174
40.9829,-44.0295,0.340223,0
41.2172,-44.1096,0.331312,0
41.5538,-43.827,0.275317,174
41.9624,-43.1955,0.17586,174
42.0037,-44.0027,0.264015,174
42.1743,-44.3636,0.293866,174
42.4094,-44.4544,0.28962,174
42.6493,-44.5285,0.283856,0
42.8978,-44.5515,0.272459,0
43.1905,-44.1784,0.21379,174
43.4528,-43.9355,0.172392,174
43.6862,-43.943,0.16205,174
43.8937,-44.5417,0.222098,0
44.1408,-44.5246,0.209652,0
44.3867,-44.5018,0.197288,0
44.6315,-44.4733,0.184988,0
44.8749,-44.4391,0.172781,0
45.1169,-44.3993,0.160667,0
45.3555,-44.3353,0.146527,0
45.5909,-44.2602,0.131883,0
45.8234,-44.1802,0.117425,0
46.053,-44.0956,0.103182,0
46.2794,-44.0064,0.0891438,0
46.5027,-43.9126,0.0753107,0
46.723,-43.8145,0.0616975,0
46.9398,-43.7122,0.0483039,0
47.1534,-43.6057,0.0351252,0
47.3637,-43.4951,0.0221857,0
47.5712,-43.3827,0.00969063,0
47.7714,-43.2557,-0.00374199,0
47.9653,-43.1192,-0.0175896,0
48.1549,-42.9791,-0.031198,0
48.34,-42.8353,-0.0445965,0
48.5212,-42.6892,-0.0576531,0
48.6984,-42.5409,-0.0703387,0
48.8717,-42.3905,-0.0826824,0
49.0412,-42.2381,-0.0946941,0
49.2067,-42.0837,-0.106345,0
49.3684,-41.9273,-0.117663,0
49.5263,-41.7692,-0.128639,0
49.6804,-41.6092,-0.139294,0
49.8307,-41.4475,-0.149606,0
49.9773,-41.2842,-0.159587,0
50.1199,-41.1191,-0.169264,0
50.2535,-40.946,-0.179401,0
50.3862,-40.7754,-0.188757,0
50.5155,-40.6036,-0.197751,0
50.6399,-40.4296,-0.206559,0
50.7607,-40.2544,-0.215046,0
50.878,-40.0783,-0.22319,0
50.9915,-39.9012,-0.231012,0
51.1016,-39.7231,-0.238503,0
51.2081,-39.5442,-0.245671,0
51.3111,-39.3643,-0.252516,0
51.4107,-39.1837,-0.25905,0
51.5067,-39.0022,-0.26527,0
51.5995,-38.82,-0.271159,0
51.6887,-38.6369,-0.276755,0
51.7794,-38.4561,-0.281569,0
51.8736,-38.2783,-0.285407,0
51.9646,-38.0992,-0.288942,0
52.0528,-37.919,-0.292184,0
52.1379,-37.7376,-0.295134,0
52.22,-37.555,-0.29778,0
52.2991,-37.3713,-0.300143,0
52.3752,-37.1864,-0.302204,0
52.4484,-37.0004,-0.303971,0
52.5185,-36.8133,-0.305446,0
52.5857,-36.625,-0.306637,0
52.6488,-36.4353,-0.307624,0
52.7089,-36.2446,-0.308307,0
52.7662,-36.0528,-0.308669,0
52.8269,-35.8616,-0.30818,0
52.8796,-35.6679,-0.307839,0
52.9269,-35.4726,-0.307409,0
52.9709,-35.2763,-0.306677,0
53.0117,-35.0791,-0.305671,0
53.0493,-34.8808,-0.304372,0
41.5999,-37.6629,-0.346072,174
41.7661,-37.6132,-0.36991,174
41.9233,-37.5659,-0.392165,174
42.038,-37.5755,-0.403651,174
42.1179,-37.6392,-0.405473,174
42.1837,-37.7293,-0.402728,174
42.251,-37.8211,-0.399652,174
42.2944,-37.9657,-0.388158,174
40.083,-42.8855,0.3657,174
40.2519,-43.0734,0.37095,0
40.4616,-43.1762,0.36366,0
40.6738,-43.274,0.356278,0
41.8696,-40.6761,-0.0436428,174
41.9902,-40.8425,-0.0341715,174
41.3263,-43.5327,0.332987,0
41.5492,-43.6047,0.324554,0
41.8949,-43.2111,0.252558,174
42.1007,-43.3107,0.250025,174
42.2272,-43.7907,0.299202,0
42.4549,-43.8485,0.291536,0
42.6827,-43.9087,0.284862,0
42.9176,-43.9274,0.273431,0
43.1528,-43.9365,0.261502,0
43.3877,-43.94,0.249608,0
43.6261,-43.8842,0.230985,174
43.8559,-43.9302,0.225955,0
44.0889,-43.9171,0.214197,0
44.321,-43.8986,0.202518,0
44.552,-43.8746,0.190902,0
44.782,-43.8453,0.179363,0
45.0107,-43.8107,0.167899,0
45.2374,-43.7648,0.155799,0
45.4605,-43.6979,0.141898,0
45.6812,-43.6264,0.128177,0
45.8991,-43.5503,0.114642,0
46.1142,-43.4698,0.101282,0
46.327,-43.3869,0.0883527,0
46.537,-43.2999,0.0756281,0
46.7441,-43.2087,0.0631037,0
46.9483,-43.1136,0.0507941,0
47.1495,-43.0145,0.0386848,0
47.3477,-42.9117,0.0268,0
47.5429,-42.8052,0.0151301,0
47.7322,-42.6878,0.00282539,0
47.9145,-42.5588,-0.0102117,0
48.0934,-42.4272,-0.0229363,0
48.2684,-42.2929,-0.035368,0
48.4395,-42.1561,-0.0474871,0
48.6071,-42.0169,-0.059323,0
48.7709,-41.8753,-0.070866,0
48.9309,-41.7314,-0.0821062,0
49.0873,-41.5854,-0.093034,0
49.2399,-41.4372,-0.103688,0
49.3889,-41.287,-0.11404,0
49.5341,-41.1349,-0.124098,0
49.6761,-40.9815,-0.133796,0
49.8177,-40.8305,-0.142634,0
49.956,-40.6777,-0.151188,0
50.0908,-40.5231,-0.15947,0
50.217,-40.3608,-0.168239,0
50.3382,-40.1958,-0.176891,0
50.456,-40.0297,-0.185221,0
50.5703,-39.8624,-0.193229,0
50.6812,-39.6942,-0.200915,0
50.7887,-39.5249,-0.208298,0
50.8927,-39.3547,-0.215358,0
50.9934,-39.1836,-0.222096,0
51.0908,-39.0115,-0.228542,0
51.1848,-38.8385,-0.234684,0
51.2755,-38.6648,-0.240514,0
51.3652,-38.4917,-0.245798,0
51.4598,-38.3227,-0.249899,0
51.5514,-38.1525,-0.253698,0
51.6401,-37.9811,-0.257204,0
51.7258,-37.8085,-0.260436,0
51.8086,-37.6348,-0.263376,0
51.8885,-37.4599,-0.266022,0
51.9655,-37.2838,-0.268386,0
52.0395,-37.1066,-0.270466,0
52.1107,-36.9283,-0.272253,0
52.1788,-36.7489,-0.273747,0
52.2441,-36.5683,-0.274958,0
52.3065,-36.3867,-0.275886,0
52.3633,-36.2033,-0.276774,0
52.4159,-36.0186,-0.277477,0
52.468,-35.8336,-0.277673,0
52.517,-35.6476,-0.277585,0
52.563,-35.4606,-0.277223,0
52.6057,-35.2726,-0.276569,0
52.6453,-35.0837,-0.275651,0
52.6818,-34.8939,-0.27444,0
41.6244,-37.6556,-0.349601,174
41.7893,-37.6063,-0.373202,174
41.9451,-37.5593,-0.395241,174
42.0529,-37.5792,-0.404859,174
42.1273,-37.6521,-0.405098,174
42.1933,-37.7424,-0.402307,174
42.2608,-37.8345,-0.399181,174
42.2992,-37.9902,-0.385935,174
40.0842,-42.9608,0.373909,0
40.2818,-43.0884,0.36991,0
40.4919,-43.1905,0.362601,0
40.7045,-43.2877,0.355198,0
41.8963,-40.673,-0.0462169,174
41.137,-43.4668,0.340159,0
41.3583,-43.5433,0.33178,0
41.5813,-43.6146,0.323338,0
41.935,-43.1842,0.246495,174
42.0323,-43.7423,0.306439,0
42.26,-43.7985,0.297991,0
42.4875,-43.8574,0.290579,0
42.7159,-43.9152,0.28367,0
42.9514,-43.9291,0.271712,0
43.1866,-43.9373,0.259788,0
43.4215,-43.94,0.247894,0
43.6586,-43.8967,0.23097,174
43.8895,-43.9287,0.224261,0
44.1223,-43.9148,0.212518,0
44.3543,-43.8954,0.200848,0
44.5852,-43.8707,0.189237,0
44.8149,-43.8406,0.177708,0
45.0434,-43.8053,0.166263,0
45.2696,-43.7555,0.153797,0
45.4925,-43.6879,0.139915,0
45.7127,-43.6157,0.126219,0
45.9302,-43.539,0.112703,0
46.1449,-43.4582,0.0994172,0
46.3573,-43.3747,0.0865119,0
46.5669,-43.287,0.0738166,0
46.7736,-43.1953,0.0613264,0
46.9774,-43.0996,0.0490363,0
47.1782,-43,0.036966,0
47.3759,-42.8966,0.0251106,0
47.5707,-42.7896,0.0134797,0
47.7586,-42.6694,0.000940628,0
47.9405,-42.5401,-0.0120477,0
48.1187,-42.4081,-0.0247332,0
48.2931,-42.2734,-0.0371258,0
48.4638,-42.1362,-0.0492156,0
48.6309,-41.9967,-0.0610027,0
48.7941,-41.8547,-0.0724969,0
48.9536,-41.7106,-0.0836883,0
49.1095,-41.5642,-0.0945867,0
49.2616,-41.4157,-0.105192,0
49.4099,-41.2653,-0.115505,0
49.5546,-41.1129,-0.125524,0
49.6966,-40.9599,-0.135075,0
49.8378,-40.8087,-0.143884,0
49.9756,-40.6556,-0.152399,0
50.1099,-40.5007,-0.160632,0
50.2346,-40.3371,-0.169499,0
50.3554,-40.172,-0.178112,0
50.4727,-40.0057,-0.186393,0
50.5865,-39.8383,-0.194352,0
50.6969,-39.6699,-0.201999,0
50.8038,-39.5005,-0.209333,0
50.9073,-39.3302,-0.216345,0
51.0077,-39.1589,-0.223044,0
51.1045,-38.9867,-0.22945,0
51.198,-38.8136,-0.235544,0
51.2883,-38.6397,-0.241335,0
51.3791,-38.4675,-0.246403,0
51.4731,-38.2983,-0.250456,0
51.5643,-38.128,-0.254216,0
51.6525,-37.9564,-0.257692,0
51.7378,-37.7837,-0.260876,0
51.8202,-37.6097,-0.263776,0
51.8997,-37.4346,-0.266384,0
51.9762,-37.2584,-0.268698,0
52.0499,-37.081,-0.270739,0
52.1206,-36.9026,-0.272487,0
52.1884,-36.723,-0.273942,0
52.2533,-36.5423,-0.275114,0
52.3152,-36.3605,-0.276003,0
52.3709,-36.1767,-0.276911,0
52.4237,-35.9921,-0.277526,0
52.4753,-35.8069,-0.277673,0
52.5238,-35.6208,-0.277546,0
52.5693,-35.4336,-0.277145,0
52.6116,-35.2456,-0.276452,0
52.6508,-35.0565,-0.275495,0
52.6868,-34.8665,-0.274245,0
41.6487,-37.6483,-0.353093,174
41.8122,-37.5994,-0.37646,174
41.9613,-37.5614,-0.396788,174
42.0677,-37.5829,-0.40606,174
42.1367,-37.6649,-0.404717,174
42.2029,-37.7555,-0.401878,174
42.2707,-37.8478,-0.398704,174
42.3041,-38.015,-0.383688,174
40.112,-42.9802,0.37348,0
40.3118,-43.1034,0.36887,0
40.5223,-43.2048,0.361546,0
40.7352,-43.3012,0.354134,0
41.9156,-40.6904,-0.0457905,174
41.1686,-43.4783,0.338983,0
41.3902,-43.5539,0.33056,0
41.6135,-43.6245,0.322122,0
41.9691,-43.1801,0.243588,174
42.0649,-43.7507,0.305228,0
42.2928,-43.8061,0.296776,0
42.5202,-43.8663,0.289617,0
42.7498,-43.9175,0.281956,0
42.9852,-43.9306,0.270003,0
43.2204,-43.9381,0.258074,0
43.4552,-43.94,0.246199,0
43.69,-43.9283,0.233371,174
43.923,-43.927,0.222567,0
44.1557,-43.9123,0.210833,0
44.3875,-43.8922,0.199173,0
44.6182,-43.8667,0.187576,0
44.8479,-43.8359,0.176063,0
45.0761,-43.7998,0.164622,0
45.2828,-43.5474,0.127912,174
45.5242,-43.6778,0.137938,0
45.7441,-43.605,0.124271,0
45.9611,-43.5276,0.110784,0
46.1756,-43.4464,0.0975471,0
46.3876,-43.3623,0.084676,0
46.5967,-43.2741,0.0720002,0
46.803,-43.1818,0.0595393,0
47.0063,-43.0855,0.0472932,0
47.2067,-42.9854,0.035257,0
47.4041,-42.8815,0.0234309,0
47.5984,-42.7739,0.0118195,0
47.785,-42.651,-0.000944138,0
47.9663,-42.5213,-0.0138934,0
48.144,-42.3889,-0.0265398,0
48.3179,-42.2539,-0.0388738,0
48.488,-42.1164,-0.0509246,0
48.6545,-41.9764,-0.0626727,0
48.8173,-41.8342,-0.074118,0
48.9762,-41.6896,-0.0852801,0
49.1316,-41.543,-0.0961394,0
49.2831,-41.3942,-0.106696,0
49.4309,-41.2435,-0.11696,0
49.5751,-41.0908,-0.12694,0
49.7171,-40.9383,-0.136364,0
49.8578,-40.7868,-0.145124,0
49.9951,-40.6335,-0.1536,0
50.1284,-40.4776,-0.161882,0
50.2522,-40.3135,-0.170759,0
50.3724,-40.1482,-0.179323,0
50.4892,-39.9817,-0.187555,0
50.6025,-39.8142,-0.195466,0
50.7123,-39.6457,-0.203073,0
50.8189,-39.4761,-0.210348,0
50.922,-39.3056,-0.217321,0
51.0217,-39.1342,-0.223991,0
51.1181,-38.9619,-0.230339,0
51.2112,-38.7887,-0.236384,0
51.301,-38.6147,-0.242136,0
51.3927,-38.4432,-0.246999,0
51.4864,-38.2739,-0.251013,0
51.5772,-38.1034,-0.254733,0
51.6649,-37.9316,-0.258171,0
51.7498,-37.7587,-0.261315,0
51.8319,-37.5846,-0.264167,0
51.9109,-37.4094,-0.266725,0
51.987,-37.233,-0.269011,0
52.0602,-37.0555,-0.271012,0
52.1305,-36.8768,-0.272712,0
52.1979,-36.6971,-0.274128,0
52.2623,-36.5163,-0.275261,0
52.3239,-36.3343,-0.2761,0
52.3785,-36.1502,-0.277028,0
52.4312,-35.9655,-0.277565,0
52.4824,-35.7802,-0.277673,0
52.5305,-35.594,-0.277497,0
52.5755,-35.4067,-0.277057,0
52.6174,-35.2185,-0.276335,0
52.6561,-35.0293,-0.275329,0
52.6917,-34.8392,-0.27404,0
41.6321,-37.6204,-0.320041,174
41.7956,-37.5725,-0.344372,174
41.9502,-37.5269,-0.367098,174
42.0582,-37.5454,-0.377238,174
42.1324,-37.617,-0.377474,174
42.198,-37.7064,-0.374462,174
42.265,-37.7973,-0.371101,174
42.3115,-37.9344,-0.360012,174
40.2837,-42.4673,0.369837,0
40.4795,-42.5686,0.36303,0
40.6779,-42.6653,0.356126,0
41.7748,-40.4637,-0.0083852,174
41.9276,-40.5228,-0.0144972,174
42.0606,-40.6408,-0.0111807,174
42.1987,-40.753,-0.00848564,174
42.3089,-40.9732,0.0104182,174
41.9151,-43.1448,0.313094,0
42.128,-43.2074,0.305692,0
42.3426,-43.2649,0.298231,0
42.5587,-43.3172,0.290711,0
42.7771,-43.3576,0.28221,0
42.9992,-43.3737,0.271053,0
43.2215,-43.3834,0.259778,0
43.4433,-43.3879,0.248543,0
43.6648,-43.3871,0.237342,0
43.8857,-43.381,0.226185,0
44.1059,-43.3698,0.215076,0
44.3253,-43.3534,0.204022,0
44.5439,-43.332,0.19303,0
44.7613,-43.3054,0.182108,0
44.9777,-43.2739,0.171263,0
45.1927,-43.2362,0.16035,0
45.4048,-43.18,0.147786,0
45.6144,-43.1174,0.135125,0
45.8215,-43.049,0.122464,0
46.0262,-42.9764,0.109974,0
46.2284,-42.8998,0.0976691,0
46.428,-42.8191,0.08555,0
46.6251,-42.7345,0.0736262,0
46.8195,-42.646,0.0618977,0
47.011,-42.5538,0.0503645,0
47.1999,-42.4579,0.0390266,0
47.3858,-42.3584,0.0278938,0
47.5689,-42.2554,0.016966,0
47.7458,-42.1412,0.00525703,0
47.9168,-42.018,-0.00695,0
48.0844,-41.8923,-0.0188641,0
48.2485,-41.764,-0.0305144,0
48.4091,-41.6333,-0.0418719,0
48.5662,-41.5002,-0.0529559,0
48.7198,-41.3649,-0.0637566,0
48.8699,-41.2274,-0.0742742,0
49.0165,-41.0878,-0.0845281,0
49.1608,-40.9478,-0.0942547,0
49.3036,-40.8087,-0.103337,0
49.4432,-40.6675,-0.112145,0
49.5795,-40.5244,-0.12068,0
49.7127,-40.3793,-0.128952,0
49.8423,-40.2325,-0.13694,0
49.9689,-40.0838,-0.144655,0
50.0921,-39.9335,-0.152106,0
50.2073,-39.7766,-0.160007,0
50.318,-39.6172,-0.16778,0
50.4253,-39.4568,-0.175261,0
50.5294,-39.2953,-0.182438,0
50.6302,-39.1328,-0.189304,0
50.7277,-38.9693,-0.195866,0
50.8221,-38.8049,-0.202136,0
50.9131,-38.6396,-0.208122,0
51.0041,-38.4755,-0.213425,0
51.0984,-38.3145,-0.217682,0
51.1896,-38.1522,-0.221657,0
51.278,-37.9888,-0.225348,0
51.3636,-37.8241,-0.228766,0
51.4462,-37.6583,-0.231891,0
51.5262,-37.4913,-0.234733,0
51.6033,-37.3231,-0.237311,0
51.6774,-37.1538,-0.239596,0
51.7487,-36.9834,-0.241598,0
51.8166,-36.8117,-0.243386,0
51.8787,-36.6379,-0.245192,0
51.9379,-36.463,-0.246745,0
51.994,-36.2873,-0.248014,0
52.047,-36.1106,-0.24902,0
52.099,-35.9337,-0.249548,0
52.1488,-35.756,-0.249704,0
52.1956,-35.5773,-0.249606,0
52.2395,-35.3977,-0.249225,0
52.2802,-35.2171,-0.248581,0
52.318,-35.0357,-0.247663,0
52.3526,-34.8533,-0.246481,0
41.6562,-37.6134,-0.323642,174
41.8183,-37.5658,-0.347733,174
41.9673,-37.5273,-0.368999,174
42.0728,-37.5491,-0.378465,174
42.1417,-37.6297,-0.377062,174
42.2075,-37.7193,-0.374001,174
42.2748,-37.8106,-0.370589,174
42.3164,-37.9586,-0.357687,174
40.3116,-42.4821,0.36887,0
40.5079,-42.5828,0.362044,0
40.7066,-42.6788,0.35513,0
41.8024,-40.4576,-0.0115719,174
41.9465,-40.5397,-0.014044,174
42.0499,-40.7475,0.00287163,174
42.2155,-40.7797,-0.006493,174
41.7341,-43.0872,0.319398,0
41.9455,-43.1541,0.312034,0
42.1587,-43.2159,0.304612,0
42.3735,-43.2727,0.297147,0
42.5898,-43.3243,0.289622,0
42.809,-43.361,0.280701,0
43.0312,-43.3754,0.269427,0
43.2534,-43.3844,0.258162,0
43.4752,-43.3881,0.246927,0
43.6965,-43.3865,0.235736,0
43.9173,-43.3797,0.224573,0
44.1375,-43.3678,0.21348,0
44.3568,-43.3507,0.20244,0
44.5752,-43.3285,0.191458,0
44.7926,-43.3012,0.18055,0
45.0087,-43.2689,0.169715,0
45.2233,-43.2285,0.158543,0
45.435,-43.1716,0.145994,0
45.6443,-43.1078,0.133299,0
45.851,-43.0388,0.120648,0
46.0555,-42.9657,0.108196,0
46.2573,-42.8884,0.0959113,0
46.4566,-42.8072,0.0838313,0
46.6532,-42.722,0.071927,0
46.8471,-42.633,0.0602277,0
47.0383,-42.5403,0.0487141,0
47.2267,-42.4438,0.0374152,0
47.4123,-42.3439,0.0263117,0
47.595,-42.2404,0.0154133,0
47.7705,-42.1236,0.00347969,0
47.9411,-42.0001,-0.00867851,0
48.1082,-41.874,-0.0205633,0
48.2718,-41.7454,-0.0321648,0
48.4319,-41.6143,-0.0434832,0
48.5884,-41.4809,-0.0545281,0
48.7416,-41.3453,-0.0652898,0
48.8912,-41.2075,-0.0757684,0
49.0373,-41.0675,-0.0859734,0
49.1816,-40.928,-0.0955828,0
49.3239,-40.7885,-0.104616,0
49.463,-40.6471,-0.113386,0
49.5988,-40.5037,-0.121882,0
49.7315,-40.3584,-0.130114,0
49.8608,-40.2112,-0.138063,0
49.9868,-40.0623,-0.145749,0
50.1096,-39.9117,-0.153161,0
50.2234,-39.7537,-0.161139,0
50.3336,-39.5943,-0.168884,0
50.4405,-39.4337,-0.176315,0
50.5441,-39.272,-0.183444,0
50.6444,-39.1094,-0.190261,0
50.7415,-38.9458,-0.196784,0
50.8353,-38.7812,-0.203014,0
50.9259,-38.6157,-0.208952,0
51.0179,-38.4524,-0.21405,0
51.1116,-38.2912,-0.218268,0
51.2024,-38.1288,-0.222204,0
51.2905,-37.9652,-0.225856,0
51.3756,-37.8004,-0.229225,0
51.458,-37.6344,-0.232321,0
51.5374,-37.4672,-0.235124,0
51.6141,-37.2989,-0.237653,0
51.6879,-37.1294,-0.239899,0
51.7587,-36.9589,-0.241862,0
51.8258,-36.7868,-0.243659,0
51.8875,-36.6128,-0.245436,0
51.9462,-36.4378,-0.24694,0
52.0017,-36.262,-0.248171,0
52.0543,-36.0852,-0.249137,0
52.1063,-35.9082,-0.249577,0
52.1558,-35.7304,-0.249714,0
52.2021,-35.5516,-0.249567,0
52.2455,-35.3718,-0.249147,0
52.2859,-35.1911,-0.248464,0
52.323,-35.0095,-0.247507,0
52.3572,-34.827,-0.246276,0
41.68,-37.6064,-0.327206,174
41.8409,-37.5592,-0.35106,174
41.9828,-37.5302,-0.370437,174
42.0866,-37.5543,-0.379414,174
42.1511,-37.6425,-0.376643,174
42.2171,-37.7323,-0.373532,174
42.2846,-37.8238,-0.370069,174
42.3213,-37.983,-0.355336,174
40.3397,-42.4969,0.367894,0
40.5362,-42.5968,0.361058,0
40.7353,-42.6922,0.354134,0
41.8299,-40.4514,-0.0147391,174
41.9655,-40.5566,-0.0135831,174
42.0824,-40.726,-0.0024408,174
42.232,-40.8079,-0.00427227,174
41.7644,-43.0971,0.318338,0
41.9772,-43.1589,0.310359,174
42.1895,-43.2244,0.303553,0
42.4045,-43.2805,0.296068,0
42.6209,-43.3313,0.288543,0
42.8409,-43.3635,0.279095,0
43.0631,-43.377,0.267816,0
43.2852,-43.3853,0.256551,0
43.507,-43.3882,0.245311,0
43.7284,-43.3859,0.234124,0
43.949,-43.3783,0.222982,0
44.1691,-43.3656,0.211898,0
44.3882,-43.3478,0.200858,0
44.6065,-43.3249,0.189891,0
44.8237,-43.2969,0.178988,0
45.0397,-43.2639,0.168157,0
45.2538,-43.2206,0.156732,0
45.4653,-43.1631,0.144202,0
45.6741,-43.0982,0.131473,0
45.8806,-43.0286,0.118851,0
46.0845,-42.9548,0.106419,0
46.286,-42.877,0.0941731,0
46.4849,-42.7952,0.0821027,0
46.6812,-42.7095,0.0702375,0
46.8748,-42.6199,0.0585578,0
47.0656,-42.5266,0.0470832,0
47.2536,-42.4297,0.0358137,0
47.4387,-42.3292,0.0247297,0
47.6209,-42.2252,0.0138703,0
47.7953,-42.106,0.00172188,0
47.9653,-41.9821,-0.0103973,0
48.132,-41.8556,-0.0222527,0
48.295,-41.7267,-0.0338055,0
48.4546,-41.5953,-0.0450848,0
48.6107,-41.4616,-0.0560906,0
48.7633,-41.3256,-0.0668133,0
48.9123,-41.1875,-0.0772527,0
49.058,-41.0473,-0.0874187,0
49.2022,-40.9081,-0.0968914,0
49.3441,-40.7683,-0.105895,0
49.4827,-40.6266,-0.114626,0
49.618,-40.4829,-0.123083,0
49.7502,-40.3373,-0.131266,0
49.879,-40.19,-0.139186,0
50.0046,-40.0408,-0.146833,0
50.1265,-39.8895,-0.154264,0
50.2395,-39.7309,-0.162272,0
50.3492,-39.5713,-0.169968,0
50.4555,-39.4105,-0.17735,0
50.5587,-39.2487,-0.18443,0
50.6585,-39.086,-0.191218,0
50.7552,-38.9222,-0.197712,0
50.8485,-38.7575,-0.203884,0
50.9388,-38.5919,-0.209782,0
51.0316,-38.4294,-0.214665,0
51.1248,-38.268,-0.218854,0
51.2152,-38.1054,-0.222751,0
51.3029,-37.9416,-0.226364,0
51.3877,-37.7766,-0.229694,0
51.4696,-37.6104,-0.232741,0
51.5486,-37.4431,-0.235505,0
51.6248,-37.2746,-0.237985,0
51.6982,-37.105,-0.240202,0
51.7687,-36.9343,-0.242116,0
51.8348,-36.7618,-0.243932,0
51.8961,-36.5877,-0.245671,0
51.9543,-36.4126,-0.247136,0
52.0095,-36.2366,-0.248327,0
52.0616,-36.0597,-0.249255,0
52.1136,-35.8827,-0.249616,0
52.1627,-35.7048,-0.249704,0
52.2085,-35.5258,-0.249528,0
52.2515,-35.3459,-0.249079,0
52.2914,-35.1651,-0.248346,0
52.3282,-34.9834,-0.24735,0
52.3619,-34.8008,-0.246081,0
41.6637,-37.5789,-0.294538,174
41.8245,-37.5327,-0.319335,174
41.9734,-37.4936,-0.341547,174
42.078,-37.5157,-0.351203,174
42.1467,-37.595,-0.349751,174
42.212,-37.6836,-0.346478,174
42.2789,-37.7738,-0.34284,174
42.3284,-37.9034,-0.332243,174
40.498,-42.0199,0.362386,0
40.6838,-42.1155,0.355931,0
40.872,-42.2067,0.349378,0
41.8213,-40.35,0.024596,174
41.9751,-40.3979,0.0169561,174
42.1063,-40.5116,0.0203458,174
42.2279,-40.6661,0.03043,174
42.3462,-40.8509,0.0453016,174
42.0453,-42.6588,0.308568,0
42.2473,-42.7177,0.301546,0
42.4506,-42.7718,0.294466,0
42.6554,-42.8211,0.287347,0
42.8638,-42.8512,0.278099,0
43.0733,-42.8716,0.268157,0
43.283,-42.8869,0.258216,0
43.4932,-42.8923,0.247591,0
43.703,-42.8925,0.236966,0
43.9123,-42.8878,0.22639,0
44.1212,-42.8782,0.215853,0
44.3292,-42.8636,0.205374,0
44.5365,-42.8443,0.194954,0
44.7428,-42.8201,0.184583,0
44.9481,-42.7912,0.17429,0
45.1523,-42.7576,0.164066,0
45.3538,-42.7075,0.152347,0
45.5532,-42.6516,0.14054,0
45.7507,-42.5913,0.12887,0
45.9459,-42.5268,0.117337,0
46.1391,-42.4582,0.10595,0
46.3296,-42.3842,0.0945344,0
46.5174,-42.3053,0.0831477,0
46.7028,-42.2227,0.0719465,0
46.8856,-42.1365,0.0609309,0
47.0659,-42.0467,0.0501008,0
47.2434,-41.9535,0.0394563,0
47.4183,-41.8568,0.029007,0
47.5905,-41.7569,0.0187531,0
47.7562,-41.6455,0.00760078,0
47.9169,-41.5273,-0.00385429,0
48.0744,-41.4066,-0.0150457,0
48.2286,-41.2836,-0.0259637,0
48.3795,-41.1581,-0.0366277,0
48.5271,-41.0305,-0.0470184,0
48.6734,-40.9038,-0.0567059,0
48.8171,-40.7759,-0.0660027,0
48.9577,-40.6458,-0.0750262,0
49.0953,-40.5137,-0.0837957,0
49.2297,-40.3796,-0.0923016,0
49.361,-40.2435,-0.100544,0
49.4892,-40.1056,-0.108532,0
49.6143,-39.9658,-0.116257,0
49.7362,-39.8242,-0.123718,0
49.8552,-39.6809,-0.130925,0
49.9708,-39.5359,-0.137868,0
50.0834,-39.3893,-0.144557,0
50.1891,-39.2376,-0.151569,0
50.2899,-39.0832,-0.158542,0
50.3876,-38.9278,-0.165231,0
50.4822,-38.7714,-0.171618,0
50.5737,-38.6139,-0.177731,0
50.6659,-38.4584,-0.183034,0
50.7597,-38.3049,-0.187448,0
50.8506,-38.1501,-0.191598,0
50.9389,-37.9941,-0.195456,0
51.0244,-37.8368,-0.19905,0
51.1071,-37.6784,-0.20236,0
51.187,-37.5188,-0.205397,0
51.2634,-37.3577,-0.208249,0
51.3351,-37.1946,-0.211052,0
51.4038,-37.0304,-0.2136,0
51.4696,-36.8652,-0.215866,0
51.5325,-36.699,-0.217878,0
51.5924,-36.5319,-0.219636,0
51.6493,-36.3638,-0.22113,0
51.7033,-36.1948,-0.22236,0
51.7548,-36.0251,-0.223268,0
51.8055,-35.8551,-0.223679,0
51.8534,-35.6842,-0.223825,0
51.8982,-35.5123,-0.223718,0
51.9402,-35.3394,-0.223337,0
51.9791,-35.1658,-0.222682,0
52.015,-34.9912,-0.221764,0
52.0479,-34.8158,-0.220593,0
41.6873,-37.5721,-0.298207,174
41.8468,-37.5262,-0.322761,174
41.9887,-37.4966,-0.343018,174
42.092,-37.5203,-0.352273,174
42.156,-37.6076,-0.349303,174
42.2215,-37.6965,-0.345978,174
42.2886,-37.7869,-0.342286,174
42.3333,-37.9273,-0.329819,174
40.5246,-42.0339,0.361458,0
40.7108,-42.1289,0.354984,0
40.8992,-42.2195,0.348431,0
41.8502,-40.3393,0.0205874,174
41.9938,-40.4142,0.0174194,174
42.1254,-40.528,0.0208656,174
42.2446,-40.6923,0.032506,174
42.3636,-40.8779,0.0475217,174
42.0743,-42.6676,0.307562,0
42.2763,-42.7258,0.30053,0
42.4799,-42.7792,0.29345,0
42.6849,-42.8277,0.286312,0
42.8938,-42.8545,0.276673,0
43.1034,-42.8741,0.266722,0
43.3132,-42.8881,0.256702,0
43.5234,-42.8926,0.246058,0
43.7331,-42.8921,0.235443,0
43.9424,-42.8867,0.224876,0
44.1511,-42.8764,0.214339,0
44.3591,-42.8612,0.20387,0
44.5662,-42.8411,0.19346,0
44.7723,-42.8163,0.183099,0
44.9775,-42.7867,0.172816,0
45.1815,-42.752,0.162562,0
45.3826,-42.6998,0.150638,0
45.5817,-42.6432,0.138851,0
45.7789,-42.5823,0.12721,0
45.9738,-42.5172,0.115696,0
46.1666,-42.448,0.104329,0
46.3567,-42.3731,0.092884,0
46.5442,-42.2937,0.0815266,0
46.7293,-42.2106,0.0703547,0
46.9116,-42.1238,0.0593684,0
47.0916,-42.0336,0.0485676,0
47.2687,-41.9398,0.0379426,0
47.4432,-41.8427,0.0275324,0
47.6149,-41.7422,0.0173078,0
47.7795,-41.6287,0.00594063,0
47.9398,-41.5101,-0.00547539,0
48.0967,-41.3891,-0.0166277,0
48.2505,-41.2657,-0.0275066,0
48.4009,-41.1399,-0.0381414,0
48.548,-41.0119,-0.048493,0
48.6942,-40.8855,-0.0580633,0
48.8375,-40.7573,-0.0673113,0
48.9777,-40.627,-0.0763055,0
49.1148,-40.4946,-0.0850359,0
49.2487,-40.3602,-0.0935027,0
49.3797,-40.2238,-0.101706,0
49.5074,-40.0856,-0.109655,0
49.632,-39.9455,-0.117341,0
49.7535,-39.8037,-0.124772,0
49.872,-39.6601,-0.13194,0
49.9871,-39.5149,-0.138854,0
50.0993,-39.3681,-0.145495,0
50.2038,-39.2155,-0.152595,0
50.3041,-39.061,-0.159528,0
50.4014,-38.9054,-0.166169,0
50.4955,-38.7488,-0.172526,0
50.5866,-38.5912,-0.178591,0
50.6795,-38.4364,-0.183679,0
50.7729,-38.2827,-0.188063,0
50.8635,-38.1277,-0.192165,0
50.9514,-37.9715,-0.195993,0
51.0364,-37.8141,-0.199538,0
51.1187,-37.6555,-0.202809,0
51.1982,-37.4958,-0.205807,0
51.2738,-37.3343,-0.208669,0
51.3451,-37.171,-0.211432,0
51.4134,-37.0067,-0.213932,0
51.4788,-36.8414,-0.216179,0
51.5412,-36.6751,-0.218151,0
51.6008,-36.5078,-0.21986,0
51.6573,-36.3396,-0.221315,0
51.7108,-36.1705,-0.222516,0
51.7623,-36.0008,-0.223346,0
51.8127,-35.8306,-0.223718,0
51.86,-35.6595,-0.223835,0
51.9044,-35.4875,-0.223669,0
51.9459,-35.3146,-0.223249,0
51.9844,-35.1407,-0.222565,0
52.0199,-34.966,-0.221618,0
52.0524,-34.7905,-0.220407,0
41.7108,-37.5654,-0.301839,174
41.869,-37.5198,-0.326153,174
42.004,-37.4995,-0.344479,174
42.1011,-37.5328,-0.351868,174
42.1654,-37.6203,-0.348847,174
42.2311,-37.7094,-0.34547,174
42.2983,-37.8,-0.341724,174
42.334,-37.96,-0.325874,174
40.5512,-42.0478,0.36053,0
40.7377,-42.1421,0.354046,0
41.667,-40.424,0.0482933,174
41.879,-40.3287,0.0166144,174
42.0125,-40.4305,0.01789,174
42.143,-40.5492,0.0221496,174
42.2614,-40.7186,0.0346015,174
42.3811,-40.9051,0.0497621,174
42.1032,-42.6762,0.306556,0
42.3055,-42.7338,0.299515,0
42.5093,-42.7865,0.292425,0
42.7146,-42.8335,0.285169,0
42.9239,-42.8576,0.275247,0
43.1335,-42.8765,0.265296,0
43.3434,-42.8891,0.255169,0
43.5535,-42.8928,0.244525,0
43.7633,-42.8917,0.233919,0
43.9725,-42.8855,0.223353,0
44.181,-42.8745,0.212835,0
44.3889,-42.8586,0.202376,0
44.5959,-42.8378,0.191966,0
44.8019,-42.8123,0.181624,0
45.0069,-42.782,0.171341,0
45.2105,-42.7448,0.160843,0
45.4113,-42.6919,0.148939,0
45.6102,-42.6347,0.137171,0
45.807,-42.5732,0.12554,0
46.0017,-42.5075,0.114046,0
46.1941,-42.4378,0.102708,0
46.3838,-42.3619,0.0912434,0
46.5709,-42.282,0.0799152,0
46.7555,-42.1983,0.0687727,0
46.9377,-42.1111,0.0578059,0
47.1172,-42.0203,0.0470148,0
47.294,-41.926,0.0364289,0
47.468,-41.8284,0.0260383,0
47.6394,-41.7276,0.0158527,0
47.8027,-41.6118,0.00428047,0
47.9624,-41.4929,-0.00708672,0
48.1191,-41.3715,-0.0182098,0
48.2723,-41.2478,-0.0290496,0
48.4223,-41.1217,-0.0396453,0
48.5691,-40.9936,-0.0499285,0
48.715,-40.8672,-0.0594012,0
48.8579,-40.7387,-0.0686199,0
48.9976,-40.6081,-0.077575,0
49.1342,-40.4754,-0.0862664,0
49.2678,-40.3407,-0.0946941,0
49.3981,-40.2041,-0.102868,0
49.5255,-40.0656,-0.110768,0
49.6497,-39.9253,-0.118425,0
49.7708,-39.7832,-0.125817,0
49.8887,-39.6394,-0.132946,0
50.0035,-39.4939,-0.139831,0
50.1152,-39.3469,-0.146442,0
50.2184,-39.1934,-0.1536,0
50.3183,-39.0387,-0.160495,0
50.4151,-38.883,-0.167096,0
50.5088,-38.7262,-0.173405,0
50.5994,-38.5685,-0.17944,0
50.693,-38.4144,-0.184323,0
50.7861,-38.2605,-0.188669,0
50.8763,-38.1054,-0.192731,0
50.9637,-37.949,-0.19652,0
51.0484,-37.7914,-0.200036,0
51.1303,-37.6326,-0.203268,0
51.2094,-37.4727,-0.206218,0
51.2843,-37.3109,-0.209089,0
51.3552,-37.1475,-0.211813,0
51.423,-36.983,-0.214274,0
51.488,-36.8176,-0.216471,0
51.55,-36.6511,-0.218415,0
51.6091,-36.4837,-0.220095,0
51.6651,-36.3154,-0.221511,0
51.7182,-36.1461,-0.222673,0
51.7697,-35.9764,-0.223415,0
51.8196,-35.8061,-0.223747,0
51.8666,-35.6349,-0.223815,0
51.9105,-35.4627,-0.22363,0
51.9516,-35.2896,-0.223171,0
51.9897,-35.1157,-0.222448,0
52.0248,-34.9409,-0.221462,0
52.0568,-34.7652,-0.220212,0
41.6946,-37.5382,-0.269546,174
41.8528,-37.4936,-0.294784,174
41.9946,-37.4633,-0.315927,174
42.0973,-37.4868,-0.325459,174
42.1609,-37.5732,-0.322298,174
42.226,-37.6611,-0.31877,174
42.2925,-37.7505,-0.31486,174
42.341,-37.8809,-0.303377,174
40.6915,-41.616,0.355657,0
40.8683,-41.7065,0.349515,0
41.6415,-40.3678,0.0951808,174
41.845,-40.2944,0.0658554,174
42.0071,-40.3157,0.0537717,174
42.1369,-40.4272,0.0574538,174
42.2555,-40.5843,0.068947,174
42.3709,-40.772,0.0855,174
42.4675,-41.0582,0.117895,174
42.5449,-41.4761,0.170865,174
42.548,-42.3271,0.291077,0
42.7988,-42.0771,0.238288,174
42.9418,-42.3953,0.274407,0
43.1406,-42.4152,0.264974,0
43.3396,-42.4304,0.25553,0
43.5387,-42.4406,0.246087,0
43.7375,-42.4459,0.236624,0
43.9365,-42.4423,0.226575,0
44.1349,-42.434,0.216566,0
44.3328,-42.4211,0.206595,0
44.5298,-42.4036,0.196673,0
44.7261,-42.3815,0.18682,0
44.9213,-42.3548,0.177025,0
45.1155,-42.3237,0.167298,0
45.3077,-42.2799,0.156468,0
45.4977,-42.228,0.145218,0
45.6858,-42.1721,0.134085,0
45.872,-42.1122,0.123099,0
46.056,-42.0482,0.11223,0
46.2381,-41.9804,0.101517,0
46.418,-41.9088,0.0909406,0
46.5955,-41.8334,0.0805012,0
46.7708,-41.7544,0.070218,0
46.9437,-41.6718,0.0601008,0
47.1138,-41.5847,0.0499836,0
47.2811,-41.4937,0.0399836,0
47.4459,-41.3995,0.0301594,0
47.608,-41.3021,0.0205109,0
47.7637,-41.1935,0.00988594,0
47.915,-41.0796,-0.000875778,0
48.0639,-40.9646,-0.0112273,0
48.2112,-40.8497,-0.0209441,0
48.3555,-40.7326,-0.0304266,0
48.497,-40.6132,-0.0396453,0
48.6355,-40.4916,-0.0486199,0
48.771,-40.368,-0.0573406,0
48.9035,-40.2423,-0.0658074,0
49.0331,-40.1145,-0.0740398,0
49.1598,-39.9849,-0.0820086,0
49.2834,-39.8534,-0.0897234,0
49.4041,-39.72,-0.0972039,0
49.5219,-39.5849,-0.104421,0
49.6366,-39.448,-0.111393,0
49.7483,-39.3095,-0.118132,0
49.857,-39.1694,-0.124606,0
49.9628,-39.0277,-0.130837,0
50.0655,-38.8845,-0.136823,0
50.1628,-38.7378,-0.142917,0
50.2546,-38.5879,-0.149147,0
50.3479,-38.4404,-0.154421,0
50.4414,-38.2939,-0.158991,0
50.5322,-38.1461,-0.163298,0
50.6195,-37.9966,-0.167429,0
50.703,-37.8452,-0.171432,0
50.7837,-37.6927,-0.175182,0
50.8616,-37.539,-0.178669,0
50.9367,-37.3842,-0.181901,0
51.0088,-37.2283,-0.18488,0
51.0781,-37.0714,-0.187585,0
51.1445,-36.9134,-0.190055,0
51.2081,-36.7544,-0.192262,0
51.2688,-36.5945,-0.194216,0
51.3266,-36.4336,-0.195925,0
51.3815,-36.2718,-0.19736,0
51.4335,-36.109,-0.198552,0
51.4845,-35.946,-0.199294,0
51.5331,-35.7822,-0.199675,0
51.5791,-35.6175,-0.199802,0
51.6221,-35.4519,-0.199675,0
51.6623,-35.2854,-0.199284,0
51.6995,-35.1181,-0.198639,0
51.7338,-34.9499,-0.197751,0
51.7652,-34.781,-0.196579,0
41.7178,-37.5316,-0.273279,174
41.8748,-37.4874,-0.298273,174
42.0098,-37.4663,-0.31742,174
42.1063,-37.4992,-0.325027,174
42.1702,-37.5858,-0.321814,174
42.2355,-37.6738,-0.318232,174
42.3022,-37.7635,-0.314267,174
42.3414,-37.9136,-0.299193,174
40.7168,-41.6292,0.354778,0
40.8939,-41.7192,0.348616,0
41.6739,-40.3507,0.0897433,174
41.8725,-40.2868,0.0622559,174
42.0271,-40.3272,0.0535324,174
42.1543,-40.4477,0.0587642,174
42.273,-40.6069,0.0706047,174
42.3875,-40.801,0.0882156,174
42.4231,-41.3285,0.159262,174
42.5623,-41.5155,0.175147,174
42.576,-42.3341,0.290111,0
42.8267,-42.0789,0.236669,174
42.9704,-42.3984,0.27304,0
43.1692,-42.4177,0.263616,0
43.3682,-42.4321,0.254173,0
43.5672,-42.4417,0.24473,0
43.7662,-42.4457,0.235179,0
43.9651,-42.4414,0.22513,0
44.1634,-42.4325,0.21513,0
44.3612,-42.4189,0.205169,0
44.558,-42.4007,0.195257,0
44.7542,-42.3779,0.185404,0
44.9493,-42.3506,0.175628,0
45.1434,-42.3189,0.165902,0
45.3351,-42.2727,0.154847,0
45.5248,-42.2203,0.143616,0
45.7127,-42.1637,0.132503,0
45.8985,-42.1032,0.121536,0
46.0823,-42.0387,0.110687,0
46.2641,-41.9704,0.0999836,0
46.4436,-41.8982,0.089427,0
46.6209,-41.8223,0.0790168,0
46.7958,-41.7428,0.0687629,0
46.9684,-41.6596,0.0586555,0
47.138,-41.5718,0.0485481,0
47.3049,-41.4804,0.0385676,0
47.4694,-41.3857,0.0287629,0
47.6311,-41.2879,0.0191438,0
47.7856,-41.1773,0.00833321,0
47.9365,-41.0631,-0.00240898,0
48.0852,-40.9482,-0.0126434,0
48.2321,-40.833,-0.0223309,0
48.3761,-40.7156,-0.0317644,0
48.517,-40.5959,-0.0409539,0
48.6551,-40.474,-0.0498894,0
48.7902,-40.35,-0.0585809,0
48.9224,-40.224,-0.0670086,0
49.0516,-40.096,-0.0751922,0
49.1777,-39.9661,-0.0831316,0
49.301,-39.8343,-0.0908172,0
49.4213,-39.7007,-0.0982586,0
49.5385,-39.5653,-0.105446,0
49.6528,-39.4282,-0.112389,0
49.7641,-39.2895,-0.119079,0
49.8724,-39.1491,-0.125514,0
49.9777,-39.0072,-0.131706,0
50.0799,-38.8638,-0.137653,0
50.1762,-38.7163,-0.143835,0
50.2675,-38.5662,-0.150016,0
50.3615,-38.4194,-0.155095,0
50.4546,-38.2727,-0.159626,0
50.545,-38.1248,-0.163884,0
50.6316,-37.9749,-0.168024,0
50.7148,-37.8234,-0.171989,0
50.7951,-37.6707,-0.1757,0
50.8726,-37.5169,-0.179147,0
50.9472,-37.3619,-0.182341,0
51.0189,-37.2059,-0.18528,0
51.0879,-37.0488,-0.187966,0
51.1538,-36.8906,-0.190387,0
51.217,-36.7315,-0.192555,0
51.2773,-36.5714,-0.194479,0
51.3346,-36.4104,-0.196139,0
51.3891,-36.2484,-0.197555,0
51.4408,-36.0856,-0.198708,0
51.4916,-35.9225,-0.199352,0
51.5399,-35.7586,-0.199714,0
51.5855,-35.5938,-0.199802,0
51.628,-35.428,-0.199636,0
51.6678,-35.2614,-0.199206,0
51.7046,-35.094,-0.198532,0
51.7385,-34.9257,-0.197595,0
51.7695,-34.7566,-0.196393,0
41.7409,-37.5251,-0.276976,174
41.8966,-37.4812,-0.301727,174
42.0249,-37.4692,-0.318904,174
42.1154,-37.5115,-0.324587,174
42.1795,-37.5983,-0.321323,174
42.245,-37.6866,-0.317686,174
42.312,-37.7765,-0.313664,174
42.3419,-37.9467,-0.294946,174
40.7421,-41.6424,0.3539,0
40.9195,-41.7317,0.347728,0
41.7037,-40.3395,0.0853793,174
41.8994,-40.2806,0.0589059,174
42.0472,-40.3388,0.0533029,174
42.1715,-40.4691,0.0602164,174
42.2897,-40.6326,0.0727795,174
42.4042,-40.8302,0.0909572,174
42.4478,-41.3353,0.158325,174
42.5799,-41.5552,0.179468,174
42.6039,-42.341,0.289134,0
42.8517,-42.0966,0.237548,174
42.9989,-42.4015,0.271693,0
43.1977,-42.4201,0.262249,0
43.3967,-42.4338,0.252806,0
43.5958,-42.4427,0.243372,0
43.7948,-42.4454,0.233734,0
43.9936,-42.4404,0.223695,0
44.1919,-42.4308,0.213695,0
44.3895,-42.4165,0.203734,0
44.5863,-42.3977,0.193841,0
44.7823,-42.3743,0.183997,0
44.9773,-42.3464,0.174222,0
45.1711,-42.3139,0.164515,0
45.3625,-42.2654,0.153226,0
45.552,-42.2124,0.142015,0
45.7395,-42.1553,0.130921,0
45.9251,-42.0942,0.119964,0
46.1086,-42.0291,0.109144,0
46.29,-41.9602,0.0984602,0
46.4692,-41.8875,0.087923,0
46.6461,-41.8111,0.0775422,0
46.8207,-41.731,0.067298,0
46.9929,-41.6474,0.0572199,0
47.1621,-41.5589,0.0471027,0
47.3288,-41.467,0.0371418,0
47.4927,-41.3718,0.0273664,0
47.6539,-41.2731,0.0177082,0
47.8075,-41.161,0.00677071,0
47.9579,-41.0465,-0.00393242,0
48.1066,-40.9318,-0.0140398,0
48.253,-40.8163,-0.023698,0
48.3965,-40.6985,-0.0331023,0
48.537,-40.5785,-0.0422527,0
48.6747,-40.4563,-0.0511492,0
48.8094,-40.3321,-0.0598016,0
48.9411,-40.2058,-0.0682,0
49.0698,-40.0775,-0.0763445,0
49.1956,-39.9473,-0.0842547,0
49.3184,-39.8152,-0.0919012,0
49.4384,-39.6814,-0.0993035,0
49.5552,-39.5457,-0.106452,0
49.669,-39.4084,-0.113356,0
49.7798,-39.2694,-0.120016,0
49.8877,-39.1288,-0.126423,0
49.9926,-38.9867,-0.132585,0
50.0945,-38.8431,-0.138493,0
50.1895,-38.6948,-0.144743,0
50.2804,-38.5446,-0.150886,0
50.3751,-38.3984,-0.155768,0
50.4677,-38.2516,-0.160251,0
50.5577,-38.1034,-0.164479,0
50.6437,-37.9532,-0.16861,0
50.7266,-37.8015,-0.172536,0
50.8064,-37.6487,-0.176208,0
50.8834,-37.4946,-0.179616,0
50.9577,-37.3395,-0.18278,0
51.0291,-37.1833,-0.18568,0
51.0975,-37.0261,-0.188327,0
51.1631,-36.8678,-0.19072,0
51.2259,-36.7086,-0.192848,0
51.2857,-36.5483,-0.194733,0
51.3427,-36.3872,-0.196364,0
51.3967,-36.2251,-0.197741,0
51.448,-36.0621,-0.198854,0
51.4987,-35.899,-0.199421,0
51.5466,-35.735,-0.199743,0
51.5917,-35.57,-0.199792,0
51.634,-35.4041,-0.199587,0
51.6732,-35.2374,-0.199128,0
51.7096,-35.0699,-0.198415,0
51.7431,-34.9015,-0.197438,0
51.7737,-34.7323,-0.196198,0
41.7248,-37.4982,-0.245046,174
41.8805,-37.4553,-0.270702,174
42.0155,-37.4334,-0.290679,174
42.1116,-37.466,-0.298503,174
42.175,-37.5517,-0.295108,174
42.2398,-37.6388,-0.291331,174
42.3061,-37.7274,-0.287156,174
42.3488,-37.8681,-0.272951,174
40.8671,-41.2495,0.349554,0
41.0356,-41.3354,0.343685,0
41.6657,-40.3149,0.137082,174
41.8581,-40.266,0.111248,174
42.0206,-40.284,0.0983697,174
42.1529,-40.3858,0.100879,174
42.278,-40.5187,0.109105,174
42.3936,-40.7003,0.125832,174
42.5038,-40.9278,0.150333,174
42.5919,-41.2872,0.196637,174
42.7255,-41.5058,0.21928,174
42.8236,-41.9583,0.280003,0
43.0123,-41.9825,0.271048,0
43.2016,-42.002,0.262083,0
43.3908,-42.017,0.253099,0
43.5802,-42.0273,0.244114,0
43.7695,-42.0331,0.23514,0
43.9586,-42.0342,0.226165,0
44.1475,-42.0308,0.2172,0
44.3359,-42.0193,0.207698,0
44.5238,-42.0033,0.198245,0
44.7109,-41.983,0.188851,0
44.897,-41.9583,0.179505,0
45.0823,-41.9294,0.170228,0
45.2658,-41.8909,0.160218,0
45.4471,-41.8427,0.149476,0
45.6267,-41.7906,0.138851,0
45.8045,-41.7346,0.128343,0
45.9805,-41.6748,0.117962,0
46.1545,-41.6113,0.107708,0
46.3264,-41.5441,0.0975813,0
46.4963,-41.4733,0.0876106,0
46.6639,-41.399,0.0777668,0
46.8294,-41.3212,0.0680695,0
46.9926,-41.24,0.0585285,0
47.1533,-41.1555,0.049134,0
47.3117,-41.0678,0.0398957,0
47.468,-40.9777,0.0309309,0
47.623,-40.8868,0.0224836,0
47.7714,-40.7847,0.0129621,0
47.9163,-40.6785,0.00343086,0
48.0585,-40.5699,-0.00588554,0
48.1978,-40.4588,-0.0149871,0
48.3342,-40.3451,-0.0239031,0
48.4678,-40.2294,-0.0325848,0
48.5986,-40.1115,-0.0410125,0
48.7265,-39.9916,-0.0492059,0
48.8516,-39.8697,-0.0571648,0
48.974,-39.746,-0.0648699,0
49.0934,-39.6203,-0.0723504,0
49.2099,-39.4929,-0.0795867,0
49.3237,-39.3636,-0.0865789,0
49.4345,-39.2327,-0.0933367,0
49.5424,-39.1001,-0.0998602,0
49.6472,-38.9656,-0.106208,0
49.749,-38.8295,-0.112321,0
49.8478,-38.6918,-0.1182,0
49.9437,-38.5527,-0.123854,0
50.041,-38.4157,-0.128561,0
50.1359,-38.2773,-0.133005,0
50.225,-38.1354,-0.137643,0
50.3115,-37.9922,-0.142038,0
50.3952,-37.8477,-0.146169,0
50.4761,-37.7021,-0.150065,0
50.5542,-37.5552,-0.153698,0
50.6296,-37.4073,-0.157087,0
50.7022,-37.2582,-0.160231,0
50.772,-37.108,-0.163112,0
50.8391,-36.9568,-0.165759,0
50.9033,-36.8046,-0.168161,0
50.9648,-36.6514,-0.1703,0
51.0234,-36.4972,-0.172194,0
51.0792,-36.3421,-0.173845,0
51.1323,-36.1861,-0.175251,0
51.1829,-36.0293,-0.176345,0
51.2327,-35.8723,-0.17695,0
51.2796,-35.7143,-0.177321,0
51.3237,-35.5554,-0.177429,0
51.3651,-35.3957,-0.177302,0
51.4036,-35.2351,-0.176911,0
51.4394,-35.0737,-0.176276,0
51.4721,-34.9115,-0.175378,0
51.5022,-34.7485,-0.174245,0
41.7477,-37.4919,-0.24884,174
41.9022,-37.4493,-0.274249,174
42.0305,-37.4364,-0.292195,174
42.1206,-37.4782,-0.298038,174
42.1842,-37.5641,-0.29459,174
42.2492,-37.6514,-0.290756,174
