41.4233,-21.0446,0.440482,0
41.4284,-20.9646,0.441165,0
41.432,-20.8845,0.441868,0
41.4338,-20.8043,0.442591,0
41.4339,-20.7241,0.443363,0
41.4322,-20.6438,0.444144,0
41.4287,-20.5636,0.444964,0
41.4236,-20.4834,0.445814,0
41.4168,-20.4033,0.446673,0
41.4081,-20.3233,0.447562,0
41.3977,-20.2434,0.448489,0
41.3856,-20.1638,0.449437,0
41.3716,-20.0844,0.450364,0
41.3554,-20.0055,0.451077,0
37.5284,-24.3522,0.456165,0
37.6095,-24.3586,0.455892,0
37.6908,-24.3631,0.455618,0
37.772,-24.3656,0.455306,0
37.8534,-24.365,0.454534,0
37.9346,-24.3625,0.453773,0
38.0156,-24.3581,0.453021,0
38.0965,-24.352,0.452269,0
38.177,-24.344,0.451536,0
38.2574,-24.3341,0.450804,0
38.3374,-24.3224,0.450071,0
38.417,-24.309,0.449368,0
38.4963,-24.2937,0.448665,0
38.5751,-24.2767,0.447972,0
38.6534,-24.2579,0.447288,0
38.7313,-24.2373,0.446605,0
38.8084,-24.215,0.445941,0
38.8851,-24.191,0.445296,0
38.9611,-24.1652,0.444652,0
39.0364,-24.1378,0.444027,0
39.1111,-24.1087,0.443411,0
39.1849,-24.078,0.442816,0
39.2581,-24.0457,0.44222,0
39.3304,-24.0117,0.441644,0
39.4018,-23.9762,0.441068,0
39.4724,-23.939,0.440521,0
39.5421,-23.9004,0.439993,0
39.6108,-23.8602,0.439456,0
39.6786,-23.8185,0.438948,0
39.7453,-23.7754,0.43845,0
39.8109,-23.7308,0.437972,0
39.8758,-23.685,0.43763,0
39.9398,-23.6382,0.437464,0
40.0028,-23.5901,0.437327,0
40.0645,-23.5406,0.43721,0
40.1252,-23.4898,0.437112,0
40.1847,-23.4376,0.437044,0
40.243,-23.3842,0.436956,0
40.2995,-23.3288,0.436575,0
40.3547,-23.2723,0.436253,0
40.4086,-23.2147,0.435941,0
40.4612,-23.1559,0.435667,0
40.5125,-23.0961,0.435423,0
40.5624,-23.0351,0.435208,0
40.6111,-22.9732,0.435032,0
40.6583,-22.9102,0.434886,0
40.7041,-22.8463,0.434769,0
40.7485,-22.7814,0.434671,0
40.7915,-22.7156,0.434622,0
40.833,-22.6489,0.434593,0
40.873,-22.5814,0.434612,0
40.9116,-22.513,0.434642,0
40.9487,-22.4439,0.43471,0
40.9843,-22.3739,0.434818,0
41.0184,-22.3033,0.434945,0
41.0509,-22.2319,0.435111,0
41.0818,-22.1599,0.435306,0
41.1111,-22.0872,0.43553,0
41.1389,-22.0139,0.435794,0
41.1651,-21.9401,0.436068,0
41.1898,-21.8657,0.43639,0
41.2127,-21.7908,0.436732,0
41.2341,-21.7154,0.437112,0
41.2537,-21.6396,0.437523,0
41.2719,-21.5633,0.437952,0
41.2883,-21.4867,0.438431,0
41.303,-21.4097,0.438919,0
41.3162,-21.3324,0.439446,0
41.3277,-21.2549,0.440003,0
41.3373,-21.1771,0.440589,0
41.3455,-21.099,0.441204,0
41.352,-21.0208,0.441839,0
41.3566,-20.9425,0.442503,0
41.3596,-20.864,0.443206,0
41.3609,-20.7855,0.443929,0
41.3605,-20.7069,0.444681,0
41.3585,-20.6283,0.445462,0
41.3546,-20.5498,0.446263,0
41.3491,-20.4713,0.447093,0
41.342,-20.3929,0.447962,0
41.333,-20.3146,0.448841,0
41.3224,-20.2365,0.449739,0
41.3102,-20.1586,0.450677,0
41.2954,-20.0811,0.451351,0
41.2789,-20.0039,0.452044,0
37.0364,-24.2697,0.456946,0
37.1156,-24.2891,0.457249,0
37.1955,-24.3062,0.457357,0
37.2759,-24.3202,0.457064,0
37.3565,-24.3324,0.456761,0
37.4373,-24.3428,0.456478,0
37.5184,-24.3513,0.456204,0
37.5996,-24.3579,0.455911,0
37.6808,-24.3626,0.455648,0
37.7621,-24.3655,0.455384,0
37.8434,-24.3651,0.454622,0
37.9246,-24.3629,0.453861,0
38.0057,-24.3588,0.453109,0
38.0866,-24.3528,0.452357,0
38.1673,-24.345,0.451624,0
38.2476,-24.3354,0.450892,0
38.3277,-24.324,0.450169,0
38.4073,-24.3107,0.449456,0
38.4866,-24.2957,0.448753,0
38.5655,-24.2788,0.44806,0
38.6438,-24.2603,0.447366,0
38.7217,-24.2399,0.446693,0
38.799,-24.2178,0.446029,0
38.8758,-24.194,0.445374,0
38.9518,-24.1685,0.444739,0
39.0272,-24.1413,0.444105,0
39.102,-24.1124,0.443489,0
39.176,-24.0819,0.442884,0
39.2492,-24.0497,0.442298,0
39.3216,-24.0159,0.441712,0
39.3931,-23.9806,0.441146,0
39.4638,-23.9437,0.440589,0
39.5336,-23.9052,0.440042,0
39.6024,-23.8652,0.439525,0
39.6703,-23.8237,0.439007,0
39.7372,-23.7807,0.438509,0
39.803,-23.7363,0.43803,0
39.8679,-23.6907,0.43765,0
39.932,-23.644,0.437484,0
39.9951,-23.5961,0.437347,0
40.057,-23.5467,0.43722,0
40.1178,-23.4961,0.437122,0
40.1776,-23.4441,0.437054,0
40.236,-23.3908,0.437005,0
40.2926,-23.3357,0.436634,0
40.348,-23.2793,0.436292,0
40.402,-23.2218,0.43598,0
40.4548,-23.1632,0.435696,0
40.5062,-23.1034,0.435452,0
40.5564,-23.0427,0.435237,0
40.6052,-22.9808,0.435052,0
40.6527,-22.918,0.434896,0
40.6986,-22.8542,0.434788,0
40.7432,-22.7894,0.434691,0
40.7864,-22.7237,0.434632,0
40.828,-22.6571,0.434603,0
40.8683,-22.5897,0.434603,0
40.907,-22.5214,0.434632,0
40.9443,-22.4524,0.4347,0
40.9801,-22.3825,0.434798,0
41.0143,-22.312,0.434935,0
41.047,-22.2407,0.435091,0
41.078,-22.1687,0.435277,0
41.1077,-22.0961,0.435491,0
41.1356,-22.0229,0.435755,0
41.162,-21.9492,0.436038,0
41.1868,-21.8748,0.436351,0
41.2099,-21.8,0.436693,0
41.2315,-21.7246,0.437064,0
41.2514,-21.6489,0.437474,0
41.2698,-21.5727,0.437904,0
41.2864,-21.4961,0.438362,0
41.3013,-21.4191,0.438861,0
41.3147,-21.3419,0.439378,0
41.3263,-21.2644,0.439935,0
41.3363,-21.1866,0.440511,0
41.3446,-21.1086,0.441126,0
41.3512,-21.0304,0.441761,0
41.3562,-20.9521,0.442425,0
41.3593,-20.8736,0.443118,0
41.3608,-20.7951,0.443841,0
41.3607,-20.7165,0.444583,0
41.3587,-20.6379,0.445364,0
41.3552,-20.5594,0.446165,0
41.3499,-20.4809,0.446995,0
41.343,-20.4024,0.447845,0
41.3343,-20.3242,0.448734,0
41.3239,-20.246,0.449632,0
41.3117,-20.1681,0.45056,0
41.2973,-20.0905,0.451263,0
41.281,-20.0133,0.451956,0
37.0267,-24.2672,0.456898,0
37.1059,-24.2868,0.45721,0
37.1857,-24.3043,0.457396,0
37.266,-24.3186,0.457103,0
37.3466,-24.331,0.45681,0
37.4275,-24.3416,0.456517,0
37.5085,-24.3503,0.456234,0
37.5896,-24.3572,0.45596,0
37.6709,-24.3621,0.455687,0
37.7521,-24.3652,0.455413,0
37.8334,-24.3653,0.45472,0
37.9147,-24.3633,0.453958,0
37.9958,-24.3594,0.453206,0
38.0767,-24.3536,0.452445,0
38.1573,-24.3461,0.451712,0
38.2377,-24.3367,0.45098,0
38.3178,-24.3255,0.450257,0
38.3976,-24.3124,0.449534,0
38.4769,-24.2976,0.448831,0
38.5559,-24.281,0.448138,0
38.6342,-24.2626,0.447454,0
38.7122,-24.2425,0.446771,0
38.7896,-24.2206,0.446116,0
38.8664,-24.197,0.445452,0
38.9426,-24.1717,0.444818,0
39.018,-24.1447,0.444183,0
39.0929,-24.116,0.443558,0
39.167,-24.0857,0.442952,0
39.2402,-24.0537,0.442366,0
39.3127,-24.0202,0.44178,0
39.3845,-23.985,0.441214,0
39.4552,-23.9483,0.440657,0
39.5252,-23.91,0.440111,0
39.5941,-23.8702,0.439583,0
39.662,-23.8288,0.439075,0
39.729,-23.786,0.438568,0
39.795,-23.7418,0.438089,0
39.86,-23.6963,0.437679,0
39.9243,-23.6498,0.437503,0
39.9875,-23.602,0.437357,0
40.0495,-23.5528,0.437239,0
40.1105,-23.5023,0.437132,0
40.1703,-23.4505,0.437064,0
40.2289,-23.3974,0.437015,0
40.2857,-23.3425,0.436673,0
40.3412,-23.2862,0.436321,0
40.3955,-23.2289,0.436019,0
40.4484,-23.1704,0.435736,0
40.5001,-23.1108,0.435491,0
40.5504,-23.0501,0.435267,0
40.5993,-22.9884,0.435071,0
40.6469,-22.9257,0.434925,0
40.693,-22.862,0.434788,0
40.7378,-22.7974,0.4347,0
40.7812,-22.7318,0.434632,0
40.823,-22.6653,0.434603,0
40.8634,-22.598,0.434603,0
40.9024,-22.5298,0.434632,0
40.9398,-22.4609,0.4347,0
40.9758,-22.3911,0.434788,0
41.0102,-22.3207,0.434915,0
41.043,-22.2495,0.435071,0
41.0744,-22.1776,0.435257,0
41.1041,-22.1051,0.435472,0
41.1323,-22.0319,0.435726,0
41.1588,-21.9582,0.436009,0
41.1838,-21.8839,0.436312,0
41.2073,-21.8092,0.436653,0
41.229,-21.7339,0.437015,0
41.2491,-21.6582,0.437415,0
41.2677,-21.582,0.437845,0
41.2845,-21.5055,0.438314,0
41.2996,-21.4286,0.438802,0
41.3132,-21.3514,0.43932,0
41.325,-21.2739,0.439857,0
41.3352,-21.1961,0.440443,0
41.3436,-21.1181,0.441048,0
41.3505,-21.04,0.441683,0
41.3556,-20.9617,0.442337,0
41.359,-20.8832,0.44303,0
41.3607,-20.8047,0.443753,0
41.3608,-20.7261,0.444495,0
41.3591,-20.6475,0.445267,0
41.3558,-20.569,0.446068,0
41.3506,-20.4905,0.446898,0
41.3438,-20.412,0.447747,0
41.3354,-20.3337,0.448616,0
41.3252,-20.2556,0.449525,0
41.3133,-20.1776,0.450443,0
41.2991,-20.1,0.451175,0
41.2831,-20.0227,0.451868,0
37.5372,-24.2753,0.45638,0
37.6166,-24.2816,0.456116,0
37.696,-24.286,0.455843,0
37.7755,-24.2885,0.455521,0
37.8551,-24.2879,0.454769,0
37.9346,-24.2856,0.454017,0
38.0138,-24.2814,0.453284,0
38.0929,-24.2754,0.452552,0
38.1718,-24.2676,0.45182,0
38.2504,-24.2581,0.451107,0
38.3287,-24.2467,0.450404,0
38.4066,-24.2337,0.44971,0
38.4841,-24.2188,0.449007,0
38.5612,-24.2022,0.448343,0
38.6379,-24.1838,0.447669,0
38.7141,-24.1638,0.447005,0
38.7897,-24.142,0.446361,0
38.8647,-24.1186,0.445716,0
38.939,-24.0935,0.445091,0
39.0127,-24.0667,0.444476,0
39.0858,-24.0383,0.44388,0
39.1582,-24.0083,0.443284,0
39.2298,-23.9767,0.442708,0
39.3005,-23.9435,0.442142,0
39.3705,-23.9088,0.441585,0
39.4395,-23.8725,0.441038,0
39.5078,-23.8347,0.440521,0
39.5751,-23.7955,0.440003,0
39.6414,-23.7547,0.439505,0
39.7068,-23.7126,0.439017,0
39.7714,-23.6695,0.438773,0
39.8351,-23.6251,0.438587,0
39.8978,-23.5793,0.438421,0
39.9595,-23.5322,0.438284,0
40.02,-23.4837,0.438177,0
40.0794,-23.434,0.438079,0
40.1377,-23.383,0.438011,0
40.1948,-23.3307,0.437962,0
40.2505,-23.2771,0.437845,0
40.3047,-23.2218,0.437513,0
40.3575,-23.1654,0.43722,0
40.4091,-23.1078,0.436946,0
40.4594,-23.0492,0.436712,0
40.5083,-22.9896,0.436497,0
40.5559,-22.9289,0.436321,0
40.6023,-22.8673,0.436175,0
40.6471,-22.8047,0.436058,0
40.6907,-22.7412,0.43598,0
40.7327,-22.6767,0.435921,0
40.7735,-22.6114,0.435902,0
40.8127,-22.5453,0.435892,0
40.8505,-22.4783,0.435941,0
40.8869,-22.4106,0.436009,0
40.9217,-22.3421,0.436107,0
40.9551,-22.2729,0.436234,0
40.987,-22.203,0.43639,0
41.0173,-22.1325,0.436585,0
41.0459,-22.0613,0.4368,0
41.0733,-21.9895,0.437064,0
41.0989,-21.9172,0.437337,0
41.123,-21.8443,0.43765,0
41.1455,-21.7709,0.437982,0
41.1664,-21.6971,0.438353,0
41.1858,-21.6228,0.438753,0
41.2034,-21.5481,0.439183,0
41.2195,-21.4731,0.439642,0
41.234,-21.3977,0.44013,0
41.2468,-21.322,0.440638,0
41.258,-21.246,0.441195,0
41.2676,-21.1698,0.441761,0
41.2755,-21.0934,0.442366,0
41.2817,-21.0168,0.442991,0
41.2863,-20.94,0.443636,0
41.2893,-20.8632,0.444329,0
41.2905,-20.7862,0.445032,0
41.2901,-20.7093,0.445775,0
41.288,-20.6323,0.446536,0
41.2843,-20.5554,0.447327,0
41.2788,-20.4785,0.448148,0
41.2718,-20.4017,0.448978,0
41.263,-20.3251,0.449847,0
41.2527,-20.2486,0.450736,0
41.24,-20.1724,0.451468,0
41.2255,-20.0965,0.452132,0
41.2095,-20.0209,0.452816,0
37.0562,-24.1934,0.456761,0
37.1338,-24.2124,0.457064,0
37.2116,-24.2296,0.457366,0
37.2902,-24.2439,0.457259,0
37.3691,-24.2559,0.456976,0
37.4482,-24.266,0.456693,0
37.5274,-24.2744,0.456409,0
37.6068,-24.2809,0.456146,0
37.6863,-24.2856,0.455882,0
37.7659,-24.2884,0.455609,0
37.8454,-24.2881,0.454857,0
37.9248,-24.286,0.454114,0
38.0041,-24.282,0.453372,0
38.0833,-24.2763,0.45264,0
38.1621,-24.2687,0.451907,0
38.2408,-24.2594,0.451195,0
38.3191,-24.2482,0.450482,0
38.397,-24.2353,0.449788,0
38.4746,-24.2207,0.449095,0
38.5519,-24.2043,0.448411,0
38.6285,-24.1862,0.447747,0
38.7048,-24.1663,0.447083,0
38.7804,-24.1448,0.446439,0
38.8555,-24.1215,0.445794,0
38.93,-24.0966,0.445169,0
39.0037,-24.0701,0.444554,0
39.0769,-24.0419,0.443948,0
39.1494,-24.0121,0.443353,0
39.221,-23.9807,0.442777,0
39.2919,-23.9477,0.44221,0
39.362,-23.9131,0.441654,0
39.4311,-23.8771,0.441116,0
39.4995,-23.8394,0.440579,0
39.5669,-23.8003,0.440062,0
39.6334,-23.7598,0.439564,0
39.6987,-23.7178,0.439075,0
39.7635,-23.6748,0.438792,0
39.8274,-23.6306,0.438607,0
39.8902,-23.585,0.438441,0
39.952,-23.538,0.438304,0
40.0127,-23.4897,0.438187,0
40.0721,-23.4401,0.438089,0
40.1305,-23.3893,0.438021,0
40.1879,-23.3372,0.437972,0
40.2438,-23.2838,0.437894,0
40.2981,-23.2286,0.437562,0
40.3511,-23.1723,0.437249,0
40.4028,-23.1149,0.436986,0
40.4533,-23.0564,0.436732,0
40.5024,-22.9969,0.436527,0
40.5502,-22.9364,0.436341,0
40.5966,-22.8749,0.436185,0
40.6418,-22.8124,0.436077,0
40.6854,-22.749,0.43598,0
40.7277,-22.6847,0.435931,0
40.7686,-22.6195,0.435892,0
40.808,-22.5534,0.435892,0
40.846,-22.4866,0.435931,0
40.8825,-22.4189,0.435989,0
40.9176,-22.3505,0.436087,0
40.951,-22.2814,0.436214,0
40.983,-22.2116,0.43638,0
41.0136,-22.1412,0.436566,0
41.0426,-22.0701,0.43678,0
41.0699,-21.9983,0.437025,0
41.0958,-21.9261,0.437308,0
41.1201,-21.8533,0.437611,0
41.1428,-21.78,0.437943,0
41.164,-21.7062,0.438304,0
41.1835,-21.6319,0.438704,0
41.2013,-21.5573,0.439134,0
41.2177,-21.4823,0.439583,0
41.2323,-21.4069,0.440071,0
41.2453,-21.3313,0.440579,0
41.2568,-21.2553,0.441116,0
41.2665,-21.1791,0.441693,0
41.2745,-21.1027,0.442288,0
41.281,-21.0262,0.442913,0
41.2859,-20.9494,0.443568,0
41.289,-20.8726,0.444241,0
41.2904,-20.7957,0.444945,0
41.2902,-20.7187,0.445687,0
41.2884,-20.6417,0.446439,0
41.2848,-20.5648,0.44723,0
41.2796,-20.4879,0.44804,0
41.2727,-20.4111,0.44888,0
41.2641,-20.3344,0.449739,0
41.254,-20.2579,0.450628,0
41.2417,-20.1817,0.4514,0
41.2274,-20.1058,0.452054,0
41.2116,-20.0301,0.452737,0
37.0468,-24.191,0.456732,0
37.1243,-24.2102,0.457034,0
37.2022,-24.2276,0.457337,0
37.2806,-24.2423,0.457288,0
37.3595,-24.2545,0.457005,0
37.4385,-24.2649,0.456732,0
37.5177,-24.2735,0.456448,0
37.5971,-24.2802,0.456175,0
37.6766,-24.2851,0.455911,0
37.7561,-24.2882,0.455648,0
37.8356,-24.2882,0.454945,0
37.9152,-24.2863,0.454193,0
37.9945,-24.2826,0.45346,0
38.0736,-24.2771,0.452718,0
38.1526,-24.2697,0.451995,0
38.2312,-24.2606,0.451282,0
38.3095,-24.2497,0.450579,0
38.3876,-24.237,0.449866,0
38.4652,-24.2226,0.449173,0
38.5424,-24.2064,0.448499,0
38.6191,-24.1885,0.447825,0
38.6955,-24.1688,0.447171,0
38.7712,-24.1475,0.446517,0
38.8463,-24.1245,0.445872,0
38.9209,-24.0998,0.445257,0
38.9948,-24.0734,0.444622,0
39.068,-24.0454,0.444017,0
39.1405,-24.0158,0.443431,0
39.2123,-23.9846,0.442845,0
39.2833,-23.9518,0.442279,0
39.3534,-23.9174,0.441722,0
39.4227,-23.8815,0.441175,0
39.4912,-23.8441,0.440648,0
39.5587,-23.8052,0.44012,0
39.6252,-23.7648,0.439622,0
39.6909,-23.723,0.439124,0
39.7556,-23.6801,0.438821,0
39.8196,-23.636,0.438626,0
39.8826,-23.5906,0.43846,0
39.9445,-23.5438,0.438314,0
40.0052,-23.4957,0.438206,0
40.065,-23.4463,0.438099,0
40.1235,-23.3956,0.43803,0
40.1809,-23.3436,0.437982,0
40.2371,-23.2904,0.437933,0
40.2916,-23.2354,0.437601,0
40.3447,-23.1793,0.437288,0
40.3966,-23.122,0.437015,0
40.4472,-23.0637,0.436761,0
40.4965,-23.0043,0.436546,0
40.5445,-22.9439,0.436361,0
40.591,-22.8825,0.436214,0
40.6362,-22.8201,0.436087,0
40.6802,-22.7568,0.435999,0
40.7226,-22.6926,0.435931,0
40.7637,-22.6275,0.435902,0
40.8033,-22.5616,0.435902,0
40.8414,-22.4948,0.435931,0
40.8781,-22.4273,0.435989,0
40.9134,-22.359,0.436077,0
40.947,-22.2899,0.436204,0
40.9792,-22.2202,0.436351,0
41.0099,-22.1498,0.436536,0
41.0391,-22.0788,0.436751,0
41.0667,-22.0072,0.436995,0
41.0928,-21.9349,0.437269,0
41.1172,-21.8622,0.437571,0
41.1402,-21.7889,0.437904,0
41.1615,-21.7152,0.438255,0
41.1812,-21.641,0.438655,0
41.1992,-21.5664,0.439075,0
41.2158,-21.4915,0.439534,0
41.2306,-21.4162,0.440013,0
41.2438,-21.3405,0.440521,0
41.2554,-21.2646,0.441048,0
41.2654,-21.1885,0.441624,0
41.2737,-21.1121,0.44221,0
41.2804,-21.0355,0.442835,0
41.2853,-20.9588,0.44348,0
41.2887,-20.882,0.444154,0
41.2903,-20.8051,0.444857,0
41.2903,-20.7281,0.445589,0
41.2887,-20.6512,0.446351,0
41.2853,-20.5742,0.447132,0
41.2804,-20.4973,0.447933,0
41.2737,-20.4205,0.448773,0
41.2653,-20.3438,0.449632,0
41.2553,-20.2673,0.450521,0
41.2434,-20.191,0.451312,0
41.2292,-20.115,0.451976,0
41.2136,-20.0394,0.45265,0
37.5457,-24.2013,0.456585,0
37.6234,-24.2075,0.456321,0
37.7012,-24.2118,0.456058,0
37.779,-24.2142,0.455716,0
37.8568,-24.2138,0.454984,0
37.9345,-24.2115,0.454251,0
38.0121,-24.2075,0.453528,0
38.0895,-24.2018,0.452816,0
38.1667,-24.1942,0.452103,0
38.2436,-24.1849,0.4514,0
38.3202,-24.1739,0.450716,0
38.3966,-24.1611,0.450023,0
38.4724,-24.1466,0.449349,0
38.5479,-24.1305,0.448695,0
38.623,-24.1126,0.44803,0
38.6975,-24.093,0.447386,0
38.7715,-24.0718,0.446761,0
38.8449,-24.0489,0.446126,0
38.9178,-24.0244,0.445511,0
38.99,-23.9982,0.444915,0
39.0616,-23.9705,0.44432,0
39.1323,-23.9412,0.443743,0
39.2024,-23.9103,0.443177,0
39.2717,-23.8779,0.44262,0
39.3402,-23.8439,0.442083,0
39.4079,-23.8085,0.441546,0
39.4747,-23.7715,0.441029,0
39.5406,-23.7331,0.440521,0
39.6057,-23.6935,0.440111,0
39.6701,-23.6528,0.439886,0
39.7334,-23.6107,0.439681,0
39.7959,-23.5672,0.439505,0
39.8573,-23.5225,0.439359,0
39.9177,-23.4763,0.439212,0
39.977,-23.4289,0.439105,0
40.0352,-23.3802,0.439007,0
40.0923,-23.3303,0.438948,0
40.1483,-23.2791,0.43889,0
40.2031,-23.2268,0.43887,0
40.2564,-23.173,0.438743,0
40.3083,-23.1178,0.43845,0
40.3588,-23.0614,0.438187,0
40.4081,-23.004,0.437952,0
40.4561,-22.9456,0.437737,0
40.5028,-22.8862,0.437571,0
40.5482,-22.8259,0.437425,0
40.5922,-22.7646,0.437308,0
40.6348,-22.7023,0.43723,0
40.6762,-22.6392,0.437171,0
40.716,-22.5753,0.437152,0
40.7545,-22.5105,0.437161,0
40.7916,-22.4449,0.437191,0
40.8272,-22.3785,0.437259,0
40.8613,-22.3114,0.437357,0
40.8941,-22.2436,0.437474,0
40.9252,-22.1752,0.43763,0
40.9549,-22.106,0.437816,0
40.9831,-22.0363,0.43804,0
41.0098,-21.966,0.438275,0
41.0349,-21.8951,0.438558,0
41.0585,-21.8237,0.438861,0
41.0806,-21.7518,0.439193,0
41.1012,-21.6795,0.439564,0
41.1201,-21.6067,0.439945,0
41.1374,-21.5335,0.440364,0
41.1532,-21.46,0.440823,0
41.1673,-21.3861,0.441292,0
41.1798,-21.3119,0.4418,0
41.1909,-21.2375,0.442327,0
41.2002,-21.1628,0.442894,0
41.2079,-21.0879,0.44348,0
41.214,-21.0129,0.444095,0
41.2184,-20.9377,0.444739,0
41.2213,-20.8624,0.445404,0
41.2225,-20.787,0.446107,0
41.2222,-20.7116,0.446829,0
41.2201,-20.6362,0.447571,0
41.2163,-20.5608,0.448353,0
41.2111,-20.4855,0.449144,0
41.2041,-20.4103,0.449974,0
41.1955,-20.3352,0.450814,0
41.185,-20.2603,0.451614,0
41.1725,-20.1857,0.452239,0
41.1582,-20.1113,0.452894,0
41.1425,-20.0373,0.453568,0
37.0754,-24.12,0.456585,0
37.1512,-24.1387,0.456898,0
37.2274,-24.1554,0.457181,0
37.3041,-24.1704,0.457445,0
37.3812,-24.1822,0.457161,0
37.4586,-24.1922,0.456898,0
37.5362,-24.2004,0.456624,0
37.6138,-24.2068,0.456351,0
37.6916,-24.2114,0.456087,0
37.7695,-24.2142,0.455814,0
37.8473,-24.2139,0.455071,0
37.925,-24.2119,0.454339,0
38.0027,-24.2081,0.453607,0
38.0801,-24.2026,0.452904,0
38.1573,-24.1952,0.452191,0
38.2343,-24.1862,0.451487,0
38.3109,-24.1753,0.450794,0
38.3873,-24.1628,0.450111,0
38.4632,-24.1485,0.449437,0
38.5387,-24.1325,0.448773,0
38.6138,-24.1149,0.448118,0
38.6884,-24.0955,0.447464,0
38.7625,-24.0745,0.446829,0
38.836,-24.0518,0.446204,0
38.9089,-24.0275,0.445589,0
38.9812,-24.0015,0.444984,0
39.0528,-23.974,0.444398,0
39.1237,-23.9449,0.443812,0
39.1939,-23.9142,0.443245,0
39.2633,-23.8819,0.442689,0
39.3319,-23.8482,0.442142,0
39.3997,-23.8129,0.441614,0
39.4666,-23.7761,0.441087,0
39.5326,-23.7379,0.440589,0
39.5977,-23.6983,0.44014,0
39.6622,-23.6578,0.439915,0
39.7258,-23.6159,0.43971,0
39.7883,-23.5726,0.439525,0
39.8498,-23.528,0.439368,0
39.9103,-23.482,0.439232,0
39.9698,-23.4348,0.439114,0
40.0281,-23.3862,0.439017,0
40.0854,-23.3365,0.438948,0
40.1415,-23.2854,0.4389,0
40.1964,-23.2332,0.43887,0
40.25,-23.1797,0.438782,0
40.302,-23.1246,0.43848,0
40.3527,-23.0684,0.438216,0
40.4022,-23.0111,0.437972,0
40.4502,-22.9528,0.437767,0
40.4972,-22.8936,0.437591,0
40.5427,-22.8333,0.437435,0
40.5869,-22.7721,0.437327,0
40.6297,-22.71,0.43723,0
40.6712,-22.647,0.437181,0
40.7112,-22.5831,0.437152,0
40.7498,-22.5184,0.437152,0
40.7871,-22.4529,0.437181,0
40.8229,-22.3867,0.437249,0
40.8573,-22.3197,0.437347,0
40.8901,-22.252,0.437464,0
40.9215,-22.1836,0.437611,0
40.9514,-22.1145,0.437796,0
40.9798,-22.0449,0.438011,0
41.0066,-21.9746,0.438255,0
41.032,-21.9038,0.438529,0
41.0558,-21.8325,0.438821,0
41.078,-21.7606,0.439154,0
41.0987,-21.6883,0.439515,0
41.1178,-21.6156,0.439896,0
41.1354,-21.5425,0.440316,0
41.1513,-21.469,0.440765,0
41.1657,-21.3951,0.441234,0
41.1784,-21.321,0.441732,0
41.1896,-21.2466,0.442269,0
41.1991,-21.1719,0.442816,0
41.2071,-21.0971,0.443402,0
41.2134,-21.022,0.444017,0
41.218,-20.9469,0.444652,0
41.2211,-20.8716,0.445325,0
41.2225,-20.7962,0.446019,0
41.2223,-20.7208,0.446732,0
41.2204,-20.6454,0.447484,0
41.2169,-20.57,0.448255,0
41.2117,-20.4947,0.449046,0
41.205,-20.4195,0.449866,0
41.1966,-20.3444,0.450716,0
41.1864,-20.2694,0.451536,0
41.1741,-20.1948,0.452171,0
41.1601,-20.1204,0.452806,0
41.1445,-20.0464,0.45348,0
37.0661,-24.1176,0.456556,0
37.1419,-24.1365,0.456849,0
37.2181,-24.1535,0.457142,0
37.2946,-24.1687,0.457435,0
37.3717,-24.1809,0.4572,0
37.4491,-24.1911,0.456927,0
37.5267,-24.1995,0.456654,0
37.6044,-24.2061,0.45638,0
37.6821,-24.211,0.456126,0
37.7599,-24.214,0.455872,0
37.8377,-24.2141,0.455159,0
37.9155,-24.2122,0.454427,0
37.9931,-24.2087,0.453695,0
38.0706,-24.2033,0.452982,0
38.1479,-24.1962,0.452269,0
38.2248,-24.1874,0.451575,0
38.3016,-24.1767,0.450882,0
38.3779,-24.1644,0.450189,0
38.4539,-24.1503,0.449515,0
38.5295,-24.1346,0.448841,0
38.6046,-24.1171,0.448187,0
38.6794,-24.0979,0.447542,0
38.7534,-24.0771,0.446907,0
38.827,-24.0546,0.446282,0
38.9,-24.0305,0.445667,0
38.9724,-24.0048,0.445052,0
39.0441,-23.9774,0.444456,0
39.1151,-23.9485,0.44388,0
39.1853,-23.918,0.443314,0
39.2548,-23.886,0.442757,0
39.3236,-23.8524,0.44221,0
39.3915,-23.8173,0.441683,0
39.4585,-23.7807,0.441155,0
39.5246,-23.7427,0.440648,0
39.5898,-23.7032,0.440179,0
39.6544,-23.6629,0.439935,0
39.718,-23.6211,0.43973,0
39.7807,-23.578,0.439544,0
39.8423,-23.5335,0.439388,0
39.903,-23.4877,0.439241,0
39.9626,-23.4406,0.439124,0
40.021,-23.3923,0.439027,0
40.0784,-23.3426,0.438958,0
40.1347,-23.2918,0.4389,0
40.1898,-23.2397,0.43887,0
40.2436,-23.1864,0.438821,0
40.2957,-23.1314,0.438519,0
40.3466,-23.0753,0.438245,0
40.3961,-23.0182,0.438011,0
40.4445,-22.96,0.437786,0
40.4915,-22.9009,0.437611,0
40.5372,-22.8407,0.437454,0
40.5815,-22.7796,0.437337,0
40.6245,-22.7176,0.437239,0
40.6662,-22.6547,0.437181,0
40.7064,-22.591,0.437152,0
40.7452,-22.5264,0.437142,0
40.7826,-22.461,0.437181,0
40.8186,-22.3948,0.437239,0
40.8531,-22.3279,0.437327,0
40.8862,-22.2603,0.437445,0
40.9177,-22.192,0.437601,0
40.9478,-22.123,0.437767,0
40.9764,-22.0534,0.437982,0
41.0034,-21.9833,0.438226,0
41.029,-21.9125,0.438489,0
41.053,-21.8412,0.438782,0
41.0754,-21.7694,0.439105,0
41.0962,-21.6972,0.439466,0
41.1155,-21.6245,0.439847,0
41.1333,-21.5514,0.440257,0
41.1495,-21.478,0.440706,0
41.1641,-21.4042,0.441175,0
41.177,-21.3301,0.441673,0
41.1883,-21.2557,0.4422,0
41.198,-21.1811,0.442747,0
41.2062,-21.1062,0.443333,0
41.2127,-21.0312,0.443939,0
41.2176,-20.9561,0.444583,0
41.2208,-20.8808,0.445237,0
41.2224,-20.8055,0.445931,0
41.2224,-20.73,0.446644,0
41.2207,-20.6546,0.447386,0
41.2174,-20.5793,0.448157,0
41.2125,-20.5039,0.448948,0
41.2059,-20.4287,0.449759,0
41.1977,-20.3535,0.450609,0
41.1879,-20.2786,0.451468,0
41.1756,-20.2039,0.452083,0
41.162,-20.1295,0.452737,0
41.1465,-20.0554,0.453402,0
37.5538,-24.13,0.45679,0
37.6299,-24.1361,0.456527,0
37.706,-24.1404,0.456273,0
37.7822,-24.1427,0.455911,0
37.8584,-24.1424,0.455189,0
37.9345,-24.1402,0.454476,0
38.0105,-24.1364,0.453773,0
38.0863,-24.1308,0.45306,0
38.1618,-24.1235,0.452376,0
38.2371,-24.1144,0.451683,0
38.3122,-24.1037,0.451009,0
38.3869,-24.0912,0.450335,0
38.4612,-24.0771,0.449681,0
38.5351,-24.0613,0.449027,0
38.6085,-24.0439,0.448382,0
38.6816,-24.0248,0.447757,0
38.7541,-24.0041,0.447132,0
38.826,-23.9817,0.446517,0
38.8973,-23.9578,0.445921,0
38.968,-23.9322,0.445335,0
39.038,-23.9051,0.444749,0
39.1074,-23.8765,0.444193,0
39.1761,-23.8463,0.443626,0
39.2441,-23.8146,0.443079,0
39.3112,-23.7814,0.442552,0
39.3774,-23.7467,0.442034,0
39.4429,-23.7106,0.441527,0
39.5077,-23.6735,0.441224,0
39.5716,-23.635,0.440989,0
39.6347,-23.5952,0.440775,0
39.6969,-23.554,0.440579,0
39.758,-23.5115,0.440394,0
39.8182,-23.4676,0.440247,0
39.8774,-23.4225,0.440101,0
39.9355,-23.376,0.439993,0
39.9926,-23.3283,0.439905,0
40.0485,-23.2795,0.439847,0
40.1034,-23.2294,0.439798,0
40.1571,-23.1781,0.439779,0
40.2097,-23.1256,0.439769,0
40.2607,-23.0718,0.439632,0
40.3102,-23.0166,0.439378,0
40.3586,-22.9604,0.439144,0
40.4057,-22.9032,0.438948,0
40.4515,-22.845,0.438773,0
40.4959,-22.7859,0.438626,0
40.5391,-22.7258,0.438519,0
40.5809,-22.6648,0.438431,0
40.6214,-22.603,0.438382,0
40.6605,-22.5403,0.438362,0
40.6983,-22.4768,0.438362,0
40.7347,-22.4126,0.438402,0
40.7695,-22.3475,0.43846,0
40.803,-22.2818,0.438558,0
40.8351,-22.2154,0.438685,0
40.8657,-22.1483,0.438831,0
40.8948,-22.0805,0.439007,0
40.9225,-22.0122,0.439222,0
40.9486,-21.9433,0.439466,0
40.9733,-21.8738,0.439739,0
40.9964,-21.8038,0.440032,0
41.018,-21.7333,0.440364,0
41.0381,-21.6624,0.440716,0
41.0566,-21.5911,0.441097,0
41.0736,-21.5194,0.441507,0
41.0891,-21.4473,0.441946,0
41.103,-21.3749,0.442415,0
41.1152,-21.3022,0.442913,0
41.126,-21.2292,0.443431,0
41.1352,-21.156,0.443987,0
41.1427,-21.0826,0.444554,0
41.1487,-21.0091,0.445169,0
41.153,-20.9354,0.445794,0
41.1558,-20.8616,0.446448,0
41.157,-20.7877,0.447132,0
41.1565,-20.7138,0.447835,0
41.1545,-20.6399,0.448577,0
41.1509,-20.566,0.449329,0
41.1455,-20.4922,0.450111,0
41.1387,-20.4185,0.450931,0
41.1302,-20.3449,0.451751,0
41.1195,-20.2716,0.452366,0
41.1072,-20.1985,0.452991,0
41.0933,-20.1257,0.453626,0
41.0778,-20.0532,0.45428,0
37.0938,-24.0494,0.456419,0
37.168,-24.0676,0.456722,0
37.2425,-24.0841,0.457005,0
37.3175,-24.0988,0.457288,0
37.393,-24.1112,0.457357,0
37.4686,-24.1211,0.457083,0
37.5445,-24.1291,0.45682,0
37.6206,-24.1354,0.456556,0
37.6967,-24.14,0.456302,0
37.7729,-24.1427,0.455999,0
37.8491,-24.1425,0.455277,0
37.9252,-24.1406,0.454564,0
38.0012,-24.1369,0.453861,0
38.077,-24.1315,0.453148,0
38.1527,-24.1244,0.452454,0
38.228,-24.1156,0.451761,0
38.303,-24.1051,0.451097,0
38.3777,-24.0929,0.450423,0
38.4521,-24.079,0.449759,0
38.5261,-24.0634,0.449114,0
38.5996,-24.0461,0.44847,0
38.6727,-24.0272,0.447835,0
38.7452,-24.0067,0.44721,0
38.8172,-23.9846,0.446595,0
38.8887,-23.9608,0.445999,0
38.9595,-23.9354,0.445404,0
39.0295,-23.9085,0.444827,0
39.099,-23.8801,0.444251,0
39.1677,-23.8501,0.443695,0
39.2358,-23.8186,0.443157,0
39.303,-23.7855,0.44262,0
39.3694,-23.751,0.442093,0
39.4349,-23.7151,0.441585,0
39.4998,-23.6781,0.441263,0
39.5639,-23.6398,0.441019,0
39.6271,-23.6001,0.440794,0
39.6893,-23.5591,0.440599,0
39.7505,-23.5167,0.440413,0
39.8109,-23.4731,0.440257,0
39.8702,-23.428,0.44012,0
39.9284,-23.3818,0.440003,0
39.9856,-23.3343,0.439915,0
40.0417,-23.2855,0.439857,0
40.0967,-23.2356,0.439798,0
40.1505,-23.1844,0.439769,0
40.2033,-23.1321,0.439769,0
40.2545,-23.0785,0.439671,0
40.3043,-23.0234,0.439407,0
40.3527,-22.9674,0.439173,0
40.4,-22.9103,0.438968,0
40.4459,-22.8522,0.438792,0
40.4906,-22.7932,0.438646,0
40.5339,-22.7332,0.438529,0
40.5759,-22.6723,0.438441,0
40.6166,-22.6106,0.438392,0
40.6559,-22.548,0.438353,0
40.6937,-22.4846,0.438353,0
40.7303,-22.4205,0.438392,0
40.7653,-22.3555,0.43846,0
40.7991,-22.2899,0.438548,0
40.8312,-22.2235,0.438665,0
40.862,-22.1565,0.438812,0
40.8913,-22.0888,0.438987,0
40.9191,-22.0206,0.439193,0
40.9455,-21.9517,0.439437,0
40.9703,-21.8823,0.4397,0
40.9937,-21.8124,0.439993,0
41.0154,-21.742,0.440316,0
41.0357,-21.6711,0.440667,0
41.0545,-21.5998,0.441048,0
41.0716,-21.5282,0.441458,0
41.0873,-21.4561,0.441898,0
41.1014,-21.3838,0.442357,0
41.1138,-21.3111,0.442855,0
41.1248,-21.2382,0.443363,0
41.1341,-21.165,0.443919,0
41.1419,-21.0916,0.444486,0
41.148,-21.0181,0.445091,0
41.1526,-20.9444,0.445716,0
41.1555,-20.8706,0.44637,0
41.1569,-20.7968,0.447044,0
41.1566,-20.7229,0.447757,0
41.1548,-20.649,0.44848,0
41.1513,-20.5751,0.449241,0
41.1463,-20.5013,0.450023,0
41.1396,-20.4275,0.450823,0
41.1313,-20.3539,0.451654,0
41.1209,-20.2806,0.452288,0
41.1088,-20.2075,0.452913,0
41.0951,-20.1346,0.453548,0
41.0798,-20.062,0.454193,0
37.0847,-24.0471,0.45639,0
37.1588,-24.0655,0.456683,0
37.2334,-24.0822,0.456966,0
37.3084,-24.0971,0.457259,0
37.3837,-24.1099,0.457386,0
37.4594,-24.12,0.457122,0
37.5353,-24.1282,0.456849,0
37.6112,-24.1347,0.456585,0
37.6874,-24.1395,0.456331,0
37.7636,-24.1426,0.456087,0
37.8398,-24.1426,0.455364,0
37.9159,-24.1409,0.454642,0
37.9919,-24.1375,0.453939,0
38.0677,-24.1323,0.453236,0
38.1434,-24.1254,0.452542,0
38.2188,-24.1168,0.451849,0
38.2938,-24.1065,0.451175,0
38.3687,-24.0944,0.450501,0
38.443,-24.0807,0.449847,0
38.517,-24.0654,0.449183,0
38.5906,-24.0483,0.448548,0
38.6637,-24.0296,0.447913,0
38.7363,-24.0093,0.447278,0
38.8084,-23.9873,0.446673,0
38.8799,-23.9638,0.446068,0
38.9508,-23.9386,0.445472,0
39.021,-23.9119,0.444896,0
39.0905,-23.8836,0.44432,0
39.1594,-23.8538,0.443763,0
39.2275,-23.8225,0.443216,0
39.2948,-23.7896,0.442679,0
39.3613,-23.7553,0.442152,0
39.427,-23.7196,0.441644,0
39.4919,-23.6827,0.441292,0
39.5561,-23.6446,0.441048,0
39.6194,-23.6051,0.440823,0
39.6817,-23.5642,0.440618,0
39.7432,-23.522,0.440443,0
39.8036,-23.4785,0.440277,0
39.863,-23.4336,0.44014,0
39.9213,-23.3875,0.440023,0
39.9787,-23.3401,0.439925,0
40.035,-23.2915,0.439857,0
40.0901,-23.2417,0.439808,0
40.1441,-23.1907,0.439779,0
40.1969,-23.1386,0.439769,0
40.2484,-23.0852,0.43971,0
40.2983,-23.0302,0.439437,0
40.3469,-22.9743,0.439202,0
40.3942,-22.9173,0.438987,0
40.4404,-22.8594,0.438812,0
40.4852,-22.8004,0.438655,0
40.5287,-22.7406,0.438548,0
40.5708,-22.6798,0.43845,0
40.6116,-22.6182,0.438392,0
40.6511,-22.5558,0.438362,0
40.6892,-22.4925,0.438362,0
40.7259,-22.4284,0.438392,0
40.7611,-22.3635,0.438441,0
40.795,-22.2979,0.438529,0
40.8274,-22.2317,0.438646,0
40.8583,-22.1647,0.438792,0
40.8878,-22.0971,0.438958,0
40.9159,-22.0289,0.439173,0
40.9423,-21.9602,0.439407,0
40.9674,-21.8908,0.439671,0
40.9909,-21.821,0.439964,0
41.0129,-21.7506,0.440277,0
41.0334,-21.6798,0.440628,0
41.0523,-21.6086,0.440999,0
41.0696,-21.537,0.441409,0
41.0855,-21.465,0.441839,0
41.0997,-21.3926,0.442308,0
41.1124,-21.32,0.442796,0
41.1235,-21.2471,0.443294,0
41.133,-21.174,0.443851,0
41.1409,-21.1006,0.444417,0
41.1473,-21.0271,0.445013,0
41.1521,-20.9534,0.445638,0
41.1553,-20.8797,0.446282,0
41.1568,-20.8058,0.446966,0
41.1568,-20.7319,0.447669,0
41.1552,-20.658,0.448392,0
41.1519,-20.5841,0.449144,0
41.147,-20.5103,0.449925,0
41.1405,-20.4366,0.450726,0
41.1324,-20.3629,0.451556,0
41.1223,-20.2895,0.45222,0
41.1103,-20.2164,0.452835,0
41.0969,-20.1435,0.45347,0
41.0817,-20.0709,0.454114,0
37.5617,-24.0613,0.456976,0
37.6362,-24.0673,0.456722,0
37.7107,-24.0716,0.456478,0
37.7854,-24.0738,0.456097,0
37.86,-24.0735,0.455394,0
37.9345,-24.0715,0.4547,0
38.0089,-24.0678,0.453997,0
38.0831,-24.0624,0.453314,0
38.1572,-24.0552,0.45263,0
38.2309,-24.0464,0.451956,0
38.3043,-24.036,0.451292,0
38.3775,-24.0239,0.450638,0
38.4503,-24.0101,0.449993,0
38.5227,-23.9947,0.449359,0
38.5947,-23.9777,0.448734,0
38.6662,-23.959,0.448109,0
38.7372,-23.9388,0.447503,0
38.8077,-23.9169,0.446898,0
38.8776,-23.8935,0.446312,0
38.9469,-23.8686,0.445736,0
39.0155,-23.8421,0.445169,0
39.0834,-23.814,0.444603,0
39.1507,-23.7845,0.444056,0
39.2173,-23.7535,0.443529,0
39.283,-23.7211,0.443011,0
39.3481,-23.6874,0.442611,0
39.4125,-23.6525,0.442337,0
39.4761,-23.6162,0.442073,0
39.5387,-23.5786,0.441839,0
39.6006,-23.5396,0.441624,0
39.6616,-23.4993,0.441419,0
39.7215,-23.4576,0.441253,0
39.7805,-23.4147,0.441097,0
39.8385,-23.3704,0.44097,0
39.8955,-23.325,0.440863,0
39.9514,-23.2783,0.440775,0
40.0062,-23.2304,0.440706,0
40.0601,-23.1813,0.440657,0
40.1127,-23.1311,0.440638,0
40.1642,-23.0797,0.440638,0
40.2145,-23.0272,0.440657,0
40.2634,-22.9734,0.440521,0
40.3108,-22.9183,0.440296,0
40.357,-22.8622,0.440101,0
40.4019,-22.8052,0.439935,0
40.4455,-22.7472,0.439798,0
40.4879,-22.6884,0.439691,0
40.5289,-22.6286,0.439593,0
40.5685,-22.568,0.439544,0
40.607,-22.5066,0.439525,0
40.644,-22.4443,0.439525,0
40.6796,-22.3814,0.439573,0
40.7138,-22.3176,0.439632,0
40.7467,-22.2532,0.43972,0
40.7781,-22.188,0.439847,0
40.8081,-22.1223,0.439993,0
40.8366,-22.0558,0.440169,0
40.8638,-21.9888,0.440374,0
40.8895,-21.9213,0.440609,0
40.9137,-21.8532,0.440872,0
40.9363,-21.7846,0.441165,0
40.9575,-21.7155,0.441487,0
40.9772,-21.646,0.441829,0
40.9954,-21.576,0.44221,0
41.012,-21.5057,0.442611,0
41.0272,-21.4351,0.44305,0
41.0408,-21.3641,0.443499,0
41.0528,-21.2928,0.443987,0
41.0633,-21.2212,0.444495,0
41.0723,-21.1495,0.445042,0
41.0797,-21.0775,0.445609,0
41.0855,-21.0054,0.446195,0
41.0898,-20.9332,0.44682,0
41.0925,-20.8608,0.447464,0
41.0936,-20.7884,0.448128,0
41.0931,-20.716,0.448821,0
41.0911,-20.6435,0.449544,0
41.0875,-20.5711,0.450296,0
41.0823,-20.4988,0.451058,0
41.0755,-20.4265,0.451849,0
41.0669,-20.3544,0.452513,0
41.0563,-20.2826,0.453099,0
41.0442,-20.2109,0.453714,0
41.0305,-20.1395,0.454329,0
41.0153,-20.0685,0.454974,0
37.1115,-23.9814,0.456263,0
37.1841,-23.9992,0.456546,0
37.2571,-24.0154,0.456839,0
37.3305,-24.0298,0.457112,0
37.4042,-24.0425,0.457386,0
37.4783,-24.0525,0.457269,0
37.5527,-24.0604,0.457015,0
37.6271,-24.0666,0.456751,0
37.7016,-24.0712,0.456507,0
37.7762,-24.0738,0.456195,0
37.8509,-24.0736,0.455482,0
37.9254,-24.0718,0.454779,0
37.9998,-24.0683,0.454085,0
38.0741,-24.0631,0.453402,0
38.1481,-24.0562,0.452718,0
38.2219,-24.0476,0.452044,0
38.2953,-24.0374,0.45138,0
38.3686,-24.0254,0.450726,0
38.4415,-24.0119,0.450071,0
38.5138,-23.9967,0.449437,0
38.5859,-23.9798,0.448802,0
38.6575,-23.9614,0.448187,0
38.7286,-23.9413,0.447571,0
38.7991,-23.9197,0.446966,0
38.8691,-23.8965,0.44638,0
38.9384,-23.8717,0.445804,0
39.0072,-23.8454,0.445237,0
39.0752,-23.8176,0.444671,0
39.1426,-23.7882,0.444134,0
39.2091,-23.7574,0.443587,0
39.2751,-23.7251,0.44307,0
39.3402,-23.6916,0.442659,0
39.4048,-23.6569,0.442366,0
39.4684,-23.6208,0.442103,0
39.5312,-23.5833,0.441868,0
39.593,-23.5445,0.441644,0
39.6541,-23.5043,0.441448,0
39.7142,-23.4628,0.441273,0
39.7734,-23.42,0.441126,0
39.8315,-23.3759,0.44098,0
39.8885,-23.3306,0.440872,0
39.9446,-23.2841,0.440784,0
39.9996,-23.2363,0.440716,0
40.0535,-23.1874,0.440667,0
40.1063,-23.1373,0.440638,0
40.158,-23.086,0.440638,0
40.2084,-23.0337,0.440657,0
40.2576,-22.98,0.44056,0
40.3051,-22.9251,0.440325,0
40.3514,-22.8691,0.44012,0
40.3964,-22.8122,0.439954,0
40.4402,-22.7544,0.439808,0
40.4827,-22.6956,0.4397,0
40.5239,-22.636,0.439603,0
40.5638,-22.5755,0.439554,0
40.6023,-22.5141,0.439525,0
40.6395,-22.452,0.439525,0
40.6753,-22.3891,0.439554,0
40.7097,-22.3254,0.439613,0
40.7427,-22.2611,0.43971,0
40.7744,-22.196,0.439818,0
40.8045,-22.1303,0.439964,0
40.8333,-22.064,0.44015,0
40.8605,-21.9971,0.440345,0
40.8864,-21.9296,0.440579,0
40.9108,-21.8615,0.440833,0
40.9336,-21.793,0.441126,0
40.955,-21.724,0.441448,0
40.9748,-21.6545,0.44179,0
40.9933,-21.5846,0.442161,0
41.0101,-21.5143,0.442562,0
41.0254,-21.4437,0.442991,0
41.0391,-21.3728,0.44345,0
41.0515,-21.3015,0.443929,0
41.0621,-21.23,0.444427,0
41.0713,-21.1583,0.444974,0
41.0788,-21.0863,0.44553,0
41.0848,-21.0143,0.446126,0
41.0893,-20.942,0.446741,0
41.0923,-20.8697,0.447386,0
41.0935,-20.7973,0.44805,0
41.0933,-20.7248,0.448734,0
41.0914,-20.6524,0.449456,0
41.088,-20.58,0.450198,0
41.083,-20.5076,0.45096,0
41.0765,-20.4353,0.451741,0
41.068,-20.3632,0.452445,0
41.0577,-20.2913,0.453021,0
41.0458,-20.2197,0.453626,0
41.0323,-20.1483,0.454251,0
41.0173,-20.0771,0.454896,0
37.1026,-23.9791,0.456224,0
37.1752,-23.9971,0.456517,0
37.2482,-24.0135,0.4568,0
37.3216,-24.0281,0.457073,0
37.3952,-24.041,0.457357,0
37.4692,-24.0514,0.457298,0
37.5436,-24.0595,0.457044,0
37.618,-24.066,0.45679,0
37.6926,-24.0707,0.456527,0
37.7671,-24.0736,0.456282,0
37.8418,-24.0737,0.45556,0
37.9162,-24.0721,0.454857,0
37.9907,-24.0688,0.454173,0
38.0649,-24.0638,0.45348,0
38.1391,-24.0571,0.452796,0
38.2129,-24.0488,0.452132,0
38.2864,-24.0387,0.451458,0
38.3597,-24.027,0.450794,0
38.4326,-24.0136,0.45015,0
38.505,-23.9986,0.449515,0
38.5771,-23.982,0.44888,0
38.6488,-23.9637,0.448255,0
38.7199,-23.9439,0.44765,0
38.7905,-23.9224,0.447044,0
38.8605,-23.8994,0.446448,0
38.93,-23.8748,0.445872,0
38.9988,-23.8487,0.445306,0
39.0669,-23.8211,0.444749,0
39.1344,-23.7919,0.444193,0
39.2011,-23.7612,0.443655,0
39.267,-23.7291,0.443128,0
39.3323,-23.6957,0.442689,0
39.3969,-23.6612,0.442396,0
39.4606,-23.6253,0.442132,0
39.5236,-23.5879,0.441888,0
39.5856,-23.5493,0.441673,0
39.6466,-23.5093,0.441478,0
39.707,-23.4679,0.441292,0
39.7661,-23.4253,0.441136,0
39.8244,-23.3814,0.441009,0
39.8816,-23.3362,0.440892,0
39.9378,-23.2898,0.440794,0
39.993,-23.2422,0.440716,0
40.047,-23.1934,0.440677,0
40.0999,-23.1435,0.440648,0
40.1517,-23.0924,0.440638,0
40.2023,-23.0401,0.440648,0
40.2516,-22.9867,0.440589,0
40.2993,-22.9319,0.440355,0
40.3458,-22.876,0.44015,0
40.391,-22.8192,0.439974,0
40.4349,-22.7615,0.439827,0
40.4777,-22.7028,0.4397,0
40.5189,-22.6433,0.439622,0
40.559,-22.5829,0.439564,0
40.5977,-22.5217,0.439525,0
40.6351,-22.4597,0.439525,0
40.671,-22.3968,0.439554,0
40.7056,-22.3333,0.439603,0
40.7388,-22.269,0.439691,0
40.7705,-22.204,0.439808,0
40.8009,-22.1384,0.439954,0
40.8298,-22.0721,0.44012,0
40.8573,-22.0053,0.440325,0
40.8834,-21.9379,0.44054,0
40.9078,-21.8699,0.440804,0
40.9309,-21.8014,0.441097,0
40.9525,-21.7324,0.441409,0
40.9725,-21.663,0.441751,0
40.9911,-21.5932,0.442113,0
41.0081,-21.523,0.442513,0
41.0237,-21.4524,0.442943,0
41.0376,-21.3815,0.443392,0
41.05,-21.3103,0.44387,0
41.0609,-21.2388,0.444368,0
41.0702,-21.1671,0.444896,0
41.078,-21.0952,0.445462,0
41.0843,-21.0231,0.446048,0
41.0888,-20.9509,0.446663,0
41.092,-20.8785,0.447298,0
41.0934,-20.8062,0.447962,0
41.0934,-20.7337,0.448655,0
41.0917,-20.6613,0.449368,0
41.0886,-20.5888,0.450101,0
41.0837,-20.5165,0.450862,0
41.0773,-20.4442,0.451644,0
41.0692,-20.372,0.452376,0
41.059,-20.3001,0.452962,0
41.0473,-20.2284,0.453548,0
41.0341,-20.157,0.454173,0
41.0192,-20.0858,0.454818,0
37.5694,-23.995,0.457161,0
37.6423,-24.0009,0.456907,0
37.7153,-24.0052,0.456673,0
37.7884,-24.0074,0.456282,0
37.8615,-24.0071,0.455589,0
37.9345,-24.0052,0.454905,0
38.0073,-24.0016,0.454232,0
38.0801,-23.9963,0.453548,0
38.1526,-23.9894,0.452884,0
38.2248,-23.9809,0.45223,0
38.2969,-23.9707,0.451575,0
38.3685,-23.9589,0.450931,0
38.4398,-23.9454,0.450296,0
38.5108,-23.9304,0.449681,0
38.5813,-23.9138,0.449056,0
38.6514,-23.8955,0.448441,0
38.7209,-23.8758,0.447845,0
38.79,-23.8544,0.447269,0
38.8585,-23.8315,0.446683,0
38.9264,-23.8071,0.446116,0
38.9937,-23.7812,0.44556,0
39.0603,-23.7538,0.445013,0
39.1263,-23.7249,0.444486,0
39.1915,-23.6947,0.444027,0
39.2562,-23.6634,0.443714,0
39.3202,-23.6307,0.443421,0
39.3833,-23.5965,0.443148,0
39.4456,-23.561,0.442894,0
39.507,-23.5241,0.44265,0
39.5677,-23.4859,0.442445,0
39.6273,-23.4464,0.442259,0
39.6862,-23.4056,0.442083,0
39.744,-23.3635,0.441927,0
39.8009,-23.3202,0.4418,0
39.8568,-23.2756,0.441693,0
39.9116,-23.2299,0.441614,0
39.9655,-23.1829,0.441536,0
40.0181,-23.1349,0.441497,0
40.0698,-23.0856,0.441478,0
40.1203,-23.0353,0.441478,0
40.1697,-22.9839,0.441497,0
40.2179,-22.9314,0.441536,0
40.2645,-22.8776,0.441419,0
40.3098,-22.8226,0.441224,0
40.3539,-22.7667,0.441058,0
40.3967,-22.7099,0.440921,0
40.4383,-22.6522,0.440814,0
40.4785,-22.5936,0.440726,0
40.5175,-22.5342,0.440677,0
40.5552,-22.4739,0.440648,0
40.5915,-22.4129,0.440657,0
40.6264,-22.3512,0.440687,0
40.66,-22.2887,0.440755,0
40.6922,-22.2255,0.440843,0
40.723,-22.1616,0.44096,0
40.7525,-22.0971,0.441107,0
40.7805,-22.032,0.441282,0
40.8071,-21.9663,0.441487,0
40.8323,-21.9,0.441712,0
40.8559,-21.8333,0.441976,0
40.8782,-21.766,0.442259,0
40.899,-21.6982,0.442581,0
40.9183,-21.63,0.442913,0
40.9362,-21.5615,0.443284,0
40.9525,-21.4925,0.443685,0
40.9673,-21.4232,0.444105,0
40.9807,-21.3536,0.444554,0
40.9924,-21.2837,0.445023,0
41.0027,-21.2135,0.44553,0
41.0115,-21.1432,0.446068,0
41.0187,-21.0726,0.446614,0
41.0245,-21.0019,0.447191,0
41.0286,-20.9311,0.447806,0
41.0312,-20.8601,0.448431,0
41.0323,-20.7891,0.449095,0
41.0319,-20.7181,0.449778,0
41.0298,-20.647,0.450472,0
41.0262,-20.576,0.451204,0
41.0212,-20.5051,0.451966,0
41.0144,-20.4342,0.452679,0
41.0055,-20.3636,0.453236,0
40.9952,-20.2931,0.453802,0
40.9833,-20.2229,0.454398,0
40.9699,-20.1529,0.455013,0
40.9548,-20.0832,0.455638,0
37.1285,-23.9158,0.456107,0
37.1997,-23.9333,0.4564,0
37.2712,-23.9491,0.456673,0
37.343,-23.9632,0.456946,0
37.4152,-23.9757,0.45721,0
37.4877,-23.9864,0.457454,0
37.5605,-23.9942,0.457191,0
37.6334,-24.0003,0.456946,0
37.7063,-24.0047,0.456702,0
37.7795,-24.0073,0.456361,0
37.8526,-24.0072,0.455677,0
37.9255,-24.0055,0.454984,0
37.9984,-24.0021,0.45431,0
38.0712,-23.997,0.453626,0
38.1437,-23.9904,0.452962,0
38.216,-23.982,0.452308,0
38.288,-23.972,0.451654,0
38.3598,-23.9604,0.451009,0
38.4312,-23.9472,0.450374,0
38.5021,-23.9323,0.449749,0
38.5727,-23.9159,0.449134,0
38.6429,-23.8978,0.448519,0
38.7124,-23.8782,0.447913,0
38.7816,-23.8571,0.447337,0
38.8502,-23.8344,0.446761,0
38.9181,-23.8102,0.446185,0
38.9855,-23.7845,0.445628,0
39.0522,-23.7572,0.445081,0
39.1182,-23.7285,0.444544,0
39.1836,-23.6985,0.444066,0
39.2484,-23.6673,0.443753,0
39.3123,-23.6347,0.44345,0
39.3755,-23.6008,0.443177,0
39.438,-23.5654,0.442923,0
39.4996,-23.5287,0.442679,0
39.5603,-23.4907,0.442464,0
39.6202,-23.4513,0.442269,0
39.6791,-23.4107,0.442103,0
39.737,-23.3687,0.441946,0
39.794,-23.3256,0.44182,0
39.85,-23.2812,0.441702,0
39.905,-23.2355,0.441614,0
39.9589,-23.1887,0.441546,0
40.0117,-23.1408,0.441507,0
40.0635,-23.0917,0.441478,0
40.1142,-23.0415,0.441478,0
40.1637,-22.9902,0.441497,0
40.2121,-22.9379,0.441527,0
40.259,-22.8842,0.441439,0
40.3044,-22.8294,0.441243,0
40.3486,-22.7736,0.441077,0
40.3916,-22.7169,0.440931,0
40.4333,-22.6593,0.440823,0
40.4737,-22.6008,0.440745,0
40.5127,-22.5415,0.440677,0
40.5506,-22.4814,0.440657,0
40.5871,-22.4204,0.440657,0
40.6222,-22.3588,0.440687,0
40.6559,-22.2963,0.440736,0
40.6884,-22.2333,0.440833,0
40.7194,-22.1695,0.44095,0
40.749,-22.105,0.441077,0
40.7772,-22.04,0.441253,0
40.8039,-21.9744,0.441458,0
40.8293,-21.9082,0.441683,0
40.8532,-21.8414,0.441937,0
40.8755,-21.7742,0.44222,0
40.8966,-21.7065,0.442532,0
40.916,-21.6384,0.442874,0
40.9341,-21.5699,0.443245,0
40.9505,-21.501,0.443636,0
40.9656,-21.4317,0.444046,0
40.9791,-21.3621,0.444495,0
40.9911,-21.2923,0.444974,0
41.0016,-21.2221,0.445472,0
41.0105,-21.1518,0.445999,0
41.0179,-21.0813,0.446546,0
41.0239,-21.0106,0.447132,0
41.0282,-20.9397,0.447728,0
41.031,-20.8688,0.448362,0
41.0323,-20.7978,0.449017,0
41.032,-20.7268,0.449691,0
41.0302,-20.6557,0.450394,0
41.0268,-20.5847,0.451116,0
41.0218,-20.5137,0.451868,0
41.0153,-20.4429,0.452611,0
41.0066,-20.3722,0.453167,0
40.9966,-20.3017,0.453734,0
40.9849,-20.2315,0.454329,0
40.9716,-20.1615,0.454935,0
40.9569,-20.0917,0.45556,0
37.1198,-23.9136,0.456077,0
37.1909,-23.9312,0.456361,0
37.2624,-23.9472,0.456644,0
37.3342,-23.9616,0.456907,0
37.4063,-23.9742,0.457171,0
37.4787,-23.9852,0.457435,0
37.5516,-23.9933,0.45723,0
37.6245,-23.9996,0.456976,0
37.6974,-24.0043,0.456732,0
37.7705,-24.0071,0.456448,0
37.8436,-24.0073,0.455755,0
37.9166,-24.0058,0.455071,0
37.9895,-24.0026,0.454388,0
38.0623,-23.9978,0.453714,0
38.1348,-23.9913,0.45305,0
38.2071,-23.9831,0.452386,0
38.2792,-23.9733,0.451732,0
38.351,-23.9619,0.451097,0
38.4224,-23.9489,0.450452,0
38.4935,-23.9342,0.449827,0
38.5641,-23.918,0.449212,0
38.6342,-23.9001,0.448597,0
38.704,-23.8807,0.448001,0
38.7731,-23.8598,0.447405,0
38.8418,-23.8373,0.446829,0
38.9098,-23.8132,0.446263,0
38.9773,-23.7877,0.445696,0
39.0441,-23.7606,0.44515,0
39.1102,-23.7321,0.444613,0
39.1756,-23.7022,0.444114,0
39.2405,-23.6712,0.443792,0
39.3045,-23.6388,0.443489,0
39.3679,-23.605,0.443216,0
39.4305,-23.5698,0.442952,0
39.4921,-23.5333,0.442708,0
39.5529,-23.4954,0.442493,0
39.6128,-23.4562,0.442298,0
39.6719,-23.4157,0.442122,0
39.73,-23.374,0.441976,0
39.787,-23.3309,0.441829,0
39.8432,-23.2867,0.441722,0
39.8983,-23.2412,0.441634,0
39.9524,-23.1945,0.441556,0
40.0053,-23.1467,0.441507,0
40.0573,-23.0978,0.441478,0
40.108,-23.0477,0.441468,0
40.1577,-22.9965,0.441487,0
40.2062,-22.9443,0.441527,0
40.2533,-22.8909,0.441478,0
40.2988,-22.8361,0.441263,0
40.3433,-22.7805,0.441087,0
40.3864,-22.7239,0.44095,0
40.4282,-22.6664,0.440833,0
40.4688,-22.608,0.440745,0
40.508,-22.5488,0.440687,0
40.546,-22.4888,0.440657,0
40.5827,-22.4279,0.440657,0
40.618,-22.3663,0.440677,0
40.6519,-22.304,0.440726,0
40.6845,-22.241,0.440823,0
40.7156,-22.1773,0.440931,0
40.7455,-22.1129,0.441068,0
40.7738,-22.048,0.441243,0
40.8007,-21.9824,0.441429,0
40.8262,-21.9163,0.441654,0
40.8503,-21.8496,0.441907,0
40.8729,-21.7825,0.442191,0
40.8941,-21.7148,0.442493,0
40.9137,-21.6468,0.442835,0
40.932,-21.5783,0.443187,0
40.9486,-21.5094,0.443577,0
40.9638,-21.4402,0.443997,0
40.9775,-21.3706,0.444437,0
40.9897,-21.3008,0.444915,0
41.0003,-21.2307,0.445413,0
41.0095,-21.1604,0.445931,0
41.0171,-21.0899,0.446478,0
41.0232,-21.0192,0.447054,0
41.0277,-20.9484,0.44765,0
41.0307,-20.8775,0.448284,0
41.0322,-20.8065,0.448929,0
41.0321,-20.7354,0.449612,0
41.0305,-20.6644,0.450306,0
41.0273,-20.5934,0.451028,0
41.0226,-20.5224,0.451771,0
41.0163,-20.4516,0.452542,0
41.0078,-20.3809,0.453089,0
40.9979,-20.3104,0.453665,0
40.9864,-20.2401,0.454251,0
40.9733,-20.17,0.454857,0
40.9587,-20.1003,0.455491,0
37.5767,-23.931,0.457337,0
37.6481,-23.9368,0.457093,0
37.7197,-23.941,0.456859,0
37.7913,-23.9432,0.456458,0
37.863,-23.943,0.455775,0
37.9345,-23.9411,0.455111,0
38.0059,-23.9377,0.454446,0
38.0772,-23.9326,0.453782,0
38.1482,-23.9259,0.453128,0
38.219,-23.9175,0.452484,0
38.2895,-23.9076,0.451849,0
38.3598,-23.8961,0.451214,0
38.4297,-23.883,0.450599,0
38.4992,-23.8683,0.449984,0
38.5684,-23.852,0.449368,0
38.637,-23.8342,0.448773,0
38.7053,-23.8149,0.448187,0
38.773,-23.794,0.447611,0
38.8401,-23.7717,0.447054,0
38.9066,-23.7478,0.446497,0
38.9727,-23.7224,0.445941,0
39.038,-23.6957,0.445472,0
39.1027,-23.6679,0.44513,0
39.167,-23.6386,0.444788,0
39.2303,-23.6079,0.444486,0
39.293,-23.5758,0.444193,0
39.355,-23.5424,0.443919,0
39.416,-23.5076,0.443675,0
39.4763,-23.4715,0.44345,0
39.5359,-23.434,0.443236,0
39.5944,-23.3953,0.44305,0
39.652,-23.3553,0.442884,0
39.7088,-23.3141,0.442737,0
39.7646,-23.2716,0.442611,0
39.8194,-23.228,0.442503,0
39.8732,-23.1831,0.442425,0
39.9259,-23.1371,0.442357,0
39.9777,-23.09,0.442308,0
40.0284,-23.0417,0.442288,0
40.0779,-22.9924,0.442288,0
40.1262,-22.9419,0.442298,0
40.1735,-22.8905,0.442347,0
40.2197,-22.838,0.442405,0
40.2643,-22.7843,0.442308,0
40.3075,-22.7295,0.442142,0
40.3495,-22.6737,0.442015,0
40.3903,-22.6171,0.441898,0
40.4298,-22.5597,0.44182,0
40.468,-22.5015,0.441771,0
40.505,-22.4424,0.441751,0
40.5406,-22.3825,0.441751,0
40.5749,-22.322,0.44178,0
40.6079,-22.2607,0.441849,0
40.6395,-22.1987,0.441927,0
40.6698,-22.136,0.442044,0
40.6987,-22.0728,0.442191,0
40.7261,-22.0089,0.442366,0
40.7522,-21.9445,0.442552,0
40.777,-21.8795,0.442786,0
