75.0479,-51.5549,-3.34661,0
75.062,-51.475,-3.35734,0
75.0741,-51.3951,-3.36776,0
75.0845,-51.3153,-3.37786,0
75.093,-51.2356,-3.38764,0
75.0998,-51.1559,-3.3971,0
75.1048,-51.0765,-3.40623,0
75.1079,-50.9972,-3.41505,0
75.1094,-50.9182,-3.42353,0
75.1144,-50.8404,-3.43054,0
75.1223,-50.7632,-3.43628,0
75.1285,-50.686,-3.44174,0
75.133,-50.6087,-3.44691,0
75.1352,-50.5313,-3.45192,0
75.135,-50.454,-3.45678,0
75.1331,-50.3769,-3.46135,0
75.1295,-50.2999,-3.46563,0
75.1243,-50.223,-3.46962,0
75.1173,-50.1465,-3.47332,0
75.1087,-50.0702,-3.47673,0
75.0984,-49.9942,-3.47984,0
75.0864,-49.9186,-3.48266,0
75.0729,-49.8433,-3.48519,0
75.0577,-49.7685,-3.48742,0
75.0409,-49.6941,-3.48937,0
75.0225,-49.6202,-3.49102,0
75.0026,-49.5468,-3.49238,0
74.981,-49.474,-3.49345,0
74.958,-49.4017,-3.49423,0
74.9334,-49.3301,-3.49472,0
74.9073,-49.2591,-3.49492,0
74.8798,-49.1888,-3.49483,0
74.8508,-49.1192,-3.49445,0
74.8203,-49.0503,-3.4938,0
74.7886,-48.9821,-3.4928,0
74.7555,-48.9146,-3.49153,0
74.7211,-48.848,-3.48996,0
74.6852,-48.7822,-3.48812,0
74.6481,-48.7173,-3.48599,0
71.7345,-54.1052,-2.56388,0
71.8219,-54.1109,-2.57591,0
71.9095,-54.1144,-2.58811,0
71.9972,-54.1157,-2.60049,0
72.0848,-54.1147,-2.61304,0
72.1726,-54.1116,-2.62575,0
72.2603,-54.1062,-2.63862,0
72.3478,-54.0986,-2.65163,0
72.4339,-54.0831,-2.66706,0
72.5195,-54.0651,-2.6827,0
72.6043,-54.0449,-2.69841,0
72.6887,-54.0227,-2.71415,0
72.7723,-53.9983,-2.72995,0
72.8552,-53.9719,-2.74576,0
72.9374,-53.9435,-2.7616,0
73.0187,-53.913,-2.77745,0
73.0991,-53.8805,-2.79329,0
73.1787,-53.8461,-2.80912,0
73.2572,-53.8097,-2.82492,0
73.3347,-53.7715,-2.84069,0
73.4112,-53.7313,-2.85643,0
73.4865,-53.6894,-2.8721,0
73.5606,-53.6456,-2.88771,0
73.6336,-53.6001,-2.90325,0
73.7053,-53.5529,-2.91871,0
73.7759,-53.5039,-2.93408,0
73.845,-53.4533,-2.94935,0
73.9127,-53.4011,-2.96451,0
73.9788,-53.3469,-2.97971,0
74.0405,-53.2876,-2.99624,0
74.1003,-53.2268,-3.01262,0
74.1585,-53.1646,-3.02887,0
74.215,-53.1011,-3.04495,0
74.2697,-53.0364,-3.06086,0
74.3224,-52.9704,-3.0766,0
74.3735,-52.9034,-3.09215,0
74.4227,-52.8352,-3.10751,0
74.4699,-52.766,-3.12264,0
74.5154,-52.6959,-3.13758,0
74.559,-52.6249,-3.1523,0
74.6006,-52.553,-3.16677,0
74.6403,-52.4803,-3.18102,0
74.6782,-52.4069,-3.19502,0
74.7141,-52.3329,-3.20878,0
74.7481,-52.2582,-3.22227,0
74.7802,-52.1829,-3.23551,0
74.8105,-52.1072,-3.24847,0
74.8386,-52.0309,-3.2612,0
74.8648,-51.9542,-3.27368,0
74.8891,-51.8771,-3.28587,0
74.9115,-51.7998,-3.29776,0
74.9321,-51.7222,-3.30936,0
74.9507,-51.6445,-3.32067,0
74.9676,-51.5666,-3.33167,0
74.9827,-51.4886,-3.34237,0
74.9957,-51.4106,-3.35276,0
75.0071,-51.3326,-3.36284,0
75.0167,-51.2547,-3.3726,0
75.0245,-51.1768,-3.38206,0
75.0305,-51.0991,-3.39121,0
75.0348,-51.0215,-3.40003,0
75.0374,-50.9441,-3.40855,0
75.0402,-50.8673,-3.41633,0
75.0489,-50.7919,-3.4221,0
75.0559,-50.7163,-3.42761,0
75.0612,-50.6406,-3.43284,0
75.0637,-50.5649,-3.43804,0
75.0645,-50.4892,-3.44297,0
75.0637,-50.4135,-3.4476,0
75.0611,-50.3381,-3.45196,0
75.0569,-50.2628,-3.45603,0
75.0511,-50.1877,-3.45983,0
75.0435,-50.1129,-3.46332,0
75.0345,-50.0383,-3.46653,0
75.0238,-49.9641,-3.46946,0
75.0113,-49.8902,-3.47211,0
74.9974,-49.8167,-3.47446,0
74.9819,-49.7436,-3.47653,0
74.9648,-49.671,-3.47832,0
74.9462,-49.5988,-3.47982,0
74.926,-49.5272,-3.48103,0
74.9043,-49.4561,-3.48195,0
74.8812,-49.3856,-3.4826,0
74.8564,-49.3157,-3.48297,0
74.8302,-49.2465,-3.48303,0
74.8028,-49.1779,-3.4828,0
74.774,-49.1099,-3.48227,0
74.7438,-49.0427,-3.48146,0
74.7122,-48.9762,-3.48036,0
74.6791,-48.9105,-3.479,0
74.6448,-48.8456,-3.47734,0
74.6092,-48.7815,-3.47541,0
71.8011,-54.1097,-2.57302,0
71.8887,-54.1137,-2.58519,0
71.9762,-54.1155,-2.59754,0
72.0641,-54.1151,-2.61005,0
72.1517,-54.1125,-2.62272,0
72.2394,-54.1077,-2.63555,0
72.327,-54.1006,-2.64853,0
72.4135,-54.0871,-2.66335,0
72.4991,-54.0696,-2.67898,0
72.5842,-54.0499,-2.69467,0
72.6687,-54.0282,-2.7104,0
72.7526,-54.0043,-2.72619,0
72.8356,-53.9784,-2.742,0
72.918,-53.9504,-2.75784,0
72.9995,-53.9204,-2.77368,0
73.0802,-53.8884,-2.78952,0
73.1598,-53.8544,-2.80536,0
73.2386,-53.8185,-2.82116,0
73.3163,-53.7807,-2.83695,0
73.393,-53.741,-2.85269,0
73.4687,-53.6995,-2.86838,0
73.543,-53.6562,-2.88402,0
73.6163,-53.6111,-2.89957,0
73.6884,-53.5642,-2.91505,0
73.7591,-53.5157,-2.93044,0
73.8286,-53.4655,-2.94573,0
73.8968,-53.4137,-2.96092,0
73.9635,-53.3603,-2.97598,0
74.0259,-53.3018,-2.99233,0
74.0863,-53.2414,-3.00874,0
74.1449,-53.1795,-3.02502,0
74.2017,-53.1163,-3.04114,0
74.2569,-53.0519,-3.0571,0
74.3101,-52.9862,-3.07288,0
74.3615,-52.9194,-3.08847,0
74.4111,-52.8515,-3.10387,0
74.4589,-52.7826,-3.11906,0
74.5048,-52.7127,-3.13404,0
74.5488,-52.6418,-3.14882,0
74.5909,-52.5701,-3.16335,0
74.631,-52.4977,-3.17765,0
74.6694,-52.4244,-3.19172,0
74.7058,-52.3505,-3.20553,0
74.7402,-52.276,-3.21908,0
74.7728,-52.2008,-3.23239,0
74.8035,-52.1252,-3.24542,0
74.8321,-52.049,-3.2582,0
74.8587,-51.9724,-3.27074,0
74.8835,-51.8954,-3.28299,0
74.9064,-51.8182,-3.29496,0
74.9273,-51.7407,-3.30663,0
74.9465,-51.663,-3.318,0
74.9637,-51.5851,-3.32908,0
74.9791,-51.5072,-3.33985,0
74.9928,-51.4292,-3.35032,0
75.0045,-51.3512,-3.36047,0
75.0146,-51.2732,-3.37031,0
75.0228,-51.1953,-3.37985,0
75.0293,-51.1175,-3.38906,0
75.034,-51.0399,-3.39797,0
75.0369,-50.9625,-3.40655,0
75.0383,-50.8853,-3.41483,0
75.047,-50.8098,-3.42076,0
75.0544,-50.7342,-3.42632,0
75.0602,-50.6586,-3.43161,0
75.0633,-50.5829,-3.43683,0
75.0645,-50.5071,-3.44182,0
75.064,-50.4315,-3.44653,0
75.0619,-50.356,-3.45095,0
75.058,-50.2807,-3.45509,0
75.0526,-50.2055,-3.45895,0
75.0455,-50.1306,-3.46252,0
75.0367,-50.056,-3.46579,0
75.0264,-49.9817,-3.4688,0
75.0145,-49.9077,-3.47151,0
75.0009,-49.8341,-3.47393,0
74.9857,-49.7609,-3.47607,0
74.969,-49.6882,-3.47792,0
74.9507,-49.6159,-3.47948,0
74.9309,-49.5442,-3.48076,0
74.9095,-49.473,-3.48176,0
74.8868,-49.4023,-3.48247,0
74.8624,-49.3323,-3.4829,0
74.8366,-49.2629,-3.48304,0
74.8094,-49.1941,-3.48288,0
74.781,-49.126,-3.48242,0
74.7511,-49.0586,-3.48168,0
74.7198,-48.9919,-3.48065,0
74.6871,-48.926,-3.47934,0
74.6531,-48.8609,-3.47775,0
74.6178,-48.7966,-3.4759,0
74.5812,-48.7332,-3.47376,0
71.7803,-54.1085,-2.57016,0
71.8678,-54.113,-2.58228,0
71.9555,-54.1153,-2.59459,0
72.0431,-54.1154,-2.60706,0
72.1309,-54.1134,-2.61969,0
72.2186,-54.109,-2.63249,0
72.3062,-54.1025,-2.64543,0
72.393,-54.0909,-2.65965,0
72.4788,-54.0739,-2.67526,0
72.5641,-54.0548,-2.69093,0
72.6487,-54.0335,-2.70666,0
72.7327,-54.0102,-2.72243,0
72.8159,-53.9847,-2.73825,0
72.8984,-53.9572,-2.75407,0
72.9802,-53.9277,-2.76991,0
73.061,-53.8962,-2.78576,0
73.141,-53.8627,-2.8016,0
73.22,-53.8272,-2.81742,0
73.298,-53.7899,-2.8332,0
73.3749,-53.7506,-2.84895,0
73.4508,-53.7096,-2.86466,0
73.5255,-53.6666,-2.8803,0
73.5991,-53.622,-2.89588,0
73.6714,-53.5755,-2.91138,0
73.7425,-53.5274,-2.92679,0
73.8123,-53.4776,-2.94211,0
73.8807,-53.4261,-2.95732,0
73.9477,-53.3731,-2.97241,0
74.0113,-53.316,-2.9884,0
74.0721,-53.2558,-3.00486,0
74.1311,-53.1943,-3.02116,0
74.1884,-53.1315,-3.03732,0
74.2439,-53.0673,-3.05332,0
74.2976,-53.0019,-3.06915,0
74.3494,-52.9354,-3.08478,0
74.3995,-52.8677,-3.10022,0
74.4477,-52.799,-3.11548,0
74.4941,-52.7294,-3.13051,0
74.5384,-52.6588,-3.14532,0
74.5811,-52.5872,-3.15992,0
74.6217,-52.515,-3.17428,0
74.6605,-52.4419,-3.1884,0
74.6973,-52.3681,-3.20227,0
74.7323,-52.2937,-3.21589,0
74.7652,-52.2188,-3.22924,0
74.7964,-52.1432,-3.24235,0
74.8255,-52.0672,-3.25517,0
74.8527,-51.9907,-3.26779,0
74.8778,-51.9138,-3.28011,0
74.9011,-51.8366,-3.29215,0
74.9225,-51.7591,-3.30388,0
74.9421,-51.6814,-3.31533,0
74.9598,-51.6036,-3.32648,0
74.9757,-51.5257,-3.33732,0
74.9897,-51.4477,-3.34786,0
75.002,-51.3697,-3.35809,0
75.0124,-51.2917,-3.368,0
75.021,-51.2138,-3.37761,0
75.0279,-51.136,-3.3869,0
75.033,-51.0583,-3.39588,0
75.0364,-50.9809,-3.40454,0
75.0381,-50.9036,-3.41288,0
75.045,-50.8277,-3.41939,0
75.0527,-50.7522,-3.42502,0
75.0589,-50.6766,-3.43039,0
75.0627,-50.6009,-3.43561,0
75.0644,-50.5251,-3.44067,0
75.0643,-50.4495,-3.44544,0
75.0626,-50.3739,-3.44993,0
75.0591,-50.2985,-3.45413,0
75.054,-50.2234,-3.45805,0
75.0473,-50.1484,-3.46169,0
75.0389,-50.0737,-3.46505,0
75.029,-49.9993,-3.46811,0
75.0174,-49.9252,-3.47089,0
75.0043,-49.8516,-3.47338,0
74.9894,-49.7783,-3.47559,0
74.9731,-49.7054,-3.4775,0
74.9552,-49.633,-3.47914,0
74.9358,-49.5612,-3.48049,0
74.9148,-49.4898,-3.48155,0
74.8923,-49.4191,-3.48233,0
74.8683,-49.3489,-3.48282,0
74.8429,-49.2793,-3.48303,0
74.816,-49.2104,-3.48295,0
74.7879,-49.1421,-3.48255,0
74.7583,-49.0746,-3.48188,0
74.7273,-49.0077,-3.48091,0
74.6951,-48.9416,-3.47967,0
74.6613,-48.8763,-3.47816,0
74.6263,-48.8118,-3.47637,0
74.5899,-48.7482,-3.47429,0
71.736,-54.0159,-2.57059,0
71.8214,-54.0214,-2.58235,0
71.907,-54.0247,-2.59427,0
71.9927,-54.0259,-2.60638,0
72.0783,-54.0249,-2.61864,0
72.164,-54.0217,-2.63107,0
72.2496,-54.0164,-2.64364,0
72.3351,-54.0089,-2.65635,0
72.4194,-53.9947,-2.67106,0
72.503,-53.9772,-2.68634,0
72.586,-53.9576,-2.70167,0
72.6684,-53.9359,-2.71707,0
72.7502,-53.9122,-2.7325,0
72.8312,-53.8865,-2.74795,0
72.9115,-53.8588,-2.76342,0
72.991,-53.8291,-2.7789,0
73.0697,-53.7975,-2.79438,0
73.1474,-53.7639,-2.80985,0
73.2241,-53.7285,-2.82529,0
73.2999,-53.6912,-2.84071,0
73.3747,-53.6521,-2.85608,0
73.4484,-53.6112,-2.8714,0
73.5209,-53.5686,-2.88666,0
73.5923,-53.5242,-2.90186,0
73.6625,-53.4781,-2.91697,0
73.7314,-53.4304,-2.93199,0
73.7991,-53.3811,-2.94692,0
73.8642,-53.3284,-2.96242,0
73.9261,-53.2722,-2.97868,0
73.9864,-53.2145,-2.99481,0
74.0451,-53.1553,-3.01082,0
74.102,-53.0949,-3.02667,0
74.1573,-53.0331,-3.04238,0
74.2109,-52.9701,-3.05793,0
74.2627,-52.906,-3.0733,0
74.3127,-52.8407,-3.0885,0
74.3609,-52.7743,-3.1035,0
74.4073,-52.707,-3.11831,0
74.4519,-52.6387,-3.13291,0
74.4947,-52.5695,-3.14729,0
74.5356,-52.4995,-3.16146,0
74.5747,-52.4287,-3.1754,0
74.6119,-52.3572,-3.18909,0
74.6473,-52.285,-3.20256,0
74.6807,-52.2122,-3.21577,0
74.7123,-52.1388,-3.22873,0
74.7421,-52.0649,-3.24142,0
74.7701,-51.9906,-3.25386,0
74.7961,-51.9158,-3.26603,0
74.8203,-51.8407,-3.27792,0
74.8425,-51.7653,-3.28958,0
74.8629,-51.6895,-3.30095,0
74.8814,-51.6136,-3.31205,0
74.8982,-51.5376,-3.32284,0
74.9131,-51.4614,-3.33335,0
74.9263,-51.3852,-3.34355,0
74.9377,-51.309,-3.35343,0
74.9473,-51.2328,-3.36303,0
74.9552,-51.1567,-3.37233,0
74.9613,-51.0807,-3.38131,0
74.9659,-51.0048,-3.38999,0
74.9687,-50.9292,-3.39837,0
74.9732,-50.8543,-3.40563,0
74.9819,-50.7804,-3.41131,0
74.9887,-50.7064,-3.41674,0
74.9928,-50.6322,-3.42213,0
74.9954,-50.558,-3.42724,0
74.9962,-50.4839,-3.43208,0
74.9955,-50.4099,-3.43663,0
74.9931,-50.336,-3.44091,0
74.9891,-50.2623,-3.44492,0
74.9834,-50.1887,-3.44864,0
74.9762,-50.1154,-3.45209,0
74.9674,-50.0424,-3.45525,0
74.957,-49.9697,-3.45814,0
74.945,-49.8973,-3.46074,0
74.9314,-49.8253,-3.46307,0
74.9163,-49.7538,-3.4651,0
74.8997,-49.6826,-3.46687,0
74.8815,-49.6119,-3.46835,0
74.8618,-49.5417,-3.46956,0
74.8406,-49.4721,-3.47048,0
74.818,-49.403,-3.47111,0
74.7941,-49.3345,-3.47144,0
74.7688,-49.2666,-3.4715,0
74.742,-49.1993,-3.47126,0
74.7138,-49.1327,-3.47075,0
74.6843,-49.0668,-3.46997,0
74.6534,-49.0016,-3.46891,0
74.6212,-48.9372,-3.46758,0
74.5876,-48.8735,-3.46597,0
74.5527,-48.8107,-3.46409,0
71.8011,-54.0203,-2.57953,0
71.8866,-54.0241,-2.59143,0
71.9723,-54.0258,-2.60349,0
72.0579,-54.0253,-2.61572,0
72.1437,-54.0227,-2.6281,0
72.2293,-54.0179,-2.64064,0
72.3148,-54.0109,-2.65332,0
72.3995,-53.9986,-2.66744,0
72.4831,-53.9815,-2.68271,0
72.5663,-53.9624,-2.69803,0
72.6489,-53.9412,-2.71341,0
72.7308,-53.918,-2.72883,0
72.812,-53.8928,-2.74428,0
72.8925,-53.8655,-2.75975,0
72.9722,-53.8363,-2.77522,0
73.051,-53.8051,-2.79071,0
73.129,-53.7721,-2.80617,0
73.206,-53.7371,-2.82163,0
73.282,-53.7002,-2.83705,0
73.357,-53.6616,-2.85243,0
73.4309,-53.6211,-2.86777,0
73.5038,-53.5788,-2.88305,0
73.5754,-53.5349,-2.89826,0
73.6459,-53.4892,-2.91339,0
73.7152,-53.4419,-2.92843,0
73.7831,-53.3929,-2.94338,0
73.8492,-53.3416,-2.95855,0
73.9116,-53.2857,-2.97483,0
73.9723,-53.2283,-2.99099,0
74.0312,-53.1695,-3.00702,0
74.0887,-53.1094,-3.02292,0
74.1444,-53.0479,-3.03866,0
74.1984,-52.9852,-3.05425,0
74.2505,-52.9213,-3.06967,0
74.3009,-52.8563,-3.0849,0
74.3496,-52.7902,-3.09996,0
74.3964,-52.7231,-3.11481,0
74.4414,-52.655,-3.12946,0
74.4846,-52.586,-3.14389,0
74.526,-52.5162,-3.15811,0
74.5655,-52.4456,-3.1721,0
74.6031,-52.3742,-3.18587,0
74.639,-52.3022,-3.19938,0
74.6729,-52.2295,-3.21265,0
74.705,-52.1563,-3.22568,0
74.7352,-52.0825,-3.23843,0
74.7636,-52.0083,-3.25093,0
74.7901,-51.9336,-3.26317,0
74.8147,-51.8586,-3.27512,0
74.8374,-51.7832,-3.28684,0
74.8582,-51.7076,-3.29828,0
74.8772,-51.6317,-3.30944,0
74.8943,-51.5557,-3.32031,0
74.9097,-51.4795,-3.33087,0
74.9233,-51.4033,-3.34114,0
74.9352,-51.3271,-3.35112,0
74.9452,-51.2509,-3.36078,0
74.9535,-51.1748,-3.37015,0
74.9601,-51.0987,-3.37921,0
74.965,-51.0228,-3.38797,0
74.9681,-50.9471,-3.3964,0
74.9709,-50.8719,-3.40424,0
74.9799,-50.798,-3.40999,0
74.9873,-50.724,-3.41545,0
74.992,-50.6498,-3.42088,0
74.9949,-50.5756,-3.42606,0
74.9962,-50.5015,-3.43095,0
74.9958,-50.4275,-3.43557,0
74.9938,-50.3535,-3.43992,0
74.9902,-50.2798,-3.44399,0
74.9849,-50.2062,-3.44778,0
74.9781,-50.1328,-3.45129,0
74.9697,-50.0598,-3.45452,0
74.9596,-49.987,-3.45747,0
74.948,-49.9145,-3.46015,0
74.9348,-49.8424,-3.46254,0
74.9201,-49.7707,-3.46465,0
74.9037,-49.6995,-3.46648,0
74.8859,-49.6287,-3.46802,0
74.8666,-49.5584,-3.46929,0
74.8459,-49.4886,-3.47028,0
74.8235,-49.4194,-3.471,0
74.7999,-49.3507,-3.47139,0
74.775,-49.2826,-3.4715,0
74.7485,-49.2152,-3.47134,0
74.7207,-49.1484,-3.4709,0
74.6914,-49.0824,-3.47018,0
74.6609,-49.017,-3.46919,0
74.6289,-48.9524,-3.46792,0
74.5957,-48.8886,-3.46637,0
74.5611,-48.8256,-3.46456,0
74.5252,-48.7634,-3.46249,0
71.7809,-54.019,-2.57674,0
71.8662,-54.0234,-2.58858,0
71.9519,-54.0256,-2.6006,0
72.0376,-54.0256,-2.6128,0
72.1233,-54.0235,-2.62514,0
72.2089,-54.0192,-2.63764,0
72.2945,-54.0127,-2.65029,0
72.3794,-54.0023,-2.66383,0
72.4634,-53.9858,-2.67907,0
72.5466,-53.9671,-2.69439,0
72.6293,-53.9464,-2.70975,0
72.7114,-53.9237,-2.72516,0
72.7928,-53.8989,-2.7406,0
72.8734,-53.8722,-2.75607,0
72.9534,-53.8434,-2.77154,0
73.0323,-53.8127,-2.78702,0
73.1105,-53.7801,-2.8025,0
73.1878,-53.7456,-2.81795,0
73.2641,-53.7092,-2.83339,0
73.3393,-53.6709,-2.84878,0
73.4134,-53.6309,-2.86413,0
73.4866,-53.5891,-2.87942,0
73.5585,-53.5455,-2.89465,0
73.6292,-53.5002,-2.90979,0
73.6988,-53.4533,-2.92487,0
73.7671,-53.4047,-2.93984,0
73.8341,-53.3545,-2.95472,0
73.8969,-53.2991,-2.97097,0
73.958,-53.2421,-2.98716,0
74.0174,-53.1836,-3.00322,0
74.0752,-53.1238,-3.01916,0
74.1313,-53.0626,-3.03494,0
74.1857,-53.0002,-3.05056,0
74.2382,-52.9366,-3.06602,0
74.2891,-52.8718,-3.0813,0
74.3382,-52.806,-3.09639,0
74.3855,-52.7391,-3.1113,0
74.4309,-52.6713,-3.126,0
74.4745,-52.6025,-3.14049,0
74.5164,-52.5329,-3.15475,0
74.5563,-52.4624,-3.1688,0
74.5944,-52.3912,-3.18262,0
74.6307,-52.3194,-3.19619,0
74.6651,-52.2468,-3.20952,0
74.6976,-52.1737,-3.2226,0
74.7282,-52.1001,-3.23542,0
74.757,-52.0259,-3.24799,0
74.784,-51.9514,-3.26028,0
74.8091,-51.8765,-3.27231,0
74.8322,-51.8012,-3.28407,0
74.8534,-51.7256,-3.29558,0
74.8728,-51.6497,-3.30681,0
74.8904,-51.5737,-3.31775,0
74.9062,-51.4976,-3.32838,0
74.9202,-51.4214,-3.33873,0
74.9325,-51.3452,-3.34877,0
74.943,-51.269,-3.35851,0
74.9516,-51.1929,-3.36795,0
74.9587,-51.1168,-3.37708,0
74.9639,-51.0409,-3.38591,0
74.9676,-50.9651,-3.39443,0
74.9695,-50.8896,-3.40264,0
74.978,-50.8156,-3.40864,0
74.9857,-50.7416,-3.41418,0
74.9911,-50.6675,-3.4196,0
74.9944,-50.5933,-3.42485,0
74.996,-50.5191,-3.42981,0
74.996,-50.4451,-3.43449,0
74.9945,-50.3711,-3.43891,0
74.9912,-50.2973,-3.44304,0
74.9864,-50.2237,-3.44691,0
74.9799,-50.1503,-3.45048,0
74.9718,-50.0771,-3.45378,0
74.9621,-50.0042,-3.4568,0
74.9509,-49.9317,-3.45953,0
74.938,-49.8595,-3.462,0
74.9237,-49.7877,-3.46417,0
74.9077,-49.7164,-3.46606,0
74.8903,-49.6455,-3.46768,0
74.8713,-49.575,-3.46902,0
74.8509,-49.5051,-3.47007,0
74.829,-49.4358,-3.47086,0
74.8057,-49.367,-3.47132,0
74.781,-49.2988,-3.4715,0
74.7549,-49.2312,-3.4714,0
74.7274,-49.1642,-3.47103,0
74.6985,-49.098,-3.47037,0
74.6683,-49.0325,-3.46944,0
74.6366,-48.9677,-3.46823,0
74.6037,-48.9037,-3.46677,0
74.5694,-48.8405,-3.46502,0
74.5338,-48.7781,-3.463,0
71.7375,-53.9295,-2.57733,0
71.8209,-53.9354,-2.58853,0
71.9045,-53.9386,-2.60019,0
71.9883,-53.9397,-2.61203,0
72.072,-53.9386,-2.62402,0
72.1557,-53.9355,-2.63616,0
72.2394,-53.9302,-2.64845,0
72.323,-53.9228,-2.66088,0
72.4055,-53.9098,-2.67491,0
72.4872,-53.8928,-2.68983,0
72.5684,-53.8737,-2.70482,0
72.649,-53.8526,-2.71987,0
72.7289,-53.8295,-2.73494,0
72.8081,-53.8044,-2.75004,0
72.8866,-53.7774,-2.76517,0
72.9643,-53.7485,-2.7803,0
73.0413,-53.7177,-2.79543,0
73.1173,-53.685,-2.81055,0
73.1924,-53.6505,-2.82565,0
73.2665,-53.6141,-2.84072,0
73.3397,-53.576,-2.85575,0
73.4117,-53.5361,-2.87073,0
73.4827,-53.4945,-2.88566,0
73.5527,-53.4512,-2.90052,0
73.6213,-53.4063,-2.91529,0
73.6888,-53.3597,-2.92999,0
73.7528,-53.3085,-2.94585,0
73.8149,-53.2552,-2.96183,0
73.8755,-53.2005,-2.9777,0
73.9347,-53.1444,-2.99345,0
73.992,-53.0868,-3.00908,0
74.048,-53.028,-3.02458,0
74.102,-52.9679,-3.03992,0
74.1545,-52.9066,-3.05511,0
74.2053,-52.8441,-3.07013,0
74.2543,-52.7805,-3.08499,0
74.3016,-52.7159,-3.09966,0
74.3472,-52.6503,-3.11415,0
74.3909,-52.5838,-3.12842,0
74.433,-52.5164,-3.1425,0
74.4732,-52.4481,-3.15635,0
74.5116,-52.3791,-3.16999,0
74.5482,-52.3094,-3.18341,0
74.583,-52.239,-3.19658,0
74.6159,-52.1679,-3.20952,0
74.6471,-52.0964,-3.22221,0
74.6764,-52.0243,-3.23466,0
74.704,-51.9518,-3.24684,0
74.7298,-51.8788,-3.25877,0
74.7537,-51.8055,-3.27043,0
74.7757,-51.7319,-3.28181,0
74.7961,-51.658,-3.29293,0
74.8146,-51.5839,-3.30377,0
74.8314,-51.5096,-3.31435,0
74.8462,-51.4352,-3.32466,0
74.8594,-51.3608,-3.33467,0
74.8707,-51.2862,-3.34439,0
74.8805,-51.2117,-3.35383,0
74.8884,-51.1373,-3.36295,0
74.8948,-51.063,-3.37179,0
74.8994,-50.9888,-3.38032,0
74.9024,-50.9148,-3.38855,0
74.9087,-50.8418,-3.39532,0
74.9168,-50.7693,-3.40096,0
74.9227,-50.6967,-3.40651,0
74.9269,-50.6241,-3.4118,0
74.9295,-50.5514,-3.41682,0
74.9305,-50.4789,-3.42157,0
74.9298,-50.4064,-3.42605,0
74.9276,-50.334,-3.43026,0
74.9238,-50.2618,-3.4342,0
74.9183,-50.1897,-3.43785,0
74.9113,-50.1179,-3.44125,0
74.9027,-50.0464,-3.44436,0
74.8926,-49.9752,-3.4472,0
74.8809,-49.9042,-3.44977,0
74.8677,-49.8337,-3.45206,0
74.853,-49.7636,-3.45407,0
74.8368,-49.6938,-3.45582,0
74.8191,-49.6245,-3.45728,0
74.8001,-49.5557,-3.45844,0
74.7796,-49.4874,-3.45932,0
74.7577,-49.4197,-3.45993,0
74.7343,-49.3525,-3.46026,0
74.7094,-49.2859,-3.46032,0
74.6833,-49.2199,-3.46011,0
74.6558,-49.1546,-3.45963,0
74.6269,-49.09,-3.45887,0
74.5966,-49.0261,-3.45785,0
74.5651,-48.9629,-3.45654,0
74.5322,-48.9005,-3.45499,0
74.498,-48.8389,-3.45316,0
71.8011,-53.9344,-2.58578,0
71.8847,-53.938,-2.5974,0
71.9684,-53.9396,-2.6092,0
72.0521,-53.939,-2.62116,0
72.1358,-53.9364,-2.63326,0
72.2195,-53.9316,-2.64552,0
72.3031,-53.9248,-2.65791,0
72.386,-53.9136,-2.67136,0
72.4678,-53.897,-2.68628,0
72.5491,-53.8784,-2.70126,0
72.6298,-53.8578,-2.71629,0
72.7099,-53.8351,-2.73136,0
72.7894,-53.8106,-2.74645,0
72.868,-53.784,-2.76157,0
72.9459,-53.7555,-2.7767,0
73.023,-53.7252,-2.79184,0
73.0993,-53.6929,-2.80696,0
73.1746,-53.6588,-2.82207,0
73.2491,-53.6229,-2.83715,0
73.3224,-53.5852,-2.85218,0
73.3948,-53.5457,-2.86718,0
73.466,-53.5045,-2.88212,0
73.5362,-53.4617,-2.89699,0
73.6052,-53.4171,-2.91179,0
73.6728,-53.3709,-2.9265,0
73.7378,-53.3209,-2.94203,0
73.8003,-53.268,-2.95804,0
73.8613,-53.2137,-2.97393,0
73.9207,-53.1578,-2.98972,0
73.9786,-53.1006,-3.00538,0
74.0348,-53.0421,-3.02091,0
74.0893,-52.9823,-3.03629,0
74.1422,-52.9213,-3.05152,0
74.1934,-52.859,-3.06659,0
74.2428,-52.7957,-3.08149,0
74.2905,-52.7314,-3.09619,0
74.3365,-52.666,-3.11072,0
74.3807,-52.5997,-3.12505,0
74.4231,-52.5325,-3.13917,0
74.4637,-52.4644,-3.15309,0
74.5026,-52.3956,-3.16678,0
74.5396,-52.326,-3.18024,0
74.5748,-52.2558,-3.19347,0
74.6083,-52.1849,-3.20647,0
74.6398,-52.1134,-3.21922,0
74.6697,-52.0415,-3.23172,0
74.6977,-51.969,-3.24398,0
74.7237,-51.8962,-3.25595,0
74.7481,-51.8229,-3.26768,0
74.7707,-51.7494,-3.27914,0
74.7914,-51.6756,-3.29031,0
74.8104,-51.6015,-3.30122,0
74.8275,-51.5273,-3.31185,0
74.8428,-51.4529,-3.32223,0
74.8564,-51.3785,-3.33232,0
74.8683,-51.304,-3.3421,0
74.8784,-51.2294,-3.35161,0
74.8867,-51.155,-3.36081,0
74.8934,-51.0806,-3.36971,0
74.8985,-51.0064,-3.37832,0
74.9018,-50.9323,-3.38662,0
74.9064,-50.859,-3.39395,0
74.9152,-50.7866,-3.39961,0
74.9214,-50.714,-3.40522,0
74.926,-50.6413,-3.41057,0
74.929,-50.5687,-3.41566,0
74.9304,-50.4961,-3.42047,0
74.9301,-50.4236,-3.42501,0
74.9283,-50.3512,-3.42929,0
74.9248,-50.2789,-3.43328,0
74.9198,-50.2068,-3.43701,0
74.9131,-50.135,-3.44047,0
74.9049,-50.0634,-3.44365,0
74.8952,-49.9921,-3.44656,0
74.8838,-49.9211,-3.44919,0
74.871,-49.8504,-3.45154,0
74.8566,-49.7802,-3.45362,0
74.8408,-49.7104,-3.45543,0
74.8234,-49.641,-3.45696,0
74.8047,-49.572,-3.45819,0
74.7845,-49.5036,-3.45914,0
74.763,-49.4357,-3.45981,0
74.7399,-49.3684,-3.46021,0
74.7155,-49.3017,-3.46033,0
74.6896,-49.2356,-3.46019,0
74.6624,-49.1701,-3.45977,0
74.6338,-49.1053,-3.45908,0
74.604,-49.0412,-3.45811,0
74.5727,-48.9779,-3.45688,0
74.5402,-48.9153,-3.45538,0
74.5062,-48.8535,-3.45361,0
74.4712,-48.7925,-3.4516,0
71.7813,-53.9332,-2.58305,0
71.8648,-53.9374,-2.59463,0
71.9484,-53.9394,-2.60638,0
72.0322,-53.9394,-2.6183,0
72.1159,-53.9372,-2.63037,0
72.1996,-53.933,-2.64259,0
72.2832,-53.9266,-2.65495,0
72.3665,-53.9172,-2.66783,0
72.4484,-53.9011,-2.68273,0
72.5298,-53.883,-2.69769,0
72.6107,-53.8628,-2.71271,0
72.6909,-53.8407,-2.72777,0
72.7705,-53.8166,-2.74286,0
72.8494,-53.7905,-2.75798,0
72.9276,-53.7625,-2.7731,0
73.0048,-53.7326,-2.78824,0
73.0812,-53.7008,-2.80337,0
73.1568,-53.6671,-2.81848,0
73.2315,-53.6316,-2.83356,0
73.3051,-53.5943,-2.84861,0
73.3777,-53.5553,-2.86362,0
73.4491,-53.5145,-2.87857,0
73.5195,-53.472,-2.89345,0
73.5888,-53.4278,-2.90828,0
73.6569,-53.382,-2.92301,0
73.7227,-53.3333,-2.93822,0
73.7856,-53.2807,-2.95425,0
73.847,-53.2267,-2.97017,0
73.9068,-53.1712,-2.98599,0
73.965,-53.1143,-3.00168,0
74.0216,-53.0561,-3.01723,0
74.0765,-52.9966,-3.03265,0
74.1298,-52.9359,-3.04792,0
74.1814,-52.8739,-3.06302,0
74.2312,-52.8109,-3.07795,0
74.2794,-52.7468,-3.09271,0
74.3258,-52.6816,-3.10729,0
74.3704,-52.6155,-3.12166,0
74.4132,-52.5485,-3.13584,0
74.4542,-52.4806,-3.1498,0
74.4935,-52.412,-3.16354,0
74.531,-52.3426,-3.17706,0
74.5666,-52.2725,-3.19035,0
74.6005,-52.2018,-3.2034,0
74.6325,-52.1305,-3.21622,0
74.6627,-52.0586,-3.22877,0
74.6912,-51.9863,-3.24109,0
74.7177,-51.9135,-3.25314,0
74.7425,-51.8404,-3.26492,0
74.7655,-51.7669,-3.27644,0
74.7866,-51.6931,-3.28769,0
74.806,-51.6192,-3.29865,0
74.8237,-51.545,-3.30935,0
74.8394,-51.4706,-3.31979,0
74.8533,-51.3962,-3.32995,0
74.8655,-51.3217,-3.33981,0
74.8761,-51.2472,-3.34938,0
74.8848,-51.1727,-3.35865,0
74.892,-51.0983,-3.36763,0
74.8974,-51.024,-3.3763,0
74.9012,-50.9499,-3.38468,0
74.9041,-50.8762,-3.39258,0
74.9134,-50.8038,-3.39827,0
74.9201,-50.7313,-3.40391,0
74.9251,-50.6586,-3.40932,0
74.9284,-50.586,-3.41446,0
74.9302,-50.5133,-3.41935,0
74.9303,-50.4408,-3.42395,0
74.9287,-50.3684,-3.42829,0
74.9257,-50.2961,-3.43236,0
74.9211,-50.224,-3.43615,0
74.9148,-50.152,-3.43967,0
74.907,-50.0804,-3.44292,0
74.8976,-50.009,-3.44589,0
74.8866,-49.9379,-3.44859,0
74.8742,-49.8672,-3.45101,0
74.8602,-49.7968,-3.45316,0
74.8447,-49.7269,-3.45503,0
74.8277,-49.6574,-3.45662,0
74.8093,-49.5884,-3.45792,0
74.7895,-49.5198,-3.45894,0
74.7682,-49.4518,-3.45967,0
74.7455,-49.3844,-3.46014,0
74.7215,-49.3175,-3.46033,0
74.6959,-49.2512,-3.46025,0
74.6691,-49.1856,-3.45989,0
74.6408,-49.1206,-3.45926,0
74.6112,-49.0564,-3.45836,0
74.5802,-48.9929,-3.4572,0
74.548,-48.9301,-3.45576,0
74.5145,-48.8681,-3.45406,0
74.4797,-48.8069,-3.4521,0
71.7388,-53.8458,-2.58414,0
71.8205,-53.8523,-2.59472,0
71.9022,-53.8559,-2.60589,0
71.9841,-53.8568,-2.61746,0
72.0659,-53.8557,-2.62919,0
72.1478,-53.8526,-2.64106,0
72.2295,-53.8474,-2.65308,0
72.3112,-53.8401,-2.66523,0
72.3922,-53.8282,-2.6786,0
72.472,-53.8116,-2.6932,0
72.5514,-53.793,-2.70785,0
72.6302,-53.7725,-2.72255,0
72.7084,-53.75,-2.73729,0
72.7859,-53.7255,-2.75206,0
72.8627,-53.6992,-2.76685,0
72.9388,-53.671,-2.78165,0
73.014,-53.641,-2.79644,0
73.0884,-53.6091,-2.81123,0
73.1619,-53.5754,-2.82599,0
73.2345,-53.54,-2.84073,0
73.306,-53.5028,-2.85544,0
73.3766,-53.4638,-2.87009,0
73.446,-53.4233,-2.88469,0
73.5145,-53.381,-2.89922,0
73.5809,-53.336,-2.91417,0
73.6446,-53.2872,-2.92995,0
73.707,-53.2369,-2.94564,0
73.7678,-53.1851,-2.96125,0
73.8272,-53.1318,-2.97675,0
73.885,-53.0771,-2.99214,0
73.9412,-53.0211,-3.00741,0
73.9959,-52.9639,-3.02256,0
74.049,-52.9053,-3.03756,0
74.1004,-52.8456,-3.05241,0
74.1502,-52.7847,-3.06711,0
74.1983,-52.7228,-3.08163,0
74.2447,-52.6598,-3.09597,0
74.2895,-52.5959,-3.11015,0
74.3324,-52.531,-3.12412,0
74.3737,-52.4653,-3.13789,0
74.4131,-52.3988,-3.15146,0
74.4509,-52.3314,-3.16481,0
74.487,-52.2634,-3.17795,0
74.5212,-52.1947,-3.19085,0
74.5536,-52.1254,-3.20352,0
74.5844,-52.0556,-3.21596,0
74.6133,-51.9852,-3.22815,0
74.6405,-51.9144,-3.24009,0
74.6659,-51.8432,-3.25178,0
74.6895,-51.7716,-3.26321,0
74.7113,-51.6997,-3.27439,0
74.7315,-51.6275,-3.28529,0
74.7498,-51.5551,-3.29592,0
74.7666,-51.4826,-3.30629,0
74.7815,-51.4099,-3.31637,0
74.7947,-51.3371,-3.32618,0
74.8062,-51.2643,-3.3357,0
74.816,-51.1914,-3.34495,0
74.8241,-51.1186,-3.35391,0
74.8305,-51.0459,-3.3626,0
74.8353,-50.9733,-3.37099,0
74.8384,-50.9009,-3.37909,0
74.8458,-50.8296,-3.38548,0
74.8532,-50.7585,-3.39118,0
74.8591,-50.6874,-3.39664,0
74.8633,-50.6162,-3.40183,0
74.8659,-50.5451,-3.40676,0
74.8669,-50.474,-3.41143,0
74.8663,-50.403,-3.41584,0
74.8642,-50.3321,-3.41997,0
74.8605,-50.2613,-3.42384,0
74.8553,-50.1907,-3.42745,0
74.8486,-50.1204,-3.43078,0
74.8402,-50.0502,-3.43385,0
74.8305,-49.9804,-3.43665,0
74.8191,-49.9109,-3.43918,0
74.8063,-49.8418,-3.44141,0
74.7922,-49.773,-3.44338,0
74.7764,-49.7046,-3.44506,0
74.7593,-49.6367,-3.44649,0
74.7407,-49.5692,-3.44764,0
74.7207,-49.5022,-3.44852,0
74.6992,-49.4358,-3.44913,0
74.6763,-49.3699,-3.44946,0
74.6522,-49.3046,-3.44954,0
74.6266,-49.2399,-3.44934,0
74.5996,-49.1759,-3.44888,0
74.5714,-49.1125,-3.44814,0
74.5418,-49.0498,-3.44715,0
74.5109,-48.9879,-3.4459,0
74.4788,-48.9266,-3.44437,0
74.4452,-48.8662,-3.44259,0
71.801,-53.851,-2.59218,0
71.8828,-53.8553,-2.60316,0
71.9646,-53.8568,-2.6147,0
72.0465,-53.8562,-2.62638,0
72.1284,-53.8535,-2.63823,0
72.2102,-53.8488,-2.65021,0
72.2918,-53.842,-2.66233,0
72.373,-53.8319,-2.67514,0
72.453,-53.8157,-2.68972,0
72.5326,-53.7976,-2.70436,0
72.6115,-53.7775,-2.71906,0
72.6899,-53.7555,-2.73379,0
72.7676,-53.7315,-2.74855,0
72.8445,-53.7056,-2.76334,0
72.9208,-53.6779,-2.77813,0
72.9962,-53.6483,-2.79293,0
73.0708,-53.6168,-2.80771,0
73.1445,-53.5836,-2.82249,0
73.2173,-53.5485,-2.83723,0
73.2891,-53.5118,-2.85195,0
73.3598,-53.4732,-2.86661,0
73.4296,-53.4331,-2.88122,0
73.4983,-53.3912,-2.89577,0
73.5655,-53.3473,-2.91041,0
73.6296,-53.2989,-2.92621,0
73.6923,-53.249,-2.94192,0
73.7535,-53.1975,-2.95755,0
73.8132,-53.1446,-2.97307,0
73.8714,-53.0903,-2.98849,0
73.928,-53.0346,-3.0038,0
73.9831,-52.9776,-3.01898,0
74.0366,-52.9193,-3.03401,0
74.0884,-52.8599,-3.04889,0
74.1386,-52.7993,-3.06362,0
74.187,-52.7376,-3.0782,0
74.2338,-52.6749,-3.09258,0
74.279,-52.6112,-3.10679,0
74.3223,-52.5465,-3.12081,0
74.364,-52.481,-3.13464,0
74.404,-52.4146,-3.14825,0
74.4421,-52.3475,-3.16165,0
74.4785,-52.2796,-3.17485,0
74.5132,-52.2111,-3.1878,0
74.5461,-52.142,-3.20053,0
74.5772,-52.0722,-3.21302,0
74.6066,-52.002,-3.22528,0
74.6341,-51.9313,-3.23727,0
74.66,-51.8601,-3.24903,0
74.6841,-51.7886,-3.26051,0
74.7063,-51.7168,-3.27175,0
74.7269,-51.6447,-3.28272,0
74.7456,-51.5724,-3.29341,0
74.7627,-51.4998,-3.30385,0
74.778,-51.4272,-3.314,0
74.7916,-51.3544,-3.32388,0
74.8035,-51.2816,-3.33347,0
74.8138,-51.2087,-3.34278,0
74.8223,-51.1359,-3.35181,0
74.8291,-51.0632,-3.36056,0
74.8343,-50.9906,-3.36902,0
74.8379,-50.9181,-3.37719,0
74.8438,-50.8465,-3.38408,0
74.8516,-50.7754,-3.38985,0
74.8577,-50.7043,-3.39537,0
74.8623,-50.6332,-3.40062,0
74.8654,-50.562,-3.40561,0
74.8668,-50.4909,-3.41034,0
74.8666,-50.4198,-3.41481,0
74.8649,-50.3489,-3.41901,0
74.8616,-50.2781,-3.42295,0
74.8567,-50.2075,-3.42662,0
74.8503,-50.1371,-3.43002,0
74.8424,-50.0669,-3.43315,0
74.8329,-49.997,-3.43601,0
74.822,-49.9274,-3.4386,0
74.8095,-49.8582,-3.44091,0
74.7956,-49.7893,-3.44293,0
74.7803,-49.7208,-3.44469,0
74.7635,-49.6528,-3.44618,0
74.7452,-49.5852,-3.44739,0
74.7255,-49.5181,-3.44833,0
74.7044,-49.4515,-3.44901,0
74.682,-49.3855,-3.44941,0
74.658,-49.3201,-3.44955,0
74.6328,-49.2552,-3.44941,0
74.6062,-49.191,-3.44901,0
74.5782,-49.1275,-3.44835,0
74.5489,-49.0646,-3.44741,0
74.5184,-49.0025,-3.44622,0
74.4865,-48.9411,-3.44476,0
74.4534,-48.8805,-3.44304,0
74.419,-48.8206,-3.44106,0
71.7816,-53.8495,-2.58967,0
71.8634,-53.8547,-2.60044,0
71.9452,-53.8566,-2.61193,0
72.027,-53.8565,-2.62359,0
72.1089,-53.8543,-2.6354,0
72.1907,-53.8501,-2.64735,0
72.2724,-53.8438,-2.65944,0
72.354,-53.8354,-2.67168,0
72.4341,-53.8197,-2.68625,0
72.5137,-53.8021,-2.70088,0
72.5928,-53.7825,-2.71556,0
72.6712,-53.7609,-2.73029,0
72.7491,-53.7374,-2.74505,0
72.8262,-53.712,-2.75982,0
72.9027,-53.6847,-2.77461,0
72.9784,-53.6555,-2.78941,0
73.0531,-53.6245,-2.8042,0
73.1271,-53.5916,-2.81898,0
73.2001,-53.557,-2.83373,0
73.2721,-53.5207,-2.84845,0
73.3432,-53.4826,-2.86313,0
73.4132,-53.4428,-2.87776,0
73.4821,-53.4013,-2.89232,0
73.5498,-53.3582,-2.90682,0
73.6145,-53.3106,-2.92246,0
73.6776,-53.261,-2.93819,0
73.7391,-53.2099,-2.95384,0
73.7992,-53.1573,-2.9694,0
73.8577,-53.1033,-2.98484,0
73.9147,-53.0479,-3.00017,0
73.9702,-52.9912,-3.01538,0
74.024,-52.9333,-3.03046,0
74.0762,-52.8741,-3.04538,0
74.1267,-52.8138,-3.06015,0
74.1756,-52.7524,-3.07475,0
74.2228,-52.6899,-3.08919,0
74.2684,-52.6264,-3.10344,0
74.3122,-52.562,-3.1175,0
74.3543,-52.4966,-3.13137,0
74.3946,-52.4305,-3.14504,0
74.4332,-52.3635,-3.15849,0
74.47,-52.2958,-3.17173,0
74.5052,-52.2275,-3.18474,0
74.5384,-52.1584,-3.19753,0
74.57,-52.0889,-3.21008,0
74.5998,-52.0187,-3.22238,0
74.6277,-51.9481,-3.23445,0
74.654,-51.8771,-3.24626,0
74.6784,-51.8057,-3.25781,0
74.7012,-51.7339,-3.26911,0
74.7221,-51.6619,-3.28013,0
74.7413,-51.5896,-3.2909,0
74.7588,-51.5171,-3.30139,0
74.7746,-51.4444,-3.31161,0
74.7886,-51.3717,-3.32155,0
74.8009,-51.2989,-3.33122,0
74.8116,-51.2261,-3.34059,0
74.8205,-51.1532,-3.34968,0
74.8277,-51.0805,-3.3585,0
74.8333,-51.0078,-3.36704,0
74.8372,-50.9353,-3.37528,0
74.8417,-50.8633,-3.38267,0
74.8499,-50.7923,-3.3885,0
74.8565,-50.7212,-3.39408,0
74.8615,-50.6501,-3.3994,0
74.8648,-50.5789,-3.40445,0
74.8666,-50.5078,-3.40925,0
74.8668,-50.4367,-3.41378,0
74.8655,-50.3657,-3.41803,0
74.8625,-50.2949,-3.42203,0
74.858,-50.2242,-3.42577,0
74.852,-50.1538,-3.42923,0
74.8445,-50.0835,-3.43243,0
74.8353,-50.0136,-3.43535,0
74.8247,-49.9439,-3.43801,0
74.8126,-49.8746,-3.44038,0
74.7991,-49.8056,-3.44248,0
74.7841,-49.737,-3.4443,0
74.7676,-49.6689,-3.44584,0
74.7497,-49.6012,-3.44712,0
74.7303,-49.534,-3.44813,0
74.7096,-49.4673,-3.44886,0
74.6874,-49.4011,-3.44934,0
74.6638,-49.3356,-3.44954,0
74.6389,-49.2706,-3.44946,0
74.6126,-49.2062,-3.44913,0
74.585,-49.1425,-3.44853,0
74.556,-49.0795,-3.44766,0
74.5257,-49.0172,-3.44652,0
74.4942,-48.9556,-3.44513,0
74.4613,-48.8948,-3.44347,0
74.4273,-48.8348,-3.44155,0
71.7402,-53.7653,-2.59067,0
71.82,-53.7716,-2.60103,0
71.9,-53.7758,-2.61158,0
71.98,-53.7772,-2.62268,0
72.0601,-53.776,-2.63416,0
72.1401,-53.7729,-2.64577,0
72.2201,-53.7677,-2.65754,0
72.2999,-53.7606,-2.66942,0
72.3793,-53.7497,-2.68215,0
72.4574,-53.7335,-2.69643,0
72.5351,-53.7154,-2.71076,0
72.6122,-53.6954,-2.72514,0
72.6887,-53.6735,-2.73955,0
72.7645,-53.6496,-2.754,0
72.8397,-53.624,-2.76846,0
72.9141,-53.5965,-2.78294,0
72.9878,-53.5672,-2.79741,0
73.0605,-53.536,-2.81188,0
73.1326,-53.5032,-2.82632,0
73.2036,-53.4686,-2.84074,0
73.2736,-53.4323,-2.85512,0
73.3427,-53.3943,-2.86947,0
73.4108,-53.3547,-2.88375,0
73.4759,-53.3105,-2.89922,0
73.5396,-53.2646,-2.9147,0
73.602,-53.2171,-2.9301,0
73.663,-53.1681,-2.94545,0
73.7226,-53.1177,-2.96069,0
73.7806,-53.0658,-2.97585,0
73.8373,-53.0126,-2.99089,0
73.8925,-52.958,-3.00582,0
73.946,-52.9022,-3.02063,0
73.998,-52.8452,-3.03529,0
74.0484,-52.787,-3.04982,0
74.0973,-52.7277,-3.06419,0
74.1445,-52.6673,-3.0784,0
74.1901,-52.6059,-3.09244,0
74.2339,-52.5436,-3.1063,0
74.2762,-52.4803,-3.11997,0
74.3166,-52.4162,-3.13346,0
74.3555,-52.3513,-3.14674,0
74.3927,-52.2856,-3.15982,0
74.428,-52.2192,-3.17268,0
74.4617,-52.1522,-3.18533,0
74.4937,-52.0845,-3.19774,0
74.5239,-52.0163,-3.20993,0
74.5525,-51.9476,-3.22188,0
74.5792,-51.8785,-3.23359,0
74.6044,-51.8089,-3.24505,0
74.6277,-51.7389,-3.25627,0
74.6494,-51.6687,-3.26722,0
74.6693,-51.5982,-3.27792,0
74.6875,-51.5274,-3.28836,0
74.7041,-51.4565,-3.29853,0
74.7189,-51.3854,-3.30843,0
74.732,-51.3142,-3.31807,0
74.7435,-51.243,-3.32743,0
74.7534,-51.1717,-3.33651,0
74.7616,-51.1005,-3.34531,0
74.7681,-51.0294,-3.35384,0
74.773,-50.9583,-3.36209,0
74.7764,-50.8874,-3.37006,0
74.7848,-50.8178,-3.37606,0
74.792,-50.7481,-3.38168,0
74.7977,-50.6784,-3.38705,0
74.8019,-50.6087,-3.39216,0
74.8046,-50.539,-3.39702,0
74.8057,-50.4693,-3.40161,0
74.8052,-50.3997,-3.40593,0
74.8033,-50.3302,-3.41,0
74.7998,-50.2608,-3.41381,0
74.7948,-50.1916,-3.41734,0
74.7883,-50.1227,-3.42061,0
74.7802,-50.0539,-3.42361,0
74.7708,-49.9855,-3.42635,0
74.7598,-49.9173,-3.42883,0
74.7474,-49.8495,-3.43103,0
74.7335,-49.7821,-3.43297,0
74.7182,-49.715,-3.43464,0
74.7015,-49.6484,-3.43606,0
74.6833,-49.5822,-3.43719,0
74.6637,-49.5165,-3.43807,0
74.6427,-49.4514,-3.43867,0
74.6204,-49.3867,-3.43902,0
74.5967,-49.3227,-3.43911,0
74.5717,-49.2592,-3.43893,0
74.5453,-49.1964,-3.43848,0
74.5177,-49.1342,-3.43778,0
74.4887,-49.0727,-3.43681,0
74.4584,-49.0119,-3.43559,0
74.427,-48.9519,-3.4341,0
74.3943,-48.8926,-3.43237,0
71.8009,-53.7703,-2.59855,0
71.8809,-53.775,-2.60905,0
71.961,-53.7771,-2.61997,0
72.041,-53.7765,-2.63142,0
72.1211,-53.7738,-2.64299,0
72.2011,-53.7691,-2.65472,0
72.281,-53.7625,-2.66658,0
72.3606,-53.7533,-2.67877,0
72.4389,-53.7375,-2.69303,0
72.5166,-53.7199,-2.70734,0
72.5939,-53.7003,-2.72172,0
72.6706,-53.6788,-2.73612,0
72.7466,-53.6555,-2.75057,0
72.8219,-53.6302,-2.76502,0
72.8965,-53.6032,-2.7795,0
72.9704,-53.5743,-2.79397,0
73.0434,-53.5436,-2.80844,0
73.1155,-53.5112,-2.82289,0
73.1867,-53.477,-2.83732,0
73.257,-53.4411,-2.85172,0
73.3264,-53.4035,-2.86607,0
73.3946,-53.3642,-2.88037,0
73.4605,-53.3212,-2.89554,0
73.5246,-53.2756,-2.91102,0
73.5873,-53.2285,-2.92646,0
73.6486,-53.1799,-2.9418,0
73.7085,-53.1298,-2.95708,0
73.767,-53.0783,-2.97225,0
73.824,-53.0254,-2.98732,0
73.8795,-52.9711,-3.00228,0
73.9334,-52.9156,-3.01712,0
73.9858,-52.8589,-3.03182,0
74.0366,-52.8009,-3.04638,0
74.0859,-52.7419,-3.06079,0
74.1334,-52.6817,-3.07504,0
74.1794,-52.6206,-3.08912,0
74.2236,-52.5585,-3.10302,0
74.2663,-52.4954,-3.11674,0
74.3071,-52.4315,-3.13028,0
74.3464,-52.3668,-3.1436,0
74.384,-52.3013,-3.15673,0
74.4198,-52.2351,-3.16965,0
74.4538,-52.1682,-3.18234,0
74.4863,-52.1007,-3.19482,0
74.5169,-52.0326,-3.20705,0
74.5459,-51.964,-3.21906,0
74.573,-51.8949,-3.23083,0
74.5985,-51.8255,-3.24235,0
74.6223,-51.7556,-3.25362,0
74.6443,-51.6854,-3.26464,0
74.6647,-51.6149,-3.2754,0
74.6833,-51.5442,-3.28591,0
74.7002,-51.4733,-3.29613,0
74.7155,-51.4023,-3.30611,0
74.7291,-51.3311,-3.3158,0
74.7409,-51.2599,-3.32523,0
74.7512,-51.1887,-3.33438,0
74.7598,-51.1174,-3.34325,0
74.7667,-51.0463,-3.35184,0
74.772,-50.9752,-3.36016,0
74.7757,-50.9042,-3.36818,0
74.7828,-50.8343,-3.37469,0
74.7905,-50.7647,-3.38037,0
74.7966,-50.695,-3.3858,0
74.8011,-50.6253,-3.39097,0
74.8041,-50.5555,-3.39589,0
74.8056,-50.4858,-3.40053,0
74.8055,-50.4162,-3.40493,0
74.8038,-50.3467,-3.40906,0
74.8008,-50.2773,-3.41292,0
74.7961,-50.2081,-3.41653,0
74.79,-50.139,-3.41986,0
74.7823,-50.0702,-3.42293,0
74.7732,-50.0017,-3.42573,0
74.7625,-49.9335,-3.42826,0
74.7505,-49.8656,-3.43053,0
74.737,-49.798,-3.43254,0
74.722,-49.7309,-3.43427,0
74.7055,-49.6642,-3.43574,0
74.6877,-49.5979,-3.43695,0
74.6685,-49.5321,-3.43788,0
74.6479,-49.4668,-3.43856,0
74.6259,-49.402,-3.43897,0
74.6025,-49.3378,-3.43911,0
74.5778,-49.2743,-3.43899,0
74.5517,-49.2113,-3.43861,0
74.5244,-49.1489,-3.43797,0
74.4957,-49.0873,-3.43706,0
74.4658,-49.0263,-3.4359,0
74.4345,-48.9661,-3.43449,0
74.4021,-48.9066,-3.4328,0
74.3694,-48.8474,-3.43065,0
71.782,-53.7689,-2.59609,0
71.8619,-53.7741,-2.60654,0
71.9419,-53.777,-2.61728,0
72.022,-53.7768,-2.62868,0
72.1021,-53.7746,-2.64023,0
72.1821,-53.7704,-2.65192,0
72.262,-53.7642,-2.66375,0
72.3418,-53.756,-2.6757,0
72.4203,-53.7415,-2.68963,0
72.4982,-53.7243,-2.70394,0
72.5756,-53.7051,-2.71829,0
72.6524,-53.6841,-2.7327,0
72.7286,-53.6612,-2.74714,0
72.8041,-53.6364,-2.76159,0
72.8788,-53.6098,-2.77606,0
72.9529,-53.5813,-2.79054,0
73.0261,-53.5511,-2.805,0
73.0984,-53.519,-2.81946,0
73.1699,-53.4852,-2.83389,0
73.2405,-53.4497,-2.8483,0
73.3099,-53.4125,-2.86266,0
73.3785,-53.3737,-2.87697,0
73.4452,-53.3318,-2.89185,0
73.5095,-53.2866,-2.90735,0
73.5725,-53.2399,-2.92279,0
73.6341,-53.1916,-2.93817,0
73.6944,-53.1418,-2.95345,0
73.7532,-53.0906,-2.96866,0
73.8105,-53.0381,-2.98375,0
73.8665,-52.9841,-2.99874,0
73.9207,-52.9289,-3.01361,0
73.9735,-52.8725,-3.02834,0
74.0247,-52.8148,-3.04293,0
74.0742,-52.756,-3.05737,0
74.1223,-52.6961,-3.07166,0
74.1686,-52.6352,-3.08579,0
74.2133,-52.5733,-3.09973,0
74.2562,-52.5105,-3.1135,0
74.2976,-52.4468,-3.12707,0
74.3373,-52.3822,-3.14045,0
74.3752,-52.3169,-3.15363,0
74.4114,-52.2508,-3.16659,0
74.4459,-52.1841,-3.17935,0
74.4788,-52.1168,-3.19186,0
74.5098,-52.0488,-3.20417,0
74.5391,-51.9803,-3.21623,0
74.5667,-51.9114,-3.22805,0
74.5927,-51.842,-3.23964,0
74.6168,-51.7722,-3.25097,0
74.6393,-51.7021,-3.26204,0
74.66,-51.6317,-3.27286,0
74.6791,-51.5611,-3.28343,0
74.6963,-51.4902,-3.29373,0
74.712,-51.4192,-3.30376,0
74.7259,-51.348,-3.31352,0
74.7383,-51.2768,-3.32301,0
74.7489,-51.2056,-3.33223,0
74.7579,-51.1344,-3.34116,0
74.7652,-51.0632,-3.34983,0
74.7709,-50.9921,-3.3582,0
74.775,-50.9211,-3.3663,0
74.7807,-50.8508,-3.3733,0
74.7887,-50.7812,-3.37904,0
74.7952,-50.7116,-3.38453,0
74.8002,-50.6418,-3.38977,0
74.8035,-50.5721,-3.39475,0
74.8054,-50.5024,-3.39946,0
74.8057,-50.4327,-3.40391,0
74.8044,-50.3632,-3.4081,0
74.8016,-50.2938,-3.41203,0
74.7973,-50.2245,-3.41569,0
74.7916,-50.1554,-3.41909,0
74.7842,-50.0866,-3.42222,0
74.7755,-50.018,-3.42508,0
74.7652,-49.9497,-3.42769,0
74.7535,-49.8817,-3.43002,0
74.7403,-49.8141,-3.43209,0
74.7257,-49.7468,-3.43388,0
74.7096,-49.68,-3.43542,0
74.6921,-49.6136,-3.43669,0
74.6732,-49.5477,-3.43769,0
74.6529,-49.4823,-3.43842,0
74.6312,-49.4174,-3.43889,0
74.6082,-49.3531,-3.4391,0
74.5837,-49.2893,-3.43904,0
74.558,-49.2262,-3.43872,0
74.531,-49.1637,-3.43815,0
74.5027,-49.1019,-3.43731,0
74.473,-49.0407,-3.4362,0
74.4421,-48.9803,-3.43485,0
74.41,-48.9207,-3.43323,0
74.3766,-48.8618,-3.43136,0
71.7414,-53.6879,-2.59696,0
71.8195,-53.6939,-2.6071,0
71.8977,-53.698,-2.61742,0
71.9761,-53.7,-2.62792,0
72.0545,-53.6993,-2.63893,0
72.1328,-53.6962,-2.6503,0
72.211,-53.6911,-2.66181,0
72.2891,-53.684,-2.67344,0
72.3669,-53.6741,-2.68557,0
72.4434,-53.6584,-2.69953,0
72.5194,-53.6407,-2.71356,0
72.5948,-53.6212,-2.72763,0
72.6697,-53.5998,-2.74174,0
72.744,-53.5765,-2.75587,0
72.8175,-53.5515,-2.77002,0
72.8904,-53.5247,-2.78418,0
72.9625,-53.496,-2.79835,0
73.0337,-53.4657,-2.81251,0
73.1042,-53.4336,-2.82665,0
73.1738,-53.3998,-2.84076,0
73.2424,-53.3644,-2.85483,0
73.309,-53.3254,-2.86969,0
73.3739,-53.2839,-2.88491,0
73.4375,-53.2407,-2.90008,0
73.4999,-53.196,-2.9152,0
73.561,-53.1498,-2.93026,0
73.6207,-53.1021,-2.94525,0
73.6791,-53.0529,-2.96016,0
73.736,-53.0024,-2.97497,0
73.7915,-52.9506,-2.98968,0
73.8455,-52.8974,-3.00428,0
73.898,-52.843,-3.01877,0
73.949,-52.7874,-3.03311,0
73.9984,-52.7307,-3.04732,0
74.0463,-52.6728,-3.06138,0
74.0927,-52.6139,-3.07529,0
74.1374,-52.5541,-3.08903,0
74.1805,-52.4932,-3.1026,0
74.222,-52.4315,-3.11599,0
74.2617,-52.3689,-3.1292,0
74.3,-52.3056,-3.1422,0
74.3365,-52.2415,-3.15501,0
74.3713,-52.1767,-3.16761,0
74.4044,-52.1112,-3.18001,0
74.4359,-52.0451,-3.19217,0
74.4658,-51.9785,-3.20412,0
74.4939,-51.9114,-3.21584,0
74.5203,-51.8438,-3.22733,0
74.5451,-51.7758,-3.23857,0
74.5682,-51.7075,-3.24957,0
74.5895,-51.6388,-3.26032,0
74.6092,-51.5698,-3.27082,0
74.6273,-51.5006,-3.28107,0
74.6437,-51.4313,-3.29106,0
74.6585,-51.3617,-3.30079,0
74.6716,-51.2921,-3.31025,0
74.683,-51.2224,-3.31945,0
74.6929,-51.1527,-3.32837,0
74.7012,-51.083,-3.33702,0
74.7078,-51.0133,-3.34541,0
74.7129,-50.9438,-3.35351,0
74.7172,-50.8745,-3.36113,0
74.7259,-50.8063,-3.36692,0
74.7331,-50.7381,-3.37245,0
74.7387,-50.6698,-3.37772,0
74.743,-50.6014,-3.38274,0
74.7456,-50.5331,-3.38752,0
74.7469,-50.4647,-3.39203,0
74.7465,-50.3965,-3.39629,0
74.7446,-50.3284,-3.40029,0
74.7412,-50.2604,-3.40402,0
74.7365,-50.1925,-3.40751,0
74.7302,-50.1249,-3.41073,0
74.7223,-50.0575,-3.41368,0
74.7131,-49.9904,-3.41639,0
74.7024,-49.9235,-3.41882,0
74.6904,-49.857,-3.421,0
74.6768,-49.7908,-3.42292,0
74.6619,-49.7251,-3.42457,0
74.6455,-49.6597,-3.42595,0
74.6277,-49.5948,-3.42709,0
74.6087,-49.5304,-3.42796,0
74.5881,-49.4664,-3.42857,0
74.5662,-49.403,-3.42892,0
74.5431,-49.3402,-3.42901,0
74.5186,-49.2779,-3.42884,0
74.4928,-49.2163,-3.42842,0
74.4658,-49.1552,-3.42774,0
74.4373,-49.0949,-3.4268,0
74.4078,-49.0353,-3.42561,0
74.377,-48.9763,-3.42417,0
74.3448,-48.9181,-3.42248,0
71.8009,-53.6927,-2.60467,0
71.8791,-53.6972,-2.61495,0
71.9575,-53.6997,-2.62541,0
72.0359,-53.6998,-2.63626,0
72.1141,-53.6971,-2.64759,0
72.1924,-53.6925,-2.65906,0
72.2706,-53.6859,-2.67066,0
72.3486,-53.6773,-2.68238,0
72.4252,-53.6623,-2.69621,0
72.5013,-53.6451,-2.71023,0
72.577,-53.626,-2.72429,0
72.652,-53.605,-2.73838,0
72.7264,-53.5822,-2.75251,0
72.8002,-53.5576,-2.76665,0
72.8732,-53.5312,-2.78082,0
72.9454,-53.503,-2.79498,0
73.0169,-53.4731,-2.80913,0
73.0875,-53.4414,-2.82328,0
73.1573,-53.408,-2.8374,0
73.2262,-53.373,-2.8515,0
73.2934,-53.335,-2.86608,0
73.3585,-53.2939,-2.8813,0
73.4225,-53.2511,-2.89648,0
73.4852,-53.2068,-2.91161,0
73.5466,-53.1609,-2.92669,0
73.6066,-53.1136,-2.94169,0
73.6653,-53.0647,-2.95662,0
73.7226,-53.0145,-2.97146,0
73.7784,-52.963,-2.98619,0
73.8328,-52.9101,-3.00083,0
73.8857,-52.856,-3.01533,0
73.937,-52.8007,-3.02972,0
73.9869,-52.7442,-3.04396,0
74.0351,-52.6867,-3.05806,0
74.0819,-52.628,-3.072,0
74.127,-52.5684,-3.08578,0
74.1704,-52.5078,-3.0994,0
74.2122,-52.4463,-3.11283,0
74.2525,-52.3839,-3.12608,0
74.291,-52.3207,-3.13913,0
74.328,-52.2568,-3.15199,0
74.3631,-52.1921,-3.16464,0
74.3967,-52.1268,-3.17708,0
74.4286,-52.0609,-3.1893,0
74.4588,-51.9944,-3.20131,0
74.4873,-51.9274,-3.21308,0
74.5142,-51.8599,-3.22462,0
74.5394,-51.792,-3.23591,0
74.5628,-51.7238,-3.24697,0
74.5846,-51.6551,-3.25778,0
74.6048,-51.5863,-3.26835,0
74.6232,-51.5171,-3.27865,0
74.6399,-51.4478,-3.28871,0
74.6551,-51.3783,-3.29849,0
74.6686,-51.3087,-3.30802,0
74.6805,-51.239,-3.31728,0
74.6907,-51.1693,-3.32627,0
74.6994,-51.0996,-3.33499,0
74.7064,-51.0299,-3.34343,0
74.7118,-50.9603,-3.35161,0
74.7156,-50.8909,-3.35951,0
74.7239,-50.8226,-3.36556,0
74.7316,-50.7543,-3.37115,0
74.7376,-50.686,-3.37649,0
74.7422,-50.6177,-3.38158,0
74.7452,-50.5493,-3.3864,0
74.7467,-50.481,-3.39098,0
74.7467,-50.4127,-3.3953,0
74.7452,-50.3446,-3.39935,0
74.7422,-50.2765,-3.40316,0
74.7377,-50.2086,-3.4067,0
74.7318,-50.1409,-3.40998,0
74.7244,-50.0735,-3.41301,0
74.7155,-50.0063,-3.41577,0
74.7052,-49.9394,-3.41827,0
74.6934,-49.8728,-3.42051,0
74.6802,-49.8065,-3.42248,0
74.6655,-49.7407,-3.42421,0
74.6495,-49.6752,-3.42565,0
74.6321,-49.6102,-3.42685,0
74.6133,-49.5456,-3.42778,0
74.5931,-49.4816,-3.42845,0
74.5716,-49.418,-3.42886,0
74.5488,-49.3551,-3.42901,0
74.5246,-49.2926,-3.42891,0
74.4991,-49.2309,-3.42854,0
74.4723,-49.1697,-3.42793,0
74.4442,-49.1092,-3.42705,0
74.4149,-49.0494,-3.42591,0
74.3844,-48.9903,-3.42453,0
74.3526,-48.9319,-3.42291,0
74.3215,-48.8733,-3.42049,0
71.7823,-53.6913,-2.60226,0
71.8605,-53.6963,-2.61249,0
71.9389,-53.6993,-2.62291,0
72.0173,-53.7001,-2.63358,0
72.0955,-53.6979,-2.64488,0
72.1739,-53.6938,-2.65632,0
72.252,-53.6876,-2.6679,0
72.33,-53.6795,-2.67959,0
72.4071,-53.6661,-2.69289,0
72.4833,-53.6493,-2.70689,0
72.559,-53.6307,-2.72094,0
72.6341,-53.6102,-2.73503,0
72.7087,-53.5878,-2.74915,0
72.7827,-53.5636,-2.76329,0
72.8559,-53.5376,-2.77745,0
72.9283,-53.5099,-2.79162,0
73,-53.4803,-2.80578,0
73.0709,-53.4491,-2.81992,0
73.1409,-53.4161,-2.83405,0
73.2099,-53.3814,-2.84814,0
73.2777,-53.3445,-2.86246,0
73.3432,-53.3038,-2.87768,0
73.4074,-53.2614,-2.89288,0
73.4704,-53.2175,-2.90802,0
73.5321,-53.172,-2.92311,0
73.5925,-53.1249,-2.93813,0
73.6515,-53.0765,-2.95308,0
73.7091,-53.0266,-2.96794,0
73.7652,-52.9754,-2.9827,0
73.82,-52.9228,-2.99736,0
73.8732,-52.869,-3.0119,0
73.9249,-52.814,-3.02632,0
73.9752,-52.7578,-3.04059,0
74.0238,-52.7004,-3.05472,0
74.0709,-52.642,-3.0687,0
74.1163,-52.5826,-3.08252,0
74.1602,-52.5223,-3.09617,0
74.2025,-52.4609,-3.10966,0
74.243,-52.3988,-3.12294,0
74.282,-52.3358,-3.13605,0
74.3193,-52.272,-3.14895,0
74.3549,-52.2075,-3.16166,0
74.389,-52.1424,-3.17415,0
74.4212,-52.0766,-3.18642,0
74.4518,-52.0102,-3.19847,0
74.4807,-51.9434,-3.21029,0
74.5079,-51.876,-3.2219,0
74.5335,-51.8082,-3.23325,0
74.5574,-51.74,-3.24437,0
74.5795,-51.6715,-3.25524,0
74.6001,-51.6026,-3.26586,0
74.6189,-51.5336,-3.27623,0
74.6361,-51.4643,-3.28633,0
74.6516,-51.3948,-3.29619,0
74.6655,-51.3252,-3.30578,0
74.6778,-51.2556,-3.3151,0
74.6884,-51.1858,-3.32416,0
74.6974,-51.1161,-3.33294,0
74.7048,-51.0465,-3.34145,0
74.7107,-50.9768,-3.34969,0
74.7149,-50.9073,-3.35766,0
74.7219,-50.8388,-3.3642,0
74.7299,-50.7705,-3.36986,0
74.7363,-50.7023,-3.37525,0
74.7412,-50.6339,-3.38039,0
74.7446,-50.5656,-3.38528,0
74.7465,-50.4972,-3.38992,0
74.7469,-50.4289,-3.39429,0
74.7457,-50.3607,-3.39842,0
74.743,-50.2927,-3.40228,0
