95.3175,-55.1694,-5.99358,174
95.0451,-54.9037,-6.0146,174
94.7808,-54.6466,-6.03425,174
94.524,-54.3974,-6.05262,174
94.2742,-54.1555,-6.06978,174
94.0307,-53.9205,-6.08579,174
93.7933,-53.6918,-6.10072,174
93.5613,-53.4689,-6.11462,174
93.3612,-53.2423,-6.13023,174
93.2096,-53.003,-6.14958,174
93.0584,-52.7662,-6.16805,174
92.9075,-52.5318,-6.18566,174
92.7567,-52.2996,-6.20245,174
92.606,-52.0692,-6.21844,174
92.4552,-51.8407,-6.23364,174
82.0594,-67.0594,-2.54282,174
82.295,-67.2046,-2.54199,174
82.5643,-67.8302,-2.42575,0
82.8152,-67.8491,-2.45758,0
83.067,-67.8637,-2.49008,0
83.3198,-67.874,-2.52322,0
83.5736,-67.8799,-2.55703,0
83.8284,-67.8813,-2.59149,0
84.084,-67.8783,-2.62661,0
84.3405,-67.8708,-2.66239,0
84.5978,-67.8587,-2.69883,0
84.8611,-67.8612,-2.73188,0
85.1323,-67.8795,-2.76145,0
85.4089,-67.902,-2.79009,0
85.6887,-67.9197,-2.81971,0
85.9716,-67.9325,-2.8503,0
86.2578,-67.9403,-2.88189,0
86.547,-67.943,-2.91447,0
86.8395,-67.9405,-2.94807,0
87.1348,-67.9326,-2.98271,0
87.4334,-67.919,-3.0184,0
87.7348,-67.8998,-3.05515,0
88.0392,-67.8747,-3.09298,0
88.3466,-67.8436,-3.1319,0
88.6567,-67.8063,-3.17192,0
88.9696,-67.7627,-3.21307,0
89.2853,-67.7125,-3.25534,0
89.6037,-67.6557,-3.29877,0
89.9189,-67.5847,-3.3445,0
90.2353,-67.5057,-3.39152,0
90.5647,-67.4328,-3.43763,0
90.9026,-67.3593,-3.48396,0
91.2429,-67.2774,-3.53168,0
91.5854,-67.187,-3.58079,0
91.93,-67.0878,-3.63133,0
92.2862,-66.9891,-3.68198,0
92.6573,-66.8924,-3.73268,0
92.5057,-66.3303,-3.84229,174
92.4319,-65.861,-3.93725,174
92.5394,-65.5556,-4.0103,174
92.6569,-65.2638,-4.08056,174
91.136,-63.797,-4.27676,174
90.4239,-62.9996,-4.39124,174
90.2616,-62.6176,-4.45836,174
90.1787,-62.3033,-4.51664,174
90.1548,-62.0362,-4.56888,174
90.1649,-61.7962,-4.61748,174
90.1892,-61.5694,-4.66393,174
90.2382,-61.3592,-4.70823,174
90.2865,-61.1512,-4.7516,174
90.3808,-60.966,-4.793,174
90.5781,-60.8237,-4.83214,174
90.7812,-60.6774,-4.8719,174
90.9905,-60.5269,-4.91235,174
91.2067,-60.3718,-4.95358,174
91.9309,-60.3712,-4.99593,174
92.317,-60.2386,-5.04195,174
98.6001,-61.6798,-5.14489,0
98.5705,-61.2716,-5.21464,0
98.5114,-60.8626,-5.28202,0
98.0409,-60.3787,-5.33853,0
97.664,-59.9364,-5.39232,0
97.5398,-59.5527,-5.44936,0
97.4031,-59.1753,-5.50386,0
97.2543,-58.8049,-5.55581,0
97.0943,-58.4418,-5.6052,0
96.9713,-58.0892,-5.65413,0
96.8648,-57.7436,-5.70212,0
96.7475,-57.4031,-5.748,0
96.6199,-57.0679,-5.79178,0
96.4826,-56.7385,-5.83342,0
96.3534,-56.4142,-5.87404,0
96.2605,-56.092,-5.91556,0
95.967,-55.7927,-5.9423,174
95.6625,-55.5067,-5.9659,174
95.3792,-55.2296,-5.98871,174
95.1049,-54.962,-6.01005,174
94.8389,-54.703,-6.03,174
94.5805,-54.4521,-6.04865,174
94.3291,-54.2087,-6.06607,174
94.0843,-53.9721,-6.08233,174
93.8455,-53.7421,-6.0975,174
93.6124,-53.518,-6.11162,174
93.395,-53.2958,-6.12581,174
93.2433,-53.0559,-6.14535,174
93.092,-52.8186,-6.16402,174
92.941,-52.5837,-6.18182,174
92.7902,-52.351,-6.19879,174
92.6395,-52.1203,-6.21496,174
92.4887,-51.8913,-6.23033,174
92.3377,-51.6639,-6.24493,174
82.008,-67.0474,-2.53804,174
82.2406,-67.1179,-2.55551,174
82.5088,-67.8255,-2.41877,0
82.7593,-67.8453,-2.45045,0
83.0109,-67.8609,-2.4828,0
83.2635,-67.8721,-2.5158,0
83.5171,-67.8789,-2.54945,0
83.7716,-67.8814,-2.58377,0
84.0271,-67.8794,-2.61875,0
84.2834,-67.8729,-2.65438,0
84.5405,-67.8618,-2.69068,0
84.8016,-67.858,-2.72512,0
85.0712,-67.8739,-2.7552,0
85.3471,-67.8974,-2.78365,0
85.6263,-67.9161,-2.81304,0
85.9085,-67.9301,-2.84342,0
86.194,-67.939,-2.87479,0
86.4825,-67.9429,-2.90715,0
86.7741,-67.9415,-2.94052,0
87.069,-67.9348,-2.97493,0
87.3668,-67.9225,-3.01038,0
87.6675,-67.9046,-3.04689,0
87.9713,-67.8808,-3.08447,0
88.278,-67.8511,-3.12315,0
88.5876,-67.8152,-3.16293,0
88.8999,-67.773,-3.20382,0
89.2149,-67.7243,-3.24585,0
89.5327,-67.6689,-3.28903,0
89.8489,-67.6014,-3.3342,0
90.1648,-67.5238,-3.38097,0
90.4899,-67.448,-3.42752,0
90.8273,-67.3763,-3.47354,0
91.1671,-67.2963,-3.52095,0
91.5091,-67.2078,-3.56976,0
91.8532,-67.1106,-3.61997,0
92.2043,-67.0093,-3.67093,0
92.5747,-66.9148,-3.72128,0
92.5236,-66.4388,-3.82029,174
92.4186,-65.9386,-3.91965,174
92.5136,-65.6214,-3.99443,174
92.6292,-65.327,-4.06524,174
92.7532,-65.0436,-4.13365,174
90.4028,-63.0475,-4.37986,174
90.2817,-62.6903,-4.44487,174
90.1942,-62.3701,-4.50413,174
90.1525,-62.0902,-4.55786,174
90.1627,-61.8491,-4.60681,174
90.1782,-61.6164,-4.65395,174
90.2274,-61.4057,-4.69847,174
90.2759,-61.1973,-4.74204,174
90.3464,-61.0011,-4.78416,174
90.5337,-60.8557,-4.82339,174
90.7355,-60.7103,-4.86301,174
90.9434,-60.5608,-4.9033,174
91.158,-60.4067,-4.94435,174
91.9224,-60.4236,-4.98598,174
91.9815,-60.1947,-5.03054,174
98.5796,-61.3625,-5.19934,0
98.527,-60.9535,-5.26727,0
98.1723,-60.4894,-5.32699,0
97.6898,-60.0225,-5.37931,0
97.5686,-59.6375,-5.4369,0
97.4345,-59.2586,-5.49197,0
97.2884,-58.8865,-5.54449,0
97.1308,-58.5218,-5.59445,0
96.9934,-58.1667,-5.64319,0
96.8894,-57.82,-5.69164,0
96.7745,-57.4783,-5.73799,0
96.6492,-57.1419,-5.78223,0
96.5139,-56.8112,-5.82436,0
96.3728,-56.4863,-5.86457,0
96.2819,-56.1632,-5.90649,0
96.0597,-55.8556,-5.93841,174
95.7267,-55.5696,-5.96062,174
95.4414,-55.2904,-5.98378,174
95.1651,-55.0207,-6.00543,174
94.8973,-54.7598,-6.02568,174
94.6373,-54.5072,-6.04461,174
94.3844,-54.2621,-6.0623,174
94.1382,-54.0241,-6.07881,174
93.8981,-53.7927,-6.09422,174
93.6637,-53.5673,-6.10857,174
93.4346,-53.3475,-6.12192,174
93.277,-53.109,-6.14109,174
93.1256,-52.8711,-6.15994,174
92.9745,-52.6357,-6.17794,174
92.8237,-52.4025,-6.19509,174
92.673,-52.1714,-6.21143,174
92.5222,-51.942,-6.22698,174
92.3713,-51.7143,-6.24175,174
81.9567,-67.0403,-2.53201,174
82.1883,-67.0896,-2.55473,174
82.4532,-67.8205,-2.41181,0
92.3974,-65.7188,-3.86597,0
92.5434,-65.4477,-3.93491,174
92.6679,-65.1637,-4.00446,174
90.8194,-63.4823,-4.23985,174
90.472,-62.9521,-4.32921,174
90.6129,-62.7678,-4.37672,174
90.2668,-62.284,-4.45531,174
90.1544,-61.9649,-4.51387,174
90.1819,-61.7364,-4.56189,174
90.2091,-61.5122,-4.60853,174
90.2362,-61.2919,-4.65388,174
90.2846,-61.0851,-4.69725,174
90.4689,-60.9403,-4.73564,174
91.1779,-61.0073,-4.7615,174
91.2294,-60.7864,-4.80622,174
91.2768,-60.5654,-4.8502,174
91.3202,-60.3445,-4.89342,174
91.5453,-60.1815,-4.93481,174
92.1739,-60.1265,-4.97653,174
95.6221,-60.7847,-5.03096,0
95.575,-60.4457,-5.08841,0
95.5102,-60.1084,-5.14391,0
95.4662,-59.7812,-5.19795,0
95.4741,-59.4673,-5.25145,0
95.4709,-59.1536,-5.30365,0
95.4566,-58.8406,-5.35448,0
95.4315,-58.5288,-5.40389,0
95.3884,-58.2179,-5.45157,0
95.3128,-57.9081,-5.49685,0
95.2341,-57.6022,-5.54065,0
95.1883,-57.3003,-5.58463,0
95.1335,-57.0006,-5.62716,0
95.0701,-56.7033,-5.66823,0
94.9981,-56.4087,-5.7078,0
94.9178,-56.117,-5.74586,0
94.8294,-55.8286,-5.78236,0
94.6655,-55.5524,-5.81296,0
94.5126,-55.2802,-5.84284,0
94.3627,-55.0123,-5.87158,0
94.2082,-54.7499,-5.8987,0
94.0493,-54.4929,-5.92424,0
93.8864,-54.2415,-5.9482,0
93.7263,-53.9937,-5.97118,0
93.5677,-53.7495,-5.99314,0
93.4052,-53.5103,-6.01363,0
93.2556,-53.2705,-6.03422,0
93.0639,-53.0494,-6.04978,174
92.9154,-52.8157,-6.06843,174
92.7672,-52.5844,-6.0862,174
92.619,-52.3552,-6.1031,174
92.4708,-52.1279,-6.11917,174
92.3224,-51.9023,-6.13442,174
82.07,-67.0527,-2.47039,174
82.3064,-67.2119,-2.46498,0
82.5424,-67.2324,-2.4946,0
82.7792,-67.2488,-2.52483,0
83.017,-67.2612,-2.55569,0
83.2556,-67.2693,-2.58716,0
83.4951,-67.2731,-2.61926,0
83.7354,-67.2728,-2.65197,0
83.9764,-67.2681,-2.6853,0
84.2181,-67.2591,-2.71925,0
84.4605,-67.2458,-2.75382,0
84.7036,-67.228,-2.78901,0
84.9559,-67.2347,-2.81855,0
85.2102,-67.2373,-2.84882,0
85.4667,-67.2353,-2.87986,0
85.7265,-67.2325,-2.91093,0
85.9921,-67.234,-2.94097,0
86.2602,-67.2306,-2.97193,0
86.5309,-67.2222,-3.00381,0
86.8041,-67.2086,-3.03663,0
87.0798,-67.1897,-3.0704,0
87.3577,-67.1653,-3.10513,0
87.638,-67.1354,-3.14083,0
87.9206,-67.0997,-3.1775,0
88.2054,-67.0583,-3.21517,0
88.4923,-67.0107,-3.25384,0
88.7812,-66.9571,-3.29352,0
89.072,-66.8971,-3.3342,0
89.3647,-66.8307,-3.37592,0
89.6589,-66.7575,-3.41871,0
89.9491,-66.6708,-3.46362,0
90.2402,-66.5773,-3.50952,0
90.5321,-66.4768,-3.55639,0
90.8249,-66.3693,-3.60424,0
91.1184,-66.2546,-3.65308,0
91.4123,-66.1327,-3.70289,0
91.7063,-66.0032,-3.75367,0
92.0043,-65.8694,-3.80499,0
92.3246,-65.7461,-3.85488,0
92.5154,-65.5112,-3.91925,174
92.6404,-65.2266,-3.98913,174
91.0801,-63.7364,-4.2031,174
90.4317,-62.9867,-4.31931,174
90.6665,-62.8641,-4.36005,174
90.6801,-62.5975,-4.41623,174
90.1483,-62.0163,-4.503,174
90.1758,-61.7868,-4.55134,174
90.2031,-61.5617,-4.59828,174
90.2302,-61.3405,-4.64391,174
90.2714,-61.1297,-4.68778,174
90.4252,-60.9718,-4.72715,174
91.1659,-61.0563,-4.75146,174
91.2183,-60.8354,-4.79635,174
91.2667,-60.6145,-4.84049,174
91.3109,-60.3936,-4.88388,174
91.4793,-60.2133,-4.92564,174
91.8692,-60.0928,-4.96727,174
95.6212,-60.8578,-5.01793,0
95.5874,-60.521,-5.07581,0
95.5259,-60.1831,-5.13174,0
95.463,-59.8509,-5.18589,0
95.4733,-59.537,-5.23967,0
95.4726,-59.2233,-5.29217,0
95.4607,-58.9101,-5.34331,0
95.438,-58.5979,-5.39303,0
95.4038,-58.2872,-5.44128,0
95.3305,-57.9766,-5.48694,0
95.2473,-57.6697,-5.53086,0
95.1991,-57.3672,-5.57498,0
95.1464,-57.067,-5.61783,0
95.0849,-56.7691,-5.65923,0
95.0148,-56.4739,-5.69914,0
94.9363,-56.1816,-5.73752,0
94.8497,-55.8924,-5.77439,0
94.7005,-55.6134,-5.80621,0
94.5452,-55.3404,-5.83623,0
94.3963,-55.0714,-5.86534,0
94.2428,-54.8077,-5.89282,0
94.085,-54.5495,-5.9187,0
93.923,-54.2968,-5.94301,0
93.7609,-54.0486,-5.9661,0
93.6034,-53.8033,-5.98839,0
93.4417,-53.563,-6.0092,0
93.2817,-53.326,-6.02907,0
93.0969,-53.1016,-6.04552,174
92.9484,-52.8674,-6.06436,174
92.8001,-52.6356,-6.08232,174
92.6519,-52.4059,-6.09942,174
92.5037,-52.1782,-6.11567,174
92.3554,-51.9523,-6.1311,174
92.1973,-51.733,-6.14467,0
82.0187,-67.0497,-2.46335,174
82.2512,-67.1049,-2.48424,174
82.4898,-67.2282,-2.48797,0
82.7265,-67.2456,-2.51806,0
82.9641,-67.2588,-2.54879,0
83.2026,-67.2678,-2.58011,0
83.4419,-67.2727,-2.61207,0
83.682,-67.2732,-2.64465,0
83.9228,-67.2695,-2.67785,0
84.1644,-67.2615,-2.71166,0
84.4066,-67.2491,-2.7461,0
84.6495,-67.2323,-2.78114,0
84.8997,-67.2335,-2.81194,0
85.1536,-67.2371,-2.84202,0
85.4095,-67.2362,-2.87288,0
85.6678,-67.2314,-2.90438,0
85.9328,-67.2341,-2.93422,0
86.2005,-67.2318,-2.96497,0
86.4705,-67.2245,-2.99664,0
86.7433,-67.2121,-3.02926,0
87.0183,-67.1944,-3.06281,0
87.2958,-67.1712,-3.09733,0
87.5755,-67.1425,-3.13281,0
87.8577,-67.1082,-3.16927,0
88.142,-67.068,-3.20672,0
88.4284,-67.0218,-3.24516,0
88.7168,-66.9695,-3.28461,0
89.0073,-66.911,-3.32507,0
89.2995,-66.8461,-3.36656,0
89.5935,-66.7746,-3.40908,0
89.8844,-66.6906,-3.45355,0
90.1754,-66.5986,-3.49924,0
90.4672,-66.4997,-3.54589,0
90.7598,-66.3938,-3.59352,0
91.0531,-66.2808,-3.64214,0
91.3469,-66.1604,-3.69174,0
91.641,-66.0326,-3.74231,0
91.9359,-65.898,-3.79376,0
92.2518,-65.7729,-3.84386,0
92.4877,-65.5751,-3.90349,174
92.6128,-65.2895,-3.97374,174
92.7465,-65.0145,-4.04158,174
90.4107,-63.0346,-4.30786,174
90.6067,-62.8869,-4.35148,174
90.6612,-62.6462,-4.40499,174
90.1421,-62.068,-4.49205,174
90.1697,-61.8374,-4.54072,174
90.1971,-61.6113,-4.58797,174
90.2242,-61.3893,-4.63388,174
90.2607,-61.1756,-4.67818,174
90.3818,-61.003,-4.71868,174
91.1537,-61.1054,-4.74138,174
91.2071,-60.8845,-4.78644,174
91.2563,-60.6636,-4.83075,174
91.3014,-60.4427,-4.87431,174
91.4139,-60.2448,-4.91655,174
91.7137,-60.1005,-4.95805,174
95.6195,-60.9309,-5.00482,0
95.599,-60.5964,-5.06311,0
95.5409,-60.258,-5.11948,0
95.468,-59.9224,-5.17389,0
95.472,-59.6068,-5.22783,0
95.4737,-59.293,-5.28062,0
95.4643,-58.9796,-5.33206,0
95.444,-58.6672,-5.38211,0
95.4128,-58.3561,-5.43071,0
95.3477,-58.0453,-5.47694,0
95.2666,-57.7375,-5.52125,0
95.2098,-57.4342,-5.56526,0
95.1589,-57.1335,-5.60844,0
95.0994,-56.8351,-5.65016,0
95.0311,-56.5393,-5.69041,0
94.9545,-56.2463,-5.72913,0
94.8696,-55.9564,-5.76632,0
94.7354,-55.6748,-5.79937,0
94.5777,-55.4009,-5.82954,0
94.4298,-55.1307,-5.85901,0
94.2773,-54.8658,-5.88685,0
94.1205,-54.6065,-5.91308,0
93.9593,-54.3525,-5.93775,0
93.7955,-54.1038,-5.96094,0
93.6387,-53.8574,-5.98357,0
93.478,-53.616,-6.0047,0
93.3134,-53.3797,-6.02439,0
93.1423,-53.1495,-6.04237,174
92.9814,-52.9193,-6.06025,174
92.8331,-52.6869,-6.07841,174
92.6848,-52.4568,-6.09569,174
92.5366,-52.2287,-6.11213,174
92.3884,-52.0024,-6.12774,174
92.2385,-51.7783,-6.14241,0
81.9673,-67.0468,-2.45629,174
82.1986,-67.061,-2.48764,174
82.4373,-67.2238,-2.48136,0
91.4759,-64.9421,-3.88027,0
91.7034,-64.769,-3.93314,0
91.9265,-64.5887,-3.98662,0
90.7678,-63.4262,-4.16922,174
90.2725,-62.7992,-4.275,174
90.2221,-62.4989,-4.33615,174
90.2316,-62.2459,-4.39008,174
90.3105,-62.0397,-4.43749,174
90.3853,-61.833,-4.4842,174
90.4559,-61.626,-4.53022,174
90.5224,-61.4185,-4.57555,174
90.5848,-61.2107,-4.62018,174
90.6432,-61.0027,-4.66412,174
90.6976,-60.7944,-4.70735,174
90.7968,-60.6048,-4.74855,174
90.982,-60.4449,-4.78749,174
91.2607,-60.3106,-4.8253,174
91.5526,-60.1699,-4.86433,174
92.037,-60.0729,-4.90317,174
94.1053,-60.3694,-4.93833,0
94.1403,-60.0867,-4.99013,0
94.1668,-59.8035,-5.04094,0
94.1848,-59.5201,-5.09071,0
94.1945,-59.2368,-5.13942,0
94.1958,-58.9538,-5.18701,0
94.1904,-58.6717,-5.23349,0
94.1954,-58.3922,-5.27923,0
94.1866,-58.1125,-5.32376,0
94.1672,-57.8334,-5.36705,0
94.1402,-57.5554,-5.40919,0
94.1059,-57.2789,-5.4501,0
94.0645,-57.0039,-5.48981,0
94.0159,-56.7307,-5.52828,0
93.9602,-56.4595,-5.56549,0
93.9081,-56.1896,-5.60195,0
93.8494,-55.9215,-5.63721,0
93.7479,-55.6603,-5.66914,0
93.6199,-55.4059,-5.6984,0
93.4874,-55.1563,-5.72615,0
93.3505,-54.9115,-5.75244,0
93.2109,-54.671,-5.77738,0
93.0764,-54.4331,-5.80155,0
92.9377,-54.1997,-5.82432,0
92.7949,-53.9707,-5.84573,0
92.6482,-53.7462,-5.86579,0
92.4978,-53.5264,-5.88449,0
92.3522,-53.3079,-5.90259,0
92.2226,-53.0859,-5.92121,0
92.0713,-52.8749,-5.93697,0
91.9158,-52.6684,-5.9514,0
91.7561,-52.4668,-5.9645,0
91.5925,-52.2699,-5.97629,0
82.0761,-66.6314,-2.50695,0
82.2991,-66.678,-2.52814,0
82.5227,-66.6964,-2.55633,0
82.747,-66.7108,-2.58512,0
82.9722,-66.7211,-2.61449,0
83.1982,-66.7275,-2.64445,0
83.4248,-66.7298,-2.675,0
83.6521,-66.7279,-2.70613,0
83.8802,-66.722,-2.73784,0
84.1087,-66.7119,-2.77013,0
84.3378,-66.6975,-2.80301,0
84.5674,-66.679,-2.83647,0
84.8005,-66.6665,-2.86818,0
85.0398,-66.6654,-2.89704,0
85.2807,-66.6599,-2.92665,0
85.5234,-66.6501,-2.95698,0
85.7676,-66.6357,-2.98806,0
86.0134,-66.6167,-3.01988,0
86.2608,-66.5931,-3.05245,0
86.5141,-66.5739,-3.0839,0
86.7701,-66.551,-3.11594,0
87.028,-66.5229,-3.14884,0
87.2876,-66.4895,-3.18263,0
87.549,-66.4506,-3.2173,0
87.8121,-66.4063,-3.25286,0
88.0768,-66.3562,-3.28933,0
88.343,-66.3004,-3.32669,0
88.6106,-66.2387,-3.36496,0
88.8794,-66.1709,-3.40415,0
89.1495,-66.097,-3.44424,0
89.4207,-66.0167,-3.48526,0
89.6919,-65.9291,-3.52736,0
89.9594,-65.83,-3.57118,0
90.227,-65.7244,-3.61587,0
90.4757,-65.5931,-3.66441,0
90.7177,-65.4507,-3.71436,0
90.9569,-65.3009,-3.76506,0
91.1927,-65.1439,-3.81649,0
91.4249,-64.9796,-3.86859,0
91.6532,-64.8081,-3.92134,0
91.8773,-64.6293,-3.97469,0
91.0249,-63.6765,-4.13042,174
90.3055,-62.8824,-4.25909,174
90.2324,-62.564,-4.3229,174
90.2135,-62.2916,-4.37946,174
90.2933,-62.0856,-4.42701,174
90.369,-61.879,-4.47388,174
90.4405,-61.672,-4.52005,174
90.508,-61.4646,-4.56554,174
90.5713,-61.2569,-4.61032,174
90.6306,-61.0489,-4.65441,174
90.6858,-60.8407,-4.6978,174
90.7636,-60.6426,-4.73974,174
90.9259,-60.4755,-4.77914,174
91.1976,-60.341,-4.81679,174
91.4865,-60.2017,-4.85555,174
91.8261,-60.0662,-4.89527,174
94.0963,-60.4321,-4.92669,0
94.1332,-60.1496,-4.9787,0
94.1616,-59.8665,-5.02973,0
94.1816,-59.5831,-5.07975,0
94.193,-59.2997,-5.1287,0
94.1962,-59.0167,-5.17654,0
94.1911,-58.7342,-5.22324,0
94.195,-58.4542,-5.26916,0
94.19,-58.1746,-5.31399,0
94.1721,-57.8953,-5.35754,0
94.1468,-57.6171,-5.39992,0
94.1141,-57.3402,-5.44112,0
94.0743,-57.0648,-5.4811,0
94.0272,-56.7912,-5.51984,0
93.9731,-56.5196,-5.55733,0
93.9202,-56.2494,-5.59396,0
93.863,-55.9809,-5.62948,0
93.7756,-55.7174,-5.66244,0
93.6488,-55.462,-5.69204,0
93.5173,-55.2114,-5.72013,0
93.3813,-54.9655,-5.74673,0
93.2409,-54.7243,-5.77187,0
93.1067,-54.4856,-5.7963,0
92.9689,-54.2511,-5.81939,0
92.827,-54.0212,-5.8411,0
92.6812,-53.7957,-5.86144,0
92.5316,-53.5748,-5.88045,0
92.3784,-53.3585,-5.89811,0
92.2556,-53.1334,-5.91753,0
92.1054,-52.9213,-5.93358,0
91.9507,-52.7139,-5.94831,0
91.792,-52.5112,-5.9617,0
91.6291,-52.3132,-5.97378,0
91.4626,-52.12,-5.98455,0
82.0267,-66.6183,-2.5029,0
82.2495,-66.6734,-2.52195,0
82.4729,-66.6927,-2.55001,0
82.6971,-66.7079,-2.57867,0
82.9222,-66.7192,-2.60791,0
83.1479,-66.7264,-2.63775,0
83.3744,-66.7296,-2.66816,0
83.6016,-66.7287,-2.69916,0
83.8294,-66.7236,-2.73075,0
84.0579,-66.7145,-2.76291,0
84.2868,-66.7011,-2.79566,0
84.5163,-66.6835,-2.82898,0
84.7477,-66.6661,-2.86186,0
84.9865,-66.666,-2.89057,0
85.227,-66.6615,-2.92001,0
85.4693,-66.6526,-2.95019,0
85.7132,-66.6393,-2.9811,0
85.9586,-66.6214,-3.01275,0
86.2057,-66.5988,-3.04514,0
86.4576,-66.5783,-3.07691,0
86.7131,-66.5565,-3.10875,0
86.9705,-66.5296,-3.14146,0
87.2297,-66.4973,-3.17505,0
87.4908,-66.4597,-3.20952,0
87.7536,-66.4166,-3.24488,0
88.0178,-66.3678,-3.28115,0
88.2837,-66.3133,-3.31831,0
88.551,-66.2529,-3.35638,0
88.8197,-66.1865,-3.39536,0
89.0895,-66.1139,-3.43526,0
89.3603,-66.0351,-3.47607,0
89.6323,-65.9499,-3.51779,0
89.8998,-65.8526,-3.56137,0
90.1675,-65.7484,-3.60586,0
90.4215,-65.6238,-3.65342,0
90.6642,-65.483,-3.7032,0
90.9041,-65.3348,-3.75374,0
91.1406,-65.1794,-3.805,0
91.3737,-65.0167,-3.85696,0
91.6028,-64.8468,-3.90957,0
91.8279,-64.6697,-3.96279,0
92.0486,-64.4854,-4.01657,0
90.4185,-63.0216,-4.2358,174
90.2426,-62.6297,-4.3095,174
90.1971,-62.3386,-4.36865,174
90.276,-62.1314,-4.4165,174
90.3526,-61.925,-4.46352,174
90.425,-61.7181,-4.50985,174
90.4933,-61.5107,-4.55549,174
90.5576,-61.3031,-4.60043,174
90.6178,-61.0952,-4.64467,174
90.6739,-60.887,-4.68822,174
90.7305,-60.6803,-4.73094,174
90.8803,-60.5094,-4.77059,174
91.1352,-60.371,-4.80835,174
91.4211,-60.2332,-4.84683,174
91.73,-60.0913,-4.8865,174
94.087,-60.4948,-4.915,0
94.1258,-60.2124,-4.96723,0
94.1561,-59.9294,-5.01849,0
94.1779,-59.6461,-5.06873,0
94.1912,-59.3627,-5.11792,0
94.1963,-59.0795,-5.16601,0
94.193,-58.7969,-5.21296,0
94.1941,-58.5163,-5.25904,0
94.193,-58.2368,-5.30415,0
94.1767,-57.9573,-5.34796,0
94.153,-57.6788,-5.39061,0
94.122,-57.4016,-5.43207,0
94.0837,-57.1259,-5.47232,0
94.0383,-56.8519,-5.51133,0
93.9859,-56.5798,-5.5491,0
93.932,-56.3093,-5.5859,0
93.8763,-56.0404,-5.6217,0
93.8031,-55.7748,-5.65566,0
93.6773,-55.5184,-5.68558,0
93.5469,-55.2666,-5.71402,0
93.4118,-55.0197,-5.74094,0
93.2725,-54.7775,-5.76641,0
93.1367,-54.5383,-5.79098,0
92.9998,-54.3029,-5.81437,0
92.8589,-54.0719,-5.83639,0
92.7139,-53.8454,-5.85704,0
92.5652,-53.6235,-5.87633,0
92.4127,-53.4062,-5.89431,0
92.2884,-53.1812,-5.91378,0
92.1391,-52.9681,-5.93013,0
91.9855,-52.7596,-5.94515,0
91.8276,-52.5558,-5.95883,0
91.6657,-52.3568,-5.97121,0
91.4999,-52.1625,-5.98227,0
81.9776,-66.6052,-2.49889,0
82.1998,-66.6632,-2.51721,0
82.4232,-66.6887,-2.54373,0
90.7491,-64.3281,-3.88667,0
90.9529,-64.1638,-3.93571,0
91.1533,-63.9935,-3.98519,0
90.7169,-63.3708,-4.09949,174
90.2291,-62.7523,-4.20944,174
90.1558,-62.4393,-4.27369,174
90.1293,-62.1671,-4.33092,174
90.1629,-61.9382,-4.38124,174
90.1953,-61.713,-4.43013,174
90.2264,-61.4912,-4.47767,174
90.2562,-61.2725,-4.52393,174
90.3279,-61.0767,-4.56679,174
90.4718,-60.9133,-4.60564,174
90.6175,-60.7474,-4.6445,174
90.7723,-60.5815,-4.68315,174
90.9936,-60.4353,-4.72002,174
91.2678,-60.2991,-4.75642,174
91.5598,-60.1582,-4.79379,174
91.9412,-60.0314,-4.83121,174
93.1431,-60.1024,-4.86137,0
93.1777,-59.8431,-4.90922,0
93.2106,-59.5844,-4.95617,0
93.2449,-59.3269,-5.00226,0
93.2723,-59.0687,-5.04752,0
93.2926,-58.8102,-5.09191,0
93.3058,-58.5514,-5.13541,0
93.312,-58.2925,-5.17799,0
93.3032,-58.0333,-5.21944,0
93.2875,-57.7748,-5.25986,0
93.2649,-57.5173,-5.29921,0
93.2357,-57.2609,-5.33748,0
93.206,-57.0058,-5.37485,0
93.1724,-56.7519,-5.41124,0
93.1324,-56.4992,-5.44654,0
93.0861,-56.2481,-5.48076,0
93.0336,-55.9985,-5.51385,0
92.9602,-55.7527,-5.54507,0
92.8463,-55.5149,-5.57322,0
92.7281,-55.2812,-5.6,0
92.6132,-55.0502,-5.62588,0
92.4959,-54.8228,-5.65055,0
92.3743,-54.5992,-5.67392,0
92.2487,-54.3797,-5.69601,0
92.1191,-54.1641,-5.71683,0
91.9822,-53.9538,-5.73612,0
91.8416,-53.7478,-5.75412,0
91.6855,-53.5507,-5.76992,0
91.5203,-53.3609,-5.78391,0
91.3816,-53.1637,-5.79913,0
91.2401,-52.9701,-5.81323,0
91.0947,-52.7808,-5.82611,0
90.9455,-52.5958,-5.83777,0
82.0805,-66.1538,-2.56484,0
82.2924,-66.1965,-2.58509,0
82.5048,-66.213,-2.612,0
82.718,-66.2256,-2.63946,0
82.9319,-66.2344,-2.66749,0
83.1464,-66.2393,-2.69608,0
83.3615,-66.2402,-2.72521,0
83.5772,-66.2372,-2.7549,0
83.7934,-66.2303,-2.78514,0
84.0102,-66.2193,-2.81593,0
84.2273,-66.2043,-2.84726,0
84.4449,-66.1851,-2.87915,0
84.6628,-66.1619,-2.91156,0
84.8872,-66.1533,-2.94024,0
85.1144,-66.1451,-2.96853,0
85.3429,-66.1326,-2.99749,0
85.5729,-66.1158,-3.02715,0
85.8041,-66.0946,-3.05748,0
86.0366,-66.0688,-3.08851,0
86.2704,-66.0386,-3.12023,0
86.5053,-66.0037,-3.15265,0
86.7412,-65.964,-3.18579,0
86.9787,-65.9202,-3.21948,0
87.2219,-65.8792,-3.25234,0
87.4663,-65.833,-3.28601,0
87.7119,-65.7813,-3.3205,0
87.9586,-65.7243,-3.35579,0
88.2013,-65.655,-3.39316,0
88.4419,-65.5767,-3.43195,0
88.682,-65.492,-3.4716,0
88.9215,-65.4007,-3.51213,0
89.1599,-65.3029,-3.5535,0
89.3973,-65.1986,-3.59571,0
89.6334,-65.0875,-3.63874,0
89.8535,-64.9556,-3.68494,0
90.0702,-64.8168,-3.73186,0
90.2842,-64.6718,-3.77934,0
90.4953,-64.5208,-3.82734,0
90.7033,-64.3638,-3.87583,0
90.9079,-64.2008,-3.92478,0
91.1091,-64.0319,-3.97415,0
90.9705,-63.6175,-4.05868,174
90.2734,-62.8426,-4.19201,174
90.1656,-62.5036,-4.26028,174
90.1219,-62.2186,-4.31951,174
90.1556,-61.9887,-4.37018,174
90.1882,-61.7627,-4.41939,174
90.2196,-61.5402,-4.46722,174
90.2497,-61.3209,-4.51376,174
90.2962,-61.1127,-4.55815,174
90.4397,-60.9498,-4.59701,174
90.585,-60.7845,-4.63586,174
90.7321,-60.6164,-4.67475,174
90.9436,-60.4681,-4.71177,174
91.2048,-60.3295,-4.74827,174
91.4937,-60.1901,-4.78538,174
91.8433,-60.0571,-4.82293,174
93.1344,-60.16,-4.85062,0
93.1707,-59.9007,-4.89865,0
93.202,-59.6415,-4.94581,0
93.2379,-59.3842,-4.99209,0
93.2668,-59.1262,-5.03753,0
93.2886,-58.8676,-5.08212,0
93.3034,-58.6089,-5.12582,0
93.3112,-58.35,-5.16861,0
93.3058,-58.0908,-5.21032,0
93.2916,-57.8322,-5.25097,0
93.2705,-57.5744,-5.29056,0
93.2428,-57.3178,-5.32907,0
93.2127,-57.0624,-5.36662,0
93.1805,-56.8082,-5.40324,0
93.1419,-56.5552,-5.4388,0
93.097,-56.3037,-5.47325,0
93.0458,-56.0538,-5.5066,0
92.9848,-55.8061,-5.53863,0
92.872,-55.5674,-5.56709,0
92.7548,-55.3328,-5.59417,0
92.6387,-55.1013,-5.62021,0
92.5223,-54.873,-5.64517,0
92.4016,-54.6485,-5.66885,0
92.277,-54.4281,-5.69122,0
92.1482,-54.2117,-5.71231,0
92.0129,-54.0002,-5.73194,0
91.8731,-53.7932,-5.75024,0
91.7218,-53.5936,-5.76663,0
91.5573,-53.4026,-5.78092,0
91.4125,-53.2072,-5.79584,0
91.2719,-53.0127,-5.81021,0
91.1273,-52.8225,-5.82335,0
90.9789,-52.6365,-5.83528,0
90.827,-52.4549,-5.84601,0
82.0337,-66.142,-2.56093,0
82.2453,-66.1924,-2.57919,0
82.4576,-66.2097,-2.60597,0
82.6705,-66.2232,-2.63331,0
82.8843,-66.2328,-2.66122,0
83.0987,-66.2385,-2.68967,0
83.3136,-66.2404,-2.71868,0
83.5292,-66.2382,-2.74826,0
83.7454,-66.2322,-2.77838,0
83.962,-66.2221,-2.80904,0
84.1791,-66.2079,-2.84026,0
84.3966,-66.1897,-2.87202,0
84.6144,-66.1674,-2.90432,0
84.837,-66.1545,-2.93405,0
85.0638,-66.1473,-2.96219,0
85.292,-66.1357,-2.991,0
85.5216,-66.1199,-3.02049,0
85.7526,-66.0997,-3.05068,0
85.9848,-66.075,-3.08155,0
86.2184,-66.0457,-3.11313,0
86.453,-66.0118,-3.1454,0
86.6888,-65.9732,-3.17837,0
86.9255,-65.9298,-3.21203,0
87.1677,-65.8888,-3.24496,0
87.4119,-65.8437,-3.27846,0
87.6572,-65.7933,-3.31276,0
87.9036,-65.7374,-3.34789,0
88.1479,-65.6716,-3.38466,0
88.3885,-65.5947,-3.42324,0
88.6287,-65.5114,-3.46271,0
88.8683,-65.4216,-3.50304,0
89.107,-65.3252,-3.54424,0
89.3446,-65.2223,-3.58627,0
89.581,-65.1128,-3.6291,0
89.8049,-64.9857,-3.67458,0
90.0223,-64.8481,-3.72138,0
90.237,-64.7045,-3.76875,0
90.4487,-64.5549,-3.81663,0
90.6573,-64.3992,-3.86501,0
90.8627,-64.2375,-3.91387,0
91.0648,-64.0699,-3.96315,0
91.263,-63.8964,-4.01283,0
90.4264,-63.0087,-4.16368,174
90.1755,-62.5684,-4.24672,174
90.1315,-62.281,-4.3066,174
90.1482,-62.0394,-4.35906,174
90.1811,-61.8126,-4.40858,174
90.2127,-61.5893,-4.45671,174
90.2431,-61.3693,-4.50353,174
90.2724,-61.1523,-4.5491,174
90.4076,-60.9863,-4.58838,174
90.5525,-60.8215,-4.62723,174
90.6993,-60.654,-4.6661,174
90.8939,-60.5007,-4.70357,174
91.1424,-60.3597,-4.74017,174
91.4283,-60.2216,-4.77704,174
91.7469,-60.0823,-4.81475,174
93.1252,-60.2174,-4.83983,0
93.1634,-59.9584,-4.88806,0
93.1937,-59.6987,-4.93542,0
93.2305,-59.4414,-4.98187,0
93.2609,-59.1835,-5.02751,0
93.2844,-58.9251,-5.07229,0
93.3008,-58.6664,-5.11619,0
93.3102,-58.4075,-5.15918,0
93.308,-58.1484,-5.20115,0
93.2952,-57.8896,-5.24202,0
93.2758,-57.6316,-5.28186,0
93.2495,-57.3747,-5.32061,0
93.2189,-57.1191,-5.35834,0
93.1881,-56.8646,-5.3952,0
93.151,-56.6113,-5.43099,0
93.1074,-56.3595,-5.46569,0
93.0577,-56.1092,-5.49928,0
93.0016,-55.8607,-5.53175,0
92.8975,-55.6201,-5.56089,0
92.7812,-55.3846,-5.58827,0
92.6641,-55.1526,-5.61449,0
92.5486,-54.9234,-5.63974,0
92.4289,-54.6981,-5.66369,0
92.305,-54.4767,-5.68635,0
92.1771,-54.2594,-5.70774,0
92.0434,-54.0468,-5.7277,0
91.9045,-53.8389,-5.74628,0
91.758,-53.6367,-5.76329,0
91.5941,-53.4446,-5.77785,0
91.4431,-53.251,-5.79247,0
91.3034,-53.0556,-5.80712,0
91.1598,-52.8644,-5.82054,0
91.0123,-52.6775,-5.83274,0
90.861,-52.4949,-5.84373,0
81.987,-66.13,-2.55705,0
82.1981,-66.1826,-2.57478,0
82.4104,-66.2062,-2.59997,0
90.1672,-63.8352,-3.88661,0
90.3548,-63.6799,-3.93233,0
90.5389,-63.5192,-3.97841,0
90.6667,-63.3161,-4.03062,174
90.1978,-62.7136,-4.14343,174
90.0905,-62.3807,-4.21228,174
90.0487,-62.1018,-4.27154,174
90.082,-61.8756,-4.32193,174
90.1147,-61.6535,-4.37081,174
90.1461,-61.4346,-4.41833,174
90.1763,-61.2188,-4.46456,174
90.2992,-61.0491,-4.50407,174
90.4422,-60.8863,-4.54232,174
90.587,-60.7209,-4.58054,174
90.7887,-60.5739,-4.61642,174
91.0114,-60.4278,-4.65218,174
91.275,-60.2876,-4.68747,174
91.5671,-60.1465,-4.72319,174
91.9586,-60.0222,-4.75804,174
92.3621,-59.885,-4.795,0
92.408,-59.6473,-4.83945,0
92.4477,-59.4086,-4.88319,0
92.4807,-59.169,-4.92622,0
92.5072,-58.9289,-4.96848,0
92.5273,-58.6882,-5.00995,0
92.5409,-58.4473,-5.0506,0
92.5455,-58.2061,-5.09039,0
92.5392,-57.9648,-5.12923,0
92.531,-57.7244,-5.16719,0
92.5194,-57.4846,-5.20427,0
92.5016,-57.2455,-5.24042,0
92.4777,-57.0072,-5.2756,0
92.4479,-56.77,-5.30981,0
92.4121,-56.5338,-5.34302,0
92.3704,-56.299,-5.37523,0
92.3228,-56.0656,-5.4064,0
92.2696,-55.8339,-5.43652,0
92.1737,-55.6096,-5.46388,0
92.0745,-55.3886,-5.49006,0
91.9695,-55.1714,-5.51493,0
91.8602,-54.9578,-5.53858,0
91.7467,-54.7478,-5.56098,0
91.6293,-54.5416,-5.58218,0
91.508,-54.3393,-5.60217,0
91.383,-54.1407,-5.62095,0
91.2408,-53.9509,-5.6376,0
91.093,-53.7665,-5.65284,0
90.9424,-53.5867,-5.66686,0
90.7893,-53.4116,-5.67969,0
90.6507,-53.2332,-5.69273,0
90.5173,-53.0549,-5.70532,0
90.3804,-52.8805,-5.71679,0
82.0847,-65.7282,-2.61523,0
82.2864,-65.76,-2.63674,0
82.4887,-65.7748,-2.66246,0
82.6916,-65.786,-2.68872,0
82.8953,-65.7934,-2.71551,0
83.0994,-65.797,-2.74284,0
83.3042,-65.7969,-2.77069,0
83.5094,-65.793,-2.79906,0
83.715,-65.7852,-2.82796,0
83.921,-65.7735,-2.85737,0
84.1274,-65.758,-2.88731,0
84.3342,-65.7385,-2.91775,0
84.5412,-65.7151,-2.94871,0
84.75,-65.6928,-2.97896,0
84.9651,-65.683,-3.0059,0
85.1815,-65.6693,-3.03341,0
85.3991,-65.6517,-3.06152,0
85.618,-65.6301,-3.09022,0
85.8382,-65.6043,-3.11952,0
86.0594,-65.5745,-3.14942,0
86.282,-65.5404,-3.17992,0
86.5055,-65.502,-3.21103,0
86.7302,-65.4593,-3.24276,0
86.9559,-65.4121,-3.2751,0
87.1819,-65.3595,-3.30824,0
87.3869,-65.2696,-3.34866,0
87.591,-65.1756,-3.38939,0
87.7941,-65.0776,-3.43042,0
88.0136,-64.998,-3.46737,0
88.2345,-64.9152,-3.50455,0
88.4545,-64.8264,-3.54251,0
88.6734,-64.7317,-3.58122,0
88.8913,-64.6308,-3.62068,0
89.1074,-64.5239,-3.66085,0
89.3221,-64.4109,-3.70172,0
89.5348,-64.2917,-3.74327,0
89.7392,-64.1607,-3.78647,0
89.9337,-64.0176,-3.83127,0
90.1252,-63.869,-3.87651,0
90.3134,-63.7149,-3.92214,0
90.4983,-63.5553,-3.96815,0
90.6796,-63.3904,-4.01449,0
90.2448,-62.8053,-4.12517,174
90.1066,-62.4484,-4.19808,174
90.0579,-62.1629,-4.25862,174
90.0746,-61.9255,-4.31087,174
90.1075,-61.7025,-4.36007,174
90.1392,-61.483,-4.40789,174
90.1697,-61.2665,-4.4544,174
90.2676,-61.085,-4.49556,174
90.4103,-60.9227,-4.53383,174
90.5547,-60.7579,-4.57205,174
90.7402,-60.6057,-4.60855,174
90.9613,-60.4607,-4.64418,174
91.212,-60.3181,-4.67967,174
91.501,-60.1784,-4.71516,174
91.8605,-60.048,-4.75037,174
92.351,-59.9376,-4.78503,0
92.3984,-59.7002,-4.82962,0
92.4395,-59.4617,-4.87354,0
92.4739,-59.2223,-4.91672,0
92.502,-58.9823,-4.95915,0
92.5234,-58.7417,-5.00081,0
92.5384,-58.5009,-5.04164,0
92.546,-58.2598,-5.08163,0
92.5412,-58.0184,-5.12068,0
92.5328,-57.7777,-5.15882,0
92.5225,-57.5378,-5.19611,0
92.5061,-57.2986,-5.23247,0
92.4835,-57.0601,-5.26786,0
92.4551,-56.8226,-5.30229,0
92.4206,-56.5862,-5.33573,0
92.3802,-56.351,-5.36816,0
92.3339,-56.1173,-5.39956,0
92.2819,-55.8852,-5.42992,0
92.1948,-55.6592,-5.45789,0
92.0973,-55.4374,-5.48437,0
91.9932,-55.2193,-5.50951,0
91.8848,-55.0049,-5.53342,0
91.7723,-54.7942,-5.55611,0
91.6557,-54.5871,-5.57757,0
91.5353,-54.3839,-5.59783,0
91.4111,-54.1845,-5.61689,0
91.2733,-53.9925,-5.63405,0
91.1261,-53.8071,-5.64956,0
90.9762,-53.6263,-5.66385,0
90.8235,-53.4501,-5.67695,0
90.6798,-53.2734,-5.68977,0
90.5473,-53.0942,-5.70262,0
90.4111,-52.9189,-5.71434,0
90.2714,-52.7476,-5.72494,0
82.04,-65.7205,-2.61057,0
82.2416,-65.7562,-2.6311,0
82.4437,-65.7719,-2.6567,0
82.6466,-65.7838,-2.68284,0
82.85,-65.792,-2.70952,0
83.0541,-65.7965,-2.73672,0
83.2587,-65.7972,-2.76445,0
83.4637,-65.7942,-2.79271,0
83.6693,-65.7872,-2.82149,0
83.8752,-65.7765,-2.8508,0
84.0816,-65.7618,-2.8806,0
84.2882,-65.7432,-2.91094,0
84.4952,-65.7207,-2.94179,0
84.7025,-65.6948,-2.97298,0
84.9171,-65.6855,-2.99987,0
85.1332,-65.6727,-3.02725,0
85.3507,-65.6559,-3.05523,0
85.5692,-65.6352,-3.08379,0
85.7891,-65.6104,-3.11296,0
86.0102,-65.5815,-3.14272,0
86.2324,-65.5484,-3.17309,0
86.4558,-65.5109,-3.20406,0
86.6802,-65.4692,-3.23565,0
86.9055,-65.423,-3.26785,0
87.132,-65.3723,-3.30068,0
87.3414,-65.2899,-3.33964,0
87.5457,-65.1968,-3.38031,0
87.7491,-65.0997,-3.42128,0
87.9645,-65.0156,-3.45921,0
88.1855,-64.9341,-3.49623,0
88.4056,-64.8467,-3.53401,0
88.6249,-64.7533,-3.57256,0
88.843,-64.6538,-3.61185,0
89.0595,-64.5482,-3.65186,0
89.2745,-64.4365,-3.69258,0
89.4877,-64.3187,-3.73399,0
89.6955,-64.1918,-3.77658,0
89.8907,-64.0499,-3.82128,0
90.0829,-63.9025,-3.86642,0
90.2719,-63.7496,-3.91196,0
90.4575,-63.5913,-3.95789,0
90.6397,-63.4275,-4.00417,0
90.4342,-62.9957,-4.09149,174
90.128,-62.5202,-4.18317,174
90.0672,-62.2245,-4.24556,174
90.067,-61.9755,-4.29975,174
90.1003,-61.7518,-4.34926,174
90.1323,-61.5315,-4.39738,174
90.1631,-61.3143,-4.44417,174
90.2361,-61.1207,-4.48705,174
90.3784,-60.959,-4.52533,174
90.5224,-60.7948,-4.56356,174
90.6927,-60.6375,-4.60067,174
90.9115,-60.4933,-4.63622,174
91.1495,-60.3483,-4.67192,174
91.4356,-60.21,-4.70718,174
91.7639,-60.0733,-4.74279,174
92.3395,-59.9902,-4.77503,0
92.3884,-59.7531,-4.81977,0
92.4309,-59.5148,-4.86384,0
92.4668,-59.2756,-4.90718,0
92.4963,-59.0357,-4.94979,0
92.5192,-58.7952,-4.99162,0
92.5356,-58.5544,-5.03264,0
92.5457,-58.3134,-5.07283,0
92.5427,-58.072,-5.11208,0
92.5342,-57.8311,-5.15042,0
92.5253,-57.5911,-5.18791,0
92.5102,-57.3517,-5.22447,0
92.4891,-57.113,-5.26008,0
92.4619,-56.8753,-5.29472,0
92.4287,-56.6386,-5.32839,0
92.3896,-56.4032,-5.36104,0
92.3447,-56.1691,-5.39267,0
92.2939,-55.9366,-5.42326,0
92.2157,-55.709,-5.45183,0
92.1198,-55.4863,-5.47861,0
92.0167,-55.2675,-5.50403,0
91.9092,-55.0523,-5.52822,0
91.7976,-54.8407,-5.55118,0
91.682,-54.6328,-5.57291,0
91.5623,-54.4287,-5.59343,0
91.439,-54.2285,-5.61275,0
91.3055,-54.0343,-5.63045,0
91.1591,-53.8479,-5.64622,0
91.0097,-53.6661,-5.66078,0
90.8577,-53.4888,-5.67414,0
90.7088,-53.3137,-5.68676,0
90.5771,-53.1337,-5.69986,0
90.4417,-52.9575,-5.71183,0
90.3028,-52.7853,-5.72268,0
81.9954,-65.7127,-2.60594,0
82.1966,-65.7468,-2.62696,0
82.3988,-65.7687,-2.65096,0
89.6582,-63.4039,-3.88656,0
89.8317,-63.2568,-3.92938,0
89.9828,-63.0905,-3.97494,0
90.1259,-62.9174,-4.02104,0
90.1689,-62.6767,-4.07772,174
90.043,-62.3337,-4.15016,174
89.9862,-62.0479,-4.21177,174
90.0027,-61.8144,-4.26382,174
90.0357,-61.5952,-4.31268,174
90.0675,-61.3791,-4.36017,174
90.1305,-61.1819,-4.40402,174
90.2706,-61.0217,-4.44182,174
90.4128,-60.8595,-4.47947,174
90.5911,-60.7087,-4.51516,174
90.8062,-60.5667,-4.54942,174
91.0293,-60.4203,-4.58411,174
91.2822,-60.2761,-4.61844,174
91.5743,-60.1347,-4.6525,174
91.6853,-59.9311,-4.69358,0
91.7316,-59.7084,-4.73607,0
91.7722,-59.4848,-4.77791,0
91.8073,-59.2605,-4.81908,0
91.8367,-59.0356,-4.85955,0
91.8605,-58.8102,-4.89928,0
91.8789,-58.5845,-4.93829,0
91.9029,-58.36,-4.9765,0
91.9142,-58.1342,-5.014,0
91.9157,-57.9082,-5.0507,0
91.9122,-57.6824,-5.08657,0
91.9035,-57.457,-5.12161,0
91.8898,-57.2321,-5.1558,0
91.8711,-57.0078,-5.18912,0
91.8474,-56.7843,-5.22156,0
91.8187,-56.5616,-5.25313,0
91.7852,-56.3399,-5.28379,0
91.737,-56.1203,-5.31322,0
91.6602,-55.9055,-5.34081,0
91.5752,-55.694,-5.36714,0
91.484,-55.4858,-5.39225,0
91.3884,-55.2809,-5.41619,0
91.2888,-55.0792,-5.439,0
91.1852,-54.8809,-5.46066,0
91.0777,-54.6859,-5.48118,0
90.966,-54.4946,-5.50055,0
90.8366,-54.3114,-5.51795,0
90.7042,-54.1323,-5.53419,0
90.5688,-53.9574,-5.54927,0
90.4308,-53.7867,-5.56322,0
90.2902,-53.6202,-5.57604,0
90.1471,-53.4579,-5.58777,0
90.0091,-53.2963,-5.59897,0
89.8825,-53.1313,-5.6102,0
82.0887,-65.3541,-2.65713,0
82.2816,-65.3807,-2.67858,0
82.4752,-65.3935,-2.70348,0
82.6692,-65.4028,-2.72883,0
82.8639,-65.4088,-2.75464,0
83.059,-65.4113,-2.78089,0
83.2546,-65.4103,-2.8076,0
83.4507,-65.4058,-2.83475,0
83.6473,-65.3979,-2.86236,0
83.8441,-65.3863,-2.89041,0
84.0414,-65.3713,-2.9189,0
84.2391,-65.3526,-2.94784,0
84.437,-65.3303,-2.97722,0
84.6351,-65.3044,-3.00703,0
84.8376,-65.2864,-3.03447,0
85.0434,-65.2711,-3.06089,0
85.2502,-65.252,-3.08786,0
85.458,-65.229,-3.11538,0
85.667,-65.2021,-3.14346,0
85.8768,-65.1712,-3.1721,0
86.0876,-65.1362,-3.20131,0
86.2993,-65.0971,-3.23108,0
86.5119,-65.0538,-3.26141,0
86.7252,-65.0062,-3.29231,0
86.9394,-64.9543,-3.32379,0
87.1541,-64.8979,-3.35583,0
87.3505,-64.8102,-3.39409,0
87.5438,-64.7154,-3.43332,0
87.7361,-64.6167,-3.47281,0
87.9272,-64.5141,-3.51257,0
88.1172,-64.4075,-3.5526,0
88.3059,-64.297,-3.59289,0
88.4934,-64.1825,-3.63343,0
88.6796,-64.064,-3.67422,0
88.8644,-63.9414,-3.71524,0
89.0477,-63.8149,-3.75649,0
89.237,-63.6909,-3.79675,0
89.4284,-63.5655,-3.83679,0
89.6173,-63.4344,-3.87737,0
89.7935,-63.2899,-3.91983,0
89.9504,-63.1284,-3.9647,0
90.0945,-62.9562,-4.01078,0
90.217,-62.7687,-4.05877,174
90.0638,-62.404,-4.13518,174
89.995,-62.1082,-4.19871,174
89.9952,-61.8636,-4.25277,174
90.0285,-61.6436,-4.30195,174
90.0605,-61.4269,-4.34973,174
90.1023,-61.2186,-4.3954,174
90.2393,-61.0575,-4.43344,174
90.3811,-60.8957,-4.47111,174
90.5452,-60.74,-4.50755,174
90.7576,-60.5985,-4.54178,174
90.9791,-60.4533,-4.57635,174
91.2191,-60.3067,-4.611,174
91.5082,-60.1667,-4.64485,174
91.6743,-59.9805,-4.68405,0
91.7217,-59.758,-4.72668,0
91.7637,-59.5346,-4.76867,0
91.7999,-59.3104,-4.80999,0
91.8306,-59.0856,-4.85062,0
91.8557,-58.8603,-4.89052,0
91.8752,-58.6347,-4.92969,0
91.8972,-58.4098,-4.96807,0
91.9132,-58.1845,-5.00573,0
91.9159,-57.9584,-5.04262,0
91.9135,-57.7325,-5.07867,0
91.9059,-57.507,-5.11389,0
91.8934,-57.282,-5.14827,0
91.8757,-57.0576,-5.18179,0
91.853,-56.8339,-5.21443,0
91.8255,-56.611,-5.2462,0
91.793,-56.3891,-5.27706,0
91.7534,-56.1684,-5.30694,0
91.6777,-55.953,-5.33478,0
91.595,-55.7406,-5.36141,0
91.5047,-55.5318,-5.38677,0
91.4101,-55.3261,-5.41097,0
91.3112,-55.1237,-5.43403,0
91.2085,-54.9246,-5.45594,0
91.1019,-54.7289,-5.47672,0
90.9916,-54.5367,-5.49636,0
90.8657,-54.3517,-5.51419,0
90.7339,-54.1717,-5.53069,0
90.5991,-53.9959,-5.54602,0
90.4617,-53.8243,-5.56022,0
90.3216,-53.6569,-5.57329,0
90.1791,-53.4936,-5.58526,0
90.0367,-53.3334,-5.59632,0
89.9109,-53.1677,-5.60779,0
89.7866,-53.003,-5.6186,0
82.0459,-65.347,-2.65264,0
82.2387,-65.3774,-2.67311,0
82.4321,-65.3909,-2.6979,0
82.6261,-65.401,-2.72316,0
82.8205,-65.4077,-2.74885,0
83.0155,-65.411,-2.77502,0
83.2111,-65.4108,-2.80163,0
83.4071,-65.4071,-2.82868,0
83.6035,-65.3999,-2.85619,0
83.8004,-65.3892,-2.88414,0
83.9975,-65.3749,-2.91253,0
84.1951,-65.3571,-2.94137,0
84.3929,-65.3356,-2.97065,0
84.5911,-65.3105,-3.00037,0
84.792,-65.2893,-3.02868,0
84.9975,-65.2748,-3.05497,0
85.2042,-65.2566,-3.08182,0
85.4118,-65.2345,-3.10922,0
85.6205,-65.2084,-3.13717,0
85.8302,-65.1784,-3.1657,0
86.0407,-65.1443,-3.19477,0
86.2522,-65.1062,-3.22441,0
86.4646,-65.0638,-3.25461,0
86.6777,-65.0171,-3.2854,0
86.8917,-64.9662,-3.31674,0
87.1063,-64.9109,-3.34866,0
87.3074,-64.8307,-3.38542,0
87.501,-64.7368,-3.42457,0
87.6934,-64.639,-3.46401,0
87.8848,-64.5372,-3.50371,0
88.0751,-64.4315,-3.54369,0
88.2641,-64.3219,-3.58391,0
88.4519,-64.2083,-3.6244,0
88.6384,-64.0906,-3.66513,0
88.8234,-63.969,-3.70611,0
89.0071,-63.8434,-3.74731,0
89.1941,-63.718,-3.78794,0
89.386,-63.5938,-3.82785,0
89.5756,-63.4641,-3.8683,0
89.755,-63.3228,-3.9103,0
89.9177,-63.166,-3.95448,0
90.0629,-62.9949,-4.00053,0
90.203,-62.8194,-4.04668,0
90.0849,-62.475,-4.12,174
90.0039,-62.1689,-4.18552,174
89.9876,-61.9129,-4.24164,174
90.0212,-61.6922,-4.29114,174
90.0535,-61.4748,-4.33923,174
90.0846,-61.2604,-4.38599,174
90.2079,-61.0931,-4.42505,174
90.3494,-60.9319,-4.46275,174
90.4995,-60.7712,-4.49996,174
90.7093,-60.6302,-4.53417,174
90.9292,-60.486,-4.56863,174
91.1567,-60.3369,-4.6036,174
91.4428,-60.1984,-4.63725,174
91.663,-60.0298,-4.67448,0
91.7117,-59.8075,-4.71726,0
91.7548,-59.5843,-4.7594,0
91.7924,-59.3603,-4.80087,0
91.8243,-59.1356,-4.84165,0
91.8507,-58.9104,-4.88172,0
91.8714,-58.6848,-4.92104,0
91.8913,-58.4596,-4.95961,0
91.9119,-58.2348,-4.99744,0
91.9157,-58.0086,-5.03449,0
91.9145,-57.7827,-5.07073,0
91.908,-57.5571,-5.10614,0
91.8966,-57.3319,-5.14071,0
91.8801,-57.1074,-5.17442,0
91.8586,-56.8836,-5.20726,0
91.8321,-56.6605,-5.23921,0
91.8007,-56.4383,-5.27027,0
91.7645,-56.2172,-5.30043,0
91.6948,-56.0006,-5.32869,0
91.6144,-55.7874,-5.35562,0
91.5251,-55.5779,-5.38123,0
91.4314,-55.3716,-5.40569,0
91.3336,-55.1684,-5.429,0
91.2317,-54.9686,-5.45117,0
91.1259,-54.7721,-5.4722,0
91.0164,-54.5791,-5.49209,0
90.8946,-54.3923,-5.51036,0
90.7634,-54.2114,-5.52711,0
90.6294,-54.0346,-5.54271,0
90.4925,-53.8621,-5.55716,0
90.353,-53.6937,-5.57049,0
90.2109,-53.5295,-5.58269,0
90.0665,-53.3696,-5.59381,0
89.9391,-53.2042,-5.60534,0
89.8141,-53.0395,-5.61626,0
82.0031,-65.3398,-2.64817,0
82.1958,-65.3711,-2.66846,0
82.3891,-65.3882,-2.69235,0
89.2692,-63.0719,-3.87734,0
89.4092,-62.9134,-3.92119,0
89.5456,-62.7516,-3.96501,0
89.6796,-62.5874,-4.0086,0
89.8137,-62.4225,-4.05165,0
89.944,-62.2542,-4.09467,0
89.9246,-61.9947,-4.15296,174
89.925,-61.7544,-4.20686,174
89.9584,-61.538,-4.2557,174
89.9904,-61.3248,-4.30315,174
90.1025,-61.1539,-4.3428,174
90.2423,-60.9945,-4.38002,174
90.4008,-60.8403,-4.41592,174
90.6072,-60.7013,-4.449,174
90.8236,-60.5594,-4.48219,174
90.9798,-60.3889,-4.51935,0
91.0398,-60.1825,-4.56118,0
91.0947,-59.9748,-4.60248,0
91.1443,-59.7659,-4.64323,0
91.1886,-59.556,-4.68338,0
91.2277,-59.3453,-4.72294,0
91.2627,-59.134,-4.76183,0
91.3033,-58.9242,-4.79986,0
91.3392,-58.7134,-4.8373,0
91.3702,-58.5018,-4.87413,0
91.3962,-58.2894,-4.91035,0
91.4034,-58.0751,-4.946,0
91.4056,-57.8609,-4.98089,0
91.403,-57.647,-5.01501,0
91.3956,-57.4334,-5.04833,0
91.3835,-57.2202,-5.08085,0
91.3666,-57.0076,-5.11256,0
91.3448,-56.7957,-5.14345,0
91.3137,-56.5849,-5.1734,0
91.253,-56.3773,-5.20191,0
91.1877,-56.172,-5.22937,0
91.1178,-55.9692,-5.25578,0
91.0421,-55.7691,-5.2811,0
90.9588,-55.5723,-5.30525,0
90.8714,-55.3783,-5.32832,0
90.7801,-55.1874,-5.35032,0
90.6848,-54.9994,-5.37126,0
90.5827,-54.8155,-5.39096,0
90.467,-54.6378,-5.40912,0
90.3483,-54.4639,-5.42616,0
90.2265,-54.2938,-5.44213,0
90.102,-54.1275,-5.45699,0
89.9746,-53.9651,-5.47079,0
89.8447,-53.8065,-5.48354,0
89.7123,-53.6517,-5.49525,0
89.5864,-53.4966,-5.50652,0
89.468,-53.3399,-5.51751,0
82.0923,-65.0101,-2.69565,0
82.2773,-65.0348,-2.71628,0
82.4629,-65.0465,-2.74021,0
82.6489,-65.0548,-2.76458,0
82.8355,-65.0598,-2.78939,0
83.0223,-65.0615,-2.81463,0
83.2098,-65.0599,-2.84029,0
83.3976,-65.0548,-2.8664,0
83.5858,-65.0463,-2.89292,0
83.7743,-65.0344,-2.91987,0
83.9631,-65.019,-2.94724,0
84.1522,-65.0002,-2.97504,0
84.3415,-64.9778,-3.00325,0
84.5309,-64.9519,-3.03188,0
84.7211,-64.9238,-3.06061,0
84.9171,-64.9072,-3.086,0
85.1141,-64.887,-3.11191,0
85.312,-64.863,-3.13835,0
85.5108,-64.8351,-3.16531,0
85.7102,-64.8035,-3.19279,0
85.9105,-64.7679,-3.22079,0
86.1115,-64.7283,-3.24932,0
86.3132,-64.6847,-3.27838,0
86.5155,-64.637,-3.30798,0
86.7183,-64.5851,-3.33808,0
86.9216,-64.529,-3.36873,0
87.1255,-64.4686,-3.3999,0
87.3146,-64.3836,-3.43596,0
87.4978,-64.2882,-3.47377,0
87.68,-64.1889,-3.51182,0
87.8609,-64.0858,-3.55012,0
88.0406,-63.979,-3.58864,0
88.219,-63.8684,-3.6274,0
88.396,-63.7539,-3.66638,0
88.5716,-63.6356,-3.70558,0
88.7458,-63.5134,-3.74498,0
88.9184,-63.3874,-3.78459,0
89.0894,-63.2575,-3.82437,0
89.2377,-63.1066,-3.86758,0
89.3784,-62.9489,-3.91145,0
89.5156,-62.7878,-3.95528,0
89.6493,-62.6236,-3.99903,0
89.7842,-62.4595,-4.04209,0
89.9153,-62.2919,-4.08512,0
89.9331,-62.0543,-4.13977,174
89.9174,-61.8029,-4.19582,174
89.951,-61.5858,-4.24497,174
89.9834,-61.3719,-4.29272,174
90.0716,-61.1891,-4.33451,174
90.2111,-61.0302,-4.37176,174
90.3562,-60.8708,-4.40858,174
90.5601,-60.7322,-4.44167,174
90.7749,-60.5913,-4.47479,174
90.9658,-60.4346,-4.50998,0
91.027,-60.2284,-4.55195,0
91.0829,-60.021,-4.59336,0
91.1338,-59.8124,-4.63423,0
91.1792,-59.6027,-4.67451,0
91.2195,-59.3922,-4.71421,0
91.2545,-59.1809,-4.75326,0
91.2947,-58.9709,-4.79146,0
91.3316,-58.7603,-4.82903,0
91.3637,-58.5488,-4.866,0
91.3911,-58.3367,-4.90236,0
91.4022,-58.1227,-4.93815,0
91.4055,-57.9085,-4.97321,0
91.4041,-57.6945,-5.00749,0
91.3977,-57.4808,-5.04099,0
91.3866,-57.2675,-5.07369,0
91.3707,-57.0548,-5.10558,0
91.3501,-56.8427,-5.13665,0
91.3247,-56.6314,-5.16689,0
91.2669,-56.4232,-5.19566,0
91.2027,-56.2174,-5.22336,0
91.1338,-56.014,-5.25001,0
91.0602,-55.8132,-5.2756,0
90.9777,-55.6157,-5.29998,0
90.8912,-55.4212,-5.32329,0
90.8006,-55.2295,-5.34552,0
90.7063,-55.0409,-5.36669,0
90.6078,-54.8554,-5.38678,0
90.493,-54.677,-5.40518,0
90.3748,-54.5022,-5.42248,0
90.2537,-54.3313,-5.43867,0
90.1298,-54.1641,-5.45378,0
90.003,-54.0008,-5.46782,0
89.8737,-53.8414,-5.4808,0
89.7419,-53.6858,-5.49273,0
89.6127,-53.5317,-5.50398,0
89.4933,-53.3751,-5.51506,0
89.3887,-53.2122,-5.52646,0
82.0512,-65.0036,-2.69132,0
82.2362,-65.0318,-2.71102,0
82.4216,-65.0442,-2.73485,0
82.6075,-65.0533,-2.75912,0
82.7939,-65.059,-2.78383,0
82.9808,-65.0614,-2.80898,0
83.1681,-65.0605,-2.83456,0
83.3559,-65.0562,-2.86056,0
83.544,-65.0485,-2.88699,0
83.7323,-65.0373,-2.91384,0
83.9212,-65.0227,-2.94112,0
84.1102,-65.0047,-2.96883,0
84.2995,-64.9831,-2.99695,0
84.4889,-64.958,-3.02549,0
84.6784,-64.9294,-3.05444,0
84.8735,-64.9112,-3.08031,0
85.0704,-64.8918,-3.10612,0
85.268,-64.8686,-3.13243,0
85.4665,-64.8417,-3.15927,0
85.6659,-64.8108,-3.18664,0
85.866,-64.7761,-3.21452,0
86.0668,-64.7375,-3.24293,0
86.2684,-64.6947,-3.27187,0
86.4705,-64.6479,-3.30135,0
86.6732,-64.597,-3.33135,0
86.8764,-64.5418,-3.36187,0
87.0801,-64.4824,-3.39293,0
87.2737,-64.4043,-3.4276,0
87.4573,-64.3097,-3.46535,0
87.6395,-64.2113,-3.50335,0
87.8208,-64.1091,-3.54158,0
88.0008,-64.0031,-3.58007,0
88.1795,-63.8933,-3.61878,0
88.3568,-63.7797,-3.65771,0
88.5327,-63.6622,-3.69685,0
88.7072,-63.5409,-3.73621,0
88.8802,-63.4157,-3.77576,0
89.0515,-63.2867,-3.81551,0
89.2059,-63.1412,-3.85783,0
89.3474,-62.9842,-3.90171,0
89.4855,-62.8239,-3.94555,0
89.6199,-62.6603,-3.98931,0
89.7546,-62.4962,-4.03252,0
89.8865,-62.3294,-4.07557,0
89.9509,-62.12,-4.12543,174
89.9097,-61.8516,-4.1847,174
89.9437,-61.6338,-4.23417,174
89.9763,-61.4192,-4.28223,174
90.0428,-61.2251,-4.32604,174
90.18,-61.0657,-4.3635,174
90.3207,-60.905,-4.40063,174
90.5138,-60.7632,-4.43432,174
90.7266,-60.623,-4.4674,174
90.947,-60.4786,-4.50081,174
91.0137,-60.2744,-4.54266,0
91.0709,-60.0672,-4.58421,0
91.1229,-59.8588,-4.6252,0
91.1695,-59.6494,-4.66562,0
91.211,-59.439,-4.70543,0
91.2472,-59.2279,-4.74464,0
91.2858,-59.0176,-4.78302,0
91.3238,-58.8072,-4.82072,0
91.357,-58.5959,-4.85784,0
91.3854,-58.3839,-4.89433,0
91.4008,-58.1703,-4.93026,0
91.4052,-57.956,-4.96548,0
91.4048,-57.742,-4.99994,0
91.3996,-57.5282,-5.03361,0
91.3895,-57.3149,-5.0665,0
91.3747,-57.1021,-5.09857,0
91.3551,-56.8898,-5.12982,0
91.3307,-56.6783,-5.16024,0
91.2806,-56.4693,-5.18937,0
91.2173,-56.263,-5.21729,0
91.1494,-56.059,-5.24417,0
91.077,-55.8576,-5.27001,0
90.9963,-55.6594,-5.29465,0
90.9107,-55.4641,-5.3182,0
90.8212,-55.2719,-5.34067,0
90.7276,-55.0826,-5.36208,0
90.6303,-54.8963,-5.38242,0
90.5188,-54.7163,-5.40119,0
90.4014,-54.5408,-5.41873,0
90.281,-54.3689,-5.43516,0
90.1576,-54.2009,-5.45051,0
90.0315,-54.0368,-5.46479,0
89.9027,-53.8765,-5.478,0
89.7714,-53.72,-5.49017,0
89.6389,-53.5669,-5.50139,0
89.52,-53.4096,-5.51267,0
89.4116,-53.2486,-5.52395,0
82.0103,-64.9969,-2.68701,0
82.195,-65.0259,-2.70658,0
82.3804,-65.0417,-2.72952,0
88.9193,-62.7731,-3.8688,0
89.0521,-62.6222,-3.91049,0
89.1816,-62.4682,-3.95213,0
89.3076,-62.3111,-3.9937,0
89.43,-62.151,-4.03519,0
89.5488,-61.988,-4.07656,0
89.6646,-61.8226,-4.11772,0
89.7803,-61.6564,-4.15836,0
89.8825,-61.482,-4.19982,174
89.9424,-61.2856,-4.24464,174
90.0752,-61.1264,-4.28198,174
90.2039,-60.9628,-4.31952,0
90.2997,-60.7827,-4.35935,0
90.3737,-60.5929,-4.40019,0
90.4408,-60.4007,-4.44074,0
90.503,-60.207,-4.48085,0
90.5604,-60.0119,-4.52048,0
90.6129,-59.8156,-4.55961,0
90.6686,-59.6204,-4.59784,0
90.7209,-59.4242,-4.63554,0
90.7686,-59.2269,-4.67274,0
90.8118,-59.0285,-4.70943,0
90.8505,-58.829,-4.74558,0
90.8847,-58.6287,-4.78117,0
90.9142,-58.4275,-4.81619,0
