54.8132,-51.987,-0.664474,0
54.8561,-51.9,-0.672936,0
54.8969,-51.8122,-0.681188,0
54.9355,-51.7237,-0.689225,0
54.972,-51.6345,-0.697048,0
55.0063,-51.5447,-0.704655,0
55.0385,-51.4543,-0.712023,0
55.0688,-51.3635,-0.719118,0
55.0976,-51.2726,-0.725846,0
55.1241,-51.181,-0.732385,0
55.1484,-51.0892,-0.738693,0
55.1705,-50.9969,-0.744797,0
55.1903,-50.9043,-0.750671,0
55.2102,-50.8121,-0.755871,0
55.2286,-50.7198,-0.7607,0
55.2482,-50.628,-0.764631,0
55.2663,-50.5359,-0.768244,0
55.2822,-50.4436,-0.771618,0
55.2961,-50.3509,-0.774758,0
55.308,-50.258,-0.777653,0
55.3178,-50.1648,-0.780314,0
49.0152,-52.9394,-0.0865057,0
49.087,-52.9973,-0.091281,0
49.1602,-53.0537,-0.0961492,0
49.2348,-53.1087,-0.101096,0
49.3107,-53.1622,-0.10613,0
49.3877,-53.2142,-0.111257,0
49.4661,-53.2647,-0.116457,0
49.5456,-53.3136,-0.12174,0
49.6264,-53.3609,-0.127121,0
49.7084,-53.4062,-0.132712,0
49.7915,-53.4498,-0.138376,0
49.8757,-53.4918,-0.144098,0
49.9608,-53.5329,-0.149577,0
50.0457,-53.576,-0.153737,0
50.1321,-53.6163,-0.158371,0
50.2211,-53.6494,-0.16509,0
50.3109,-53.6805,-0.171896,0
50.4016,-53.7096,-0.178781,0
50.493,-53.7367,-0.185759,0
50.5852,-53.7618,-0.192804,0
50.678,-53.7848,-0.199929,0
50.7716,-53.8058,-0.207131,0
50.8657,-53.8247,-0.214387,0
50.9605,-53.8414,-0.221716,0
51.0557,-53.856,-0.229108,0
51.1514,-53.8685,-0.236554,0
51.2476,-53.8788,-0.244059,0
51.3441,-53.887,-0.251613,0
51.441,-53.8929,-0.259216,0
51.5381,-53.8966,-0.266857,0
51.6355,-53.898,-0.274548,0
51.7331,-53.8973,-0.282267,0
51.8308,-53.8942,-0.290021,0
51.9286,-53.889,-0.297804,0
52.0264,-53.8814,-0.305602,0
52.1236,-53.8689,-0.314216,0
52.2202,-53.8528,-0.323283,0
52.3166,-53.8344,-0.332306,0
52.4126,-53.814,-0.341286,0
52.5082,-53.7914,-0.350217,0
52.6031,-53.7658,-0.359347,0
52.6959,-53.7339,-0.369699,0
52.788,-53.6999,-0.379968,0
52.8793,-53.6639,-0.390134,0
52.9698,-53.626,-0.400187,0
53.0593,-53.5861,-0.410138,0
53.148,-53.5442,-0.419968,0
53.2358,-53.5005,-0.429684,0
53.3226,-53.4548,-0.439284,0
53.4084,-53.4073,-0.448747,0
53.4931,-53.3579,-0.458083,0
53.5726,-53.3003,-0.46926,0
53.6501,-53.2402,-0.480549,0
53.7258,-53.1783,-0.491716,0
53.7999,-53.1147,-0.50277,0
53.8724,-53.0495,-0.513703,0
53.943,-52.9826,-0.524494,0
54.012,-52.9141,-0.535153,0
54.0791,-52.8441,-0.545661,0
54.1444,-52.7727,-0.556027,0
54.2077,-52.6998,-0.566237,0
54.2692,-52.6256,-0.576296,0
54.3288,-52.5501,-0.586183,0
54.3864,-52.4733,-0.595895,0
54.4421,-52.3953,-0.605441,0
54.4958,-52.3162,-0.614806,0
54.5475,-52.236,-0.623991,0
54.5972,-52.1547,-0.63299,0
54.6448,-52.0725,-0.641794,0
54.6905,-51.9894,-0.650407,0
54.7339,-51.9054,-0.65881,0
54.7754,-51.8205,-0.667023,0
54.8148,-51.7349,-0.675031,0
54.8522,-51.6486,-0.682829,0
54.8873,-51.5617,-0.690407,0
54.9205,-51.4741,-0.697775,0
54.9516,-51.386,-0.704933,0
54.9805,-51.2974,-0.711867,0
55.0073,-51.2084,-0.718581,0
55.032,-51.1189,-0.72507,0
55.0547,-51.0291,-0.731345,0
55.0757,-50.9392,-0.737272,0
55.0957,-50.8494,-0.742741,0
55.1184,-50.7605,-0.74695,0
55.1395,-50.6713,-0.750886,0
55.1586,-50.5818,-0.754587,0
55.1756,-50.4918,-0.758063,0
55.1907,-50.4016,-0.761296,0
55.2038,-50.311,-0.764308,0
55.215,-50.2203,-0.767077,0
55.2241,-50.1294,-0.769606,0
49.0057,-52.9316,-0.0858855,0
49.0775,-52.9897,-0.0906512,0
49.1505,-53.0463,-0.0955047,0
49.2249,-53.1015,-0.100441,0
49.3005,-53.1553,-0.105461,0
49.3775,-53.2075,-0.110568,0
49.4557,-53.2582,-0.115763,0
49.5351,-53.3073,-0.121032,0
49.6156,-53.3548,-0.126393,0
49.6975,-53.4003,-0.13197,0
49.7805,-53.4442,-0.137619,0
49.8645,-53.4863,-0.143342,0
49.9496,-53.5271,-0.149045,0
50.0344,-53.5704,-0.153185,0
50.1205,-53.6118,-0.157497,0
50.2093,-53.6451,-0.164196,0
50.2991,-53.6765,-0.170993,0
50.3895,-53.7059,-0.177873,0
50.4809,-53.7332,-0.184836,0
50.573,-53.7586,-0.191872,0
50.6658,-53.7819,-0.198991,0
50.7592,-53.8031,-0.206169,0
50.8533,-53.8223,-0.213429,0
50.9479,-53.8393,-0.220749,0
51.0431,-53.8542,-0.228127,0
51.1388,-53.867,-0.235573,0
51.2348,-53.8776,-0.243073,0
51.3314,-53.886,-0.250617,0
51.4282,-53.8922,-0.25822,0
51.5253,-53.8962,-0.265851,0
51.6227,-53.898,-0.273527,0
51.7202,-53.8975,-0.281252,0
51.8179,-53.8948,-0.289001,0
51.9157,-53.8898,-0.296774,0
52.0135,-53.8825,-0.304577,0
52.1109,-53.8709,-0.313019,0
52.2075,-53.855,-0.322087,0
52.3038,-53.837,-0.331125,0
52.3999,-53.8168,-0.340104,0
52.4955,-53.7945,-0.34904,0
52.5908,-53.7699,-0.357971,0
52.6837,-53.7382,-0.368342,0
52.7759,-53.7045,-0.378615,0
52.8673,-53.6688,-0.388796,0
52.9578,-53.6311,-0.398874,0
53.0476,-53.5914,-0.408835,0
53.1364,-53.5499,-0.418678,0
53.2243,-53.5064,-0.42841,0
53.3112,-53.4609,-0.438019,0
53.3972,-53.4137,-0.447507,0
53.482,-53.3645,-0.456862,0
53.5623,-53.3081,-0.467765,0
53.6399,-53.2482,-0.479059,0
53.7159,-53.1866,-0.490246,0
53.7903,-53.1232,-0.50132,0
53.863,-53.0582,-0.512262,0
53.9338,-52.9915,-0.523078,0
54.003,-52.9232,-0.533752,0
54.0703,-52.8534,-0.544289,0
54.1359,-52.7822,-0.554675,0
54.1995,-52.7095,-0.564904,0
54.2612,-52.6355,-0.574977,0
54.321,-52.5601,-0.584889,0
54.3789,-52.4835,-0.594631,0
54.4348,-52.4057,-0.604191,0
54.4888,-52.3267,-0.613586,0
54.5408,-52.2466,-0.622785,0
54.5907,-52.1655,-0.631813,0
54.6387,-52.0834,-0.640637,0
54.6845,-52.0004,-0.649279,0
54.7284,-51.9165,-0.657717,0
54.7701,-51.8318,-0.665949,0
54.8098,-51.7463,-0.673981,0
54.8473,-51.6601,-0.681804,0
54.8829,-51.5732,-0.689416,0
54.9162,-51.4857,-0.696813,0
54.9477,-51.3977,-0.704001,0
54.9768,-51.3091,-0.710964,0
55.0038,-51.2201,-0.717712,0
55.0289,-51.1308,-0.724225,0
55.0518,-51.041,-0.730529,0
55.073,-50.9511,-0.736506,0
55.093,-50.8612,-0.742077,0
55.1156,-50.7723,-0.746408,0
55.1369,-50.6831,-0.750373,0
55.1562,-50.5936,-0.754108,0
55.1735,-50.5037,-0.757619,0
55.1888,-50.4135,-0.760886,0
55.2023,-50.323,-0.763923,0
55.2136,-50.2323,-0.766725,0
55.223,-50.1414,-0.769294,0
48.9963,-52.9239,-0.0852605,0
49.0679,-52.9821,-0.0900115,0
49.1408,-53.039,-0.0948504,0
49.215,-53.0943,-0.0997869,0
49.2905,-53.1483,-0.104797,0
49.3673,-53.2007,-0.109894,0
49.4452,-53.2516,-0.115075,0
49.5245,-53.3009,-0.120334,0
49.6048,-53.3486,-0.125676,0
49.6866,-53.3944,-0.131232,0
49.7695,-53.4385,-0.136872,0
49.8534,-53.4809,-0.142575,0
49.9384,-53.5216,-0.148351,0
50.0232,-53.5648,-0.152634,0
50.109,-53.6066,-0.156852,0
50.1976,-53.6409,-0.163307,0
50.2871,-53.6725,-0.17009,0
50.3776,-53.7021,-0.176965,0
50.4688,-53.7297,-0.183908,0
50.5608,-53.7554,-0.190934,0
50.6535,-53.7789,-0.198039,0
50.7468,-53.8005,-0.205217,0
50.8409,-53.8199,-0.212468,0
50.9354,-53.8372,-0.219777,0
51.0305,-53.8524,-0.227155,0
51.1262,-53.8654,-0.234582,0
51.2222,-53.8763,-0.242077,0
51.3187,-53.885,-0.249616,0
51.4154,-53.8915,-0.257209,0
51.5125,-53.8958,-0.264841,0
51.6098,-53.8979,-0.272516,0
51.7073,-53.8977,-0.280226,0
51.805,-53.8953,-0.287966,0
51.9027,-53.8906,-0.295749,0
52.0006,-53.8836,-0.303537,0
52.098,-53.8728,-0.311823,0
52.1948,-53.8573,-0.320895,0
52.2912,-53.8395,-0.329938,0
52.3873,-53.8196,-0.338923,0
52.483,-53.7976,-0.347863,0
52.5783,-53.7734,-0.35675,0
52.6715,-53.7425,-0.36697,0
52.7637,-53.709,-0.377272,0
52.8552,-53.6736,-0.387463,0
52.9459,-53.6362,-0.397546,0
53.0357,-53.5968,-0.407521,0
53.1247,-53.5555,-0.417389,0
53.2127,-53.5122,-0.427136,0
53.2998,-53.467,-0.436764,0
53.3859,-53.42,-0.446262,0
53.4709,-53.3711,-0.455632,0
53.5519,-53.3159,-0.466262,0
53.6298,-53.2562,-0.477575,0
53.706,-53.1948,-0.488776,0
53.7805,-53.1317,-0.499865,0
53.8534,-53.0669,-0.510822,0
53.9245,-53.0004,-0.521652,0
53.9939,-52.9323,-0.53235,0
54.0615,-52.8627,-0.542902,0
54.1273,-52.7917,-0.553303,0
54.1912,-52.7192,-0.563561,0
54.2531,-52.6453,-0.573659,0
54.3132,-52.5701,-0.583586,0
54.3713,-52.4937,-0.593351,0
54.4276,-52.416,-0.602946,0
54.4818,-52.3372,-0.61235,0
54.5341,-52.2572,-0.621589,0
54.5843,-52.1763,-0.630632,0
54.6325,-52.0943,-0.639489,0
54.6786,-52.0114,-0.648141,0
54.7227,-51.9276,-0.656613,0
54.7647,-51.843,-0.664875,0
54.8047,-51.7576,-0.672936,0
54.8425,-51.6715,-0.680788,0
54.8784,-51.5847,-0.688425,0
54.912,-51.4973,-0.695856,0
54.9435,-51.4093,-0.703063,0
54.973,-51.3208,-0.71006,0
55.0005,-51.2319,-0.716838,0
55.0257,-51.1426,-0.723376,0
55.0489,-51.0529,-0.729709,0
55.0703,-50.963,-0.735734,0
55.0902,-50.873,-0.741413,0
55.1127,-50.784,-0.745871,0
55.1341,-50.6949,-0.749865,0
55.1537,-50.6054,-0.75363,0
55.1713,-50.5156,-0.75717,0
55.187,-50.4254,-0.760466,0
55.2005,-50.335,-0.763532,0
55.2122,-50.2443,-0.766369,0
55.2219,-50.1534,-0.768971,0
49.0673,-52.866,-0.0899676,0
49.1376,-52.9225,-0.0946453,0
49.2093,-52.9776,-0.0993963,0
49.2822,-53.0312,-0.104245,0
49.3564,-53.0834,-0.109172,0
49.4318,-53.1341,-0.114177,0
49.5084,-53.1832,-0.119269,0
49.5862,-53.2309,-0.124426,0
49.6652,-53.277,-0.12967,0
49.7452,-53.3214,-0.134997,0
49.8265,-53.3642,-0.140422,0
49.9088,-53.405,-0.146017,0
49.9922,-53.4442,-0.151677,0
50.0756,-53.4848,-0.156218,0
50.1607,-53.5219,-0.161525,0
50.2476,-53.554,-0.168083,0
50.3352,-53.5841,-0.174738,0
50.4237,-53.6124,-0.181462,0
50.513,-53.6387,-0.188273,0
50.603,-53.663,-0.195153,0
50.6937,-53.6853,-0.202111,0
50.7849,-53.7056,-0.209133,0
50.8768,-53.7238,-0.216227,0
50.9692,-53.74,-0.223376,0
51.0622,-53.7541,-0.230588,0
51.1555,-53.7661,-0.237853,0
51.2494,-53.776,-0.245178,0
51.3435,-53.7837,-0.252546,0
51.438,-53.7893,-0.259963,0
51.5327,-53.7927,-0.267429,0
51.6277,-53.794,-0.274919,0
51.7228,-53.7931,-0.282443,0
51.8181,-53.7899,-0.290007,0
51.9134,-53.7846,-0.297595,0
52.0088,-53.777,-0.305207,0
52.1041,-53.7672,-0.312839,0
52.1992,-53.7546,-0.320671,0
52.2932,-53.7366,-0.329479,0
52.387,-53.7165,-0.338239,0
52.4802,-53.6944,-0.346955,0
52.5732,-53.6701,-0.355622,0
52.6641,-53.6397,-0.36549,0
52.7541,-53.6066,-0.375524,0
52.8432,-53.5715,-0.385446,0
52.9316,-53.5344,-0.39527,0
53.0191,-53.4955,-0.404997,0
53.1059,-53.4546,-0.414596,0
53.1916,-53.4119,-0.424089,0
53.2763,-53.3673,-0.433459,0
53.3575,-53.3165,-0.444103,0
53.4361,-53.2617,-0.455295,0
53.513,-53.2052,-0.466393,0
53.5886,-53.1468,-0.477394,0
53.6625,-53.0868,-0.488273,0
53.7348,-53.025,-0.49905,0
53.8055,-52.9616,-0.509694,0
53.8745,-52.8967,-0.520212,0
53.9417,-52.8302,-0.530602,0
54.0072,-52.7622,-0.540846,0
54.0709,-52.6928,-0.550959,0
54.1328,-52.6219,-0.560915,0
54.1929,-52.5498,-0.570724,0
54.2511,-52.4764,-0.580373,0
54.3074,-52.4017,-0.58985,0
54.3619,-52.3259,-0.599157,0
54.4144,-52.249,-0.608303,0
54.4649,-52.171,-0.617267,0
54.5135,-52.0919,-0.626047,0
54.5602,-52.012,-0.634636,0
54.6048,-51.931,-0.643049,0
54.6474,-51.8493,-0.651266,0
54.688,-51.7667,-0.659284,0
54.7266,-51.6834,-0.667096,0
54.7633,-51.5994,-0.674723,0
54.7978,-51.5147,-0.682136,0
54.8303,-51.4295,-0.689347,0
54.8608,-51.3437,-0.69634,0
54.8892,-51.2574,-0.703117,0
54.9155,-51.1706,-0.709684,0
54.9398,-51.0835,-0.716037,0
54.9622,-50.996,-0.72217,0
54.9847,-50.909,-0.727565,0
55.0077,-50.8223,-0.73217,0
55.0296,-50.7355,-0.736379,0
55.0496,-50.6482,-0.740353,0
55.068,-50.5607,-0.744035,0
55.0847,-50.4729,-0.747433,0
55.0995,-50.3848,-0.750602,0
55.1123,-50.2964,-0.753542,0
55.1233,-50.2078,-0.756257,0
55.1323,-50.119,-0.758737,0
49.058,-52.8585,-0.0893572,0
49.1282,-52.9151,-0.0940154,0
49.1997,-52.9704,-0.0987713,0
49.2725,-53.0242,-0.1036,0
49.3465,-53.0766,-0.108512,0
49.4218,-53.1275,-0.113512,0
49.4983,-53.1768,-0.118591,0
49.5759,-53.2247,-0.123752,0
49.6546,-53.271,-0.128986,0
49.7346,-53.3157,-0.134284,0
49.8156,-53.3587,-0.139689,0
49.8979,-53.3997,-0.145275,0
49.9811,-53.4391,-0.150934,0
50.0646,-53.4794,-0.155671,0
50.1493,-53.5175,-0.160671,0
50.2361,-53.5498,-0.167219,0
50.3237,-53.5803,-0.173854,0
50.4121,-53.6088,-0.180568,0
50.5012,-53.6353,-0.187365,0
50.5911,-53.6599,-0.194235,0
50.6817,-53.6825,-0.201183,0
50.7728,-53.703,-0.2082,0
50.8647,-53.7215,-0.215285,0
50.957,-53.738,-0.222424,0
51.0498,-53.7524,-0.229631,0
51.1432,-53.7646,-0.236901,0
51.237,-53.7748,-0.244211,0
51.3311,-53.7828,-0.251569,0
51.4255,-53.7887,-0.258981,0
51.5202,-53.7924,-0.266442,0
51.6152,-53.794,-0.273923,0
51.7103,-53.7933,-0.281447,0
51.8055,-53.7905,-0.289015,0
51.9009,-53.7854,-0.296594,0
51.9963,-53.7781,-0.304201,0
52.0916,-53.7686,-0.311828,0
52.1867,-53.7568,-0.319499,0
52.2809,-53.7391,-0.328317,0
52.3746,-53.7193,-0.337087,0
52.468,-53.6974,-0.345812,0
52.561,-53.6735,-0.354474,0
52.6523,-53.644,-0.364167,0
52.7423,-53.6111,-0.374201,0
52.8316,-53.5762,-0.384137,0
52.92,-53.5394,-0.393976,0
53.0077,-53.5007,-0.403718,0
53.0945,-53.4601,-0.413337,0
53.1802,-53.4176,-0.422844,0
53.2652,-53.3733,-0.432228,0
53.347,-53.3235,-0.442624,0
53.4258,-53.269,-0.45383,0
53.503,-53.2127,-0.464933,0
53.5788,-53.1546,-0.475939,0
53.6528,-53.0948,-0.486843,0
53.7254,-53.0333,-0.497629,0
53.7962,-52.9701,-0.508293,0
53.8655,-52.9053,-0.51883,0
53.933,-52.839,-0.529245,0
53.9987,-52.7712,-0.539513,0
54.0626,-52.702,-0.549631,0
54.1248,-52.6314,-0.559616,0
54.1851,-52.5594,-0.56944,0
54.2435,-52.4861,-0.579108,0
54.3001,-52.4116,-0.588605,0
54.3548,-52.336,-0.597941,0
54.4076,-52.2592,-0.607111,0
54.4584,-52.1813,-0.616095,0
54.5073,-52.1024,-0.624894,0
54.5541,-52.0226,-0.633522,0
54.599,-51.9418,-0.641955,0
54.6419,-51.8601,-0.650187,0
54.6828,-51.7777,-0.658234,0
54.7216,-51.6945,-0.666086,0
54.7585,-51.6105,-0.673727,0
54.7934,-51.526,-0.681169,0
54.8262,-51.4408,-0.6884,0
54.8569,-51.355,-0.695431,0
54.8855,-51.2688,-0.702233,0
54.9122,-51.1821,-0.70883,0
54.9368,-51.095,-0.715207,0
54.9593,-51.0076,-0.721369,0
54.9817,-50.9205,-0.726882,0
55.0047,-50.8338,-0.731598,0
55.0268,-50.747,-0.735837,0
55.047,-50.6598,-0.739841,0
55.0656,-50.5723,-0.743571,0
55.0827,-50.4845,-0.746999,0
55.0977,-50.3964,-0.750202,0
55.1108,-50.3081,-0.753166,0
55.122,-50.2195,-0.75591,0
55.1312,-50.1308,-0.758425,0
49.0489,-52.8509,-0.0887469,0
49.1189,-52.9077,-0.0934002,0
49.1902,-52.9632,-0.0981365,0
49.2628,-53.0172,-0.102956,0
49.3367,-53.0697,-0.107863,0
49.4118,-53.1208,-0.112853,0
49.4881,-53.1704,-0.117922,0
49.5656,-53.2185,-0.123063,0
49.6442,-53.2649,-0.128288,0
49.724,-53.3098,-0.133581,0
49.8049,-53.3531,-0.138952,0
49.887,-53.3944,-0.144538,0
49.9701,-53.434,-0.150182,0
50.0537,-53.4739,-0.155134,0
50.138,-53.5131,-0.159806,0
50.2245,-53.5457,-0.166345,0
50.312,-53.5763,-0.172975,0
50.4003,-53.6051,-0.179679,0
50.4895,-53.6319,-0.186467,0
50.5791,-53.6568,-0.193327,0
50.6697,-53.6796,-0.200265,0
50.7608,-53.7004,-0.207267,0
50.8526,-53.7192,-0.214343,0
50.9448,-53.7359,-0.221476,0
51.0377,-53.7506,-0.228683,0
51.1309,-53.7631,-0.235934,0
51.2245,-53.7736,-0.243244,0
51.3187,-53.7819,-0.250597,0
51.413,-53.788,-0.258005,0
51.5077,-53.792,-0.265451,0
51.6027,-53.7939,-0.272936,0
51.6977,-53.7935,-0.280456,0
51.793,-53.791,-0.288014,0
51.8883,-53.7862,-0.295593,0
51.9837,-53.7792,-0.303195,0
52.0789,-53.77,-0.310817,0
52.1742,-53.7586,-0.318459,0
52.2684,-53.7415,-0.327155,0
52.3623,-53.722,-0.335934,0
52.4557,-53.7004,-0.34466,0
52.5487,-53.6767,-0.353337,0
52.6402,-53.6482,-0.362829,0
52.7305,-53.6155,-0.372883,0
52.8198,-53.5809,-0.382834,0
52.9084,-53.5444,-0.392687,0
52.9962,-53.5059,-0.402443,0
53.083,-53.4656,-0.412077,0
53.169,-53.4233,-0.421594,0
53.2541,-53.3792,-0.430998,0
53.3365,-53.3306,-0.441135,0
53.4154,-53.2763,-0.452355,0
53.4929,-53.2203,-0.463473,0
53.5688,-53.1624,-0.474494,0
53.6432,-53.1028,-0.485407,0
53.7159,-53.0415,-0.496213,0
53.787,-52.9785,-0.506896,0
53.8564,-52.914,-0.517448,0
53.9241,-52.8479,-0.527878,0
53.9901,-52.7803,-0.538166,0
54.0542,-52.7112,-0.548307,0
54.1166,-52.6408,-0.558303,0
54.1772,-52.569,-0.568156,0
54.2359,-52.4959,-0.577834,0
54.2927,-52.4216,-0.58736,0
54.3477,-52.346,-0.596721,0
54.4007,-52.2694,-0.6059,0
54.4517,-52.1916,-0.614919,0
54.5009,-52.1129,-0.623742,0
54.548,-52.0331,-0.632394,0
54.5932,-51.9525,-0.640851,0
54.6364,-51.871,-0.649113,0
54.6776,-51.7886,-0.657184,0
54.7166,-51.7055,-0.66506,0
54.7537,-51.6217,-0.672726,0
54.7888,-51.5371,-0.680202,0
54.822,-51.452,-0.687458,0
54.8529,-51.3664,-0.694509,0
54.8819,-51.2802,-0.701349,0
54.9088,-51.1936,-0.707975,0
54.9337,-51.1065,-0.714382,0
54.9564,-51.0191,-0.720578,0
54.9787,-50.9319,-0.726208,0
55.0016,-50.8452,-0.731017,0
55.024,-50.7584,-0.73529,0
55.0445,-50.6713,-0.739328,0
55.0633,-50.5838,-0.743102,0
55.0805,-50.4961,-0.746564,0
55.0958,-50.4081,-0.749787,0
55.1091,-50.3198,-0.752785,0
55.1205,-50.2312,-0.755568,0
55.1301,-50.1425,-0.758107,0
49.1172,-52.7956,-0.0932879,0
49.1861,-52.8507,-0.097868,0
49.2563,-52.9045,-0.102521,0
49.3277,-52.9568,-0.107262,0
49.4002,-53.0077,-0.112087,0
49.4741,-53.0571,-0.116984,0
49.5491,-53.105,-0.12196,0
49.6252,-53.1515,-0.127023,0
49.7024,-53.1964,-0.13215,0
49.7808,-53.2397,-0.13735,0
49.8602,-53.2814,-0.142624,0
49.9406,-53.3215,-0.14797,0
50.0221,-53.3599,-0.153405,0
50.1044,-53.3974,-0.158586,0
50.188,-53.4314,-0.164548,0
50.2729,-53.4626,-0.170959,0
50.3586,-53.4919,-0.177453,0
50.445,-53.5194,-0.18402,0
50.5322,-53.5449,-0.190676,0
50.6201,-53.5685,-0.197399,0
50.7086,-53.5901,-0.204186,0
50.7977,-53.6097,-0.211052,0
50.8874,-53.6274,-0.217971,0
50.9777,-53.643,-0.224958,0
51.0684,-53.6566,-0.232004,0
51.1595,-53.6681,-0.239098,0
51.2511,-53.6776,-0.246252,0
51.343,-53.685,-0.253444,0
51.4352,-53.6903,-0.26068,0
51.5277,-53.6935,-0.267961,0
51.6203,-53.6945,-0.27527,0
51.7131,-53.6934,-0.282619,0
51.806,-53.6902,-0.290002,0
51.899,-53.6848,-0.297399,0
51.992,-53.6773,-0.304826,0
52.085,-53.6675,-0.312262,0
52.1778,-53.6556,-0.319719,0
52.2705,-53.6415,-0.327175,0
52.3624,-53.6232,-0.335319,0
52.4536,-53.6014,-0.34383,0
52.5443,-53.5777,-0.352297,0
52.6337,-53.5495,-0.361457,0
52.7216,-53.5171,-0.371257,0
52.8087,-53.4828,-0.380959,0
52.8951,-53.4467,-0.390563,0
52.9806,-53.4086,-0.400055,0
53.0652,-53.3687,-0.40944,0
53.1472,-53.3234,-0.419875,0
53.2266,-53.2739,-0.430954,0
53.3046,-53.2226,-0.44194,0
53.3812,-53.1695,-0.452848,0
53.4563,-53.1145,-0.463659,0
53.53,-53.0579,-0.474377,0
53.6022,-52.9995,-0.484987,0
53.6727,-52.9395,-0.49549,0
53.7417,-52.8779,-0.505876,0
53.8091,-52.8148,-0.516135,0
53.8748,-52.7501,-0.526266,0
53.9387,-52.684,-0.536266,0
54.0009,-52.6165,-0.54613,0
54.0614,-52.5477,-0.555842,0
54.1201,-52.4775,-0.565407,0
54.177,-52.4061,-0.574826,0
54.232,-52.3335,-0.584079,0
54.2852,-52.2597,-0.593166,0
54.3366,-52.1848,-0.602087,0
54.3861,-52.1089,-0.610846,0
54.4337,-52.032,-0.619421,0
54.4793,-51.9541,-0.627819,0
54.523,-51.8754,-0.636022,0
54.5648,-51.7958,-0.644054,0
54.6045,-51.7154,-0.651896,0
54.6424,-51.6342,-0.659538,0
54.6783,-51.5524,-0.666979,0
54.7122,-51.4699,-0.674235,0
54.7441,-51.3868,-0.681276,0
54.774,-51.3032,-0.688122,0
54.802,-51.2191,-0.694753,0
54.8278,-51.1346,-0.701183,0
54.8535,-51.0503,-0.706984,0
54.8783,-50.9659,-0.712326,0
54.9012,-50.8812,-0.717429,0
54.9245,-50.7967,-0.721779,0
54.9459,-50.7118,-0.72591,0
54.9655,-50.6266,-0.729797,0
54.9833,-50.541,-0.733454,0
54.9993,-50.4551,-0.736877,0
55.0134,-50.3689,-0.74007,0
55.0255,-50.2825,-0.743024,0
55.0361,-50.1959,-0.745749,0
55.0446,-50.1091,-0.748229,0
49.1083,-52.7883,-0.0926922,0
49.177,-52.8435,-0.0972576,0
49.247,-52.8974,-0.101901,0
49.3182,-52.9499,-0.106637,0
49.3906,-53.001,-0.111442,0
49.4643,-53.0506,-0.116335,0
49.5391,-53.0988,-0.121305,0
49.6151,-53.1454,-0.126349,0
49.6922,-53.1905,-0.131467,0
49.7704,-53.2341,-0.136657,0
49.8496,-53.276,-0.14193,0
49.93,-53.3163,-0.147258,0
50.0113,-53.355,-0.152668,0
50.0936,-53.3922,-0.158058,0
50.1769,-53.4271,-0.163708,0
50.2616,-53.4586,-0.170109,0
50.3473,-53.4882,-0.176594,0
50.4336,-53.5158,-0.183156,0
50.5206,-53.5416,-0.189792,0
50.6084,-53.5654,-0.196511,0
50.6969,-53.5873,-0.203288,0
50.7859,-53.6072,-0.210138,0
50.8755,-53.6252,-0.217057,0
50.9657,-53.6411,-0.224035,0
51.0563,-53.6549,-0.231066,0
51.1475,-53.6667,-0.238161,0
51.239,-53.6765,-0.245304,0
51.3309,-53.6842,-0.252487,0
51.423,-53.6897,-0.259719,0
51.5154,-53.6932,-0.266994,0
51.608,-53.6945,-0.274308,0
51.7009,-53.6937,-0.281652,0
51.7937,-53.6908,-0.289015,0
51.8867,-53.6857,-0.296418,0
51.9797,-53.6784,-0.303845,0
52.0727,-53.6689,-0.311281,0
52.1655,-53.6573,-0.318732,0
52.2583,-53.6435,-0.326198,0
52.3504,-53.6259,-0.334191,0
52.4416,-53.6044,-0.342712,0
52.5323,-53.5809,-0.351174,0
52.622,-53.5536,-0.360153,0
52.71,-53.5215,-0.369968,0
52.7973,-53.4875,-0.379679,0
52.8837,-53.4515,-0.389304,0
52.9694,-53.4137,-0.398805,0
53.0542,-53.3741,-0.408215,0
53.1366,-53.3297,-0.418415,0
53.2162,-53.2806,-0.429494,0
53.2943,-53.2295,-0.440495,0
53.3712,-53.1766,-0.451413,0
53.4466,-53.1219,-0.462238,0
53.5204,-53.0655,-0.47297,0
53.5927,-53.0073,-0.483595,0
53.6635,-52.9475,-0.494108,0
53.7327,-52.8861,-0.504509,0
53.8002,-52.8232,-0.514787,0
53.8661,-52.7588,-0.524933,0
53.9303,-52.6928,-0.534953,0
53.9928,-52.6255,-0.544836,0
54.0535,-52.5568,-0.554562,0
54.1124,-52.4868,-0.564157,0
54.1696,-52.4156,-0.573591,0
54.2248,-52.3431,-0.582863,0
54.2784,-52.2695,-0.591979,0
54.33,-52.1948,-0.60092,0
54.3797,-52.119,-0.609694,0
54.4274,-52.0422,-0.618298,0
54.4734,-51.9645,-0.62672,0
54.5173,-51.8858,-0.634958,0
54.5594,-51.8063,-0.643005,0
54.5995,-51.726,-0.650866,0
54.6375,-51.645,-0.658537,0
54.6737,-51.5632,-0.666012,0
54.7079,-51.4808,-0.673288,0
54.74,-51.3978,-0.680363,0
54.7702,-51.3143,-0.687233,0
54.7984,-51.2302,-0.693898,0
54.8246,-51.1458,-0.700353,0
54.8502,-51.0614,-0.706266,0
54.8751,-50.9771,-0.711633,0
54.8982,-50.8924,-0.716769,0
54.9215,-50.8079,-0.721218,0
54.9432,-50.7231,-0.725373,0
54.963,-50.6378,-0.729294,0
54.9811,-50.5523,-0.732985,0
54.9973,-50.4664,-0.736442,0
55.0116,-50.3803,-0.73966,0
55.0241,-50.2939,-0.742653,0
55.0348,-50.2073,-0.745402,0
55.0435,-50.1206,-0.747917,0
49.0993,-52.7809,-0.0921014,0
49.1678,-52.8363,-0.0966473,0
49.2377,-52.8904,-0.101286,0
49.3088,-52.9431,-0.106008,0
49.381,-52.9944,-0.110807,0
49.4545,-53.0442,-0.115685,0
49.5292,-53.0925,-0.120646,0
49.6049,-53.1394,-0.12568,0
49.682,-53.1847,-0.130788,0
49.76,-53.2284,-0.135978,0
49.8391,-53.2705,-0.141232,0
49.9193,-53.3111,-0.146559,0
50.0005,-53.35,-0.15194,0
50.0828,-53.3869,-0.157512,0
50.1659,-53.4229,-0.162863,0
50.2504,-53.4545,-0.169255,0
50.3359,-53.4844,-0.175729,0
50.4221,-53.5123,-0.182282,0
50.5091,-53.5383,-0.188913,0
50.5968,-53.5624,-0.195622,0
50.6852,-53.5846,-0.202394,0
50.7741,-53.6047,-0.20924,0
50.8637,-53.6229,-0.216139,0
50.9538,-53.6391,-0.223107,0
51.0444,-53.6532,-0.230138,0
51.1354,-53.6653,-0.237219,0
51.2269,-53.6753,-0.244357,0
51.3187,-53.6833,-0.25154,0
51.4108,-53.6891,-0.258766,0
51.5032,-53.6928,-0.266037,0
51.5958,-53.6944,-0.273337,0
51.6886,-53.6939,-0.280676,0
51.7815,-53.6913,-0.288049,0
51.8745,-53.6864,-0.295441,0
51.9674,-53.6795,-0.302863,0
52.0604,-53.6703,-0.3103,0
52.1533,-53.659,-0.317746,0
52.2461,-53.6455,-0.325207,0
52.3383,-53.6286,-0.333068,0
52.4295,-53.6074,-0.341589,0
52.5204,-53.5842,-0.350065,0
52.6104,-53.5577,-0.358849,0
52.6984,-53.5259,-0.368683,0
52.7858,-53.4921,-0.37841,0
52.8723,-53.4564,-0.388039,0
52.9581,-53.4188,-0.39756,0
53.043,-53.3794,-0.406979,0
53.1259,-53.3361,-0.41694,0
53.2057,-53.2871,-0.428039,0
53.2841,-53.2363,-0.439045,0
53.3611,-53.1837,-0.449977,0
53.4366,-53.1292,-0.460817,0
53.5107,-53.073,-0.471564,0
53.5833,-53.0151,-0.482199,0
53.6543,-52.9555,-0.492726,0
53.7237,-52.8943,-0.503146,0
53.7914,-52.8316,-0.513439,0
53.8575,-52.7673,-0.523605,0
53.922,-52.7016,-0.533639,0
53.9847,-52.6345,-0.543532,0
54.0455,-52.566,-0.553293,0
54.1048,-52.4962,-0.562897,0
54.1621,-52.4251,-0.572355,0
54.2177,-52.3528,-0.581652,0
54.2714,-52.2793,-0.590778,0
54.3233,-52.2047,-0.599748,0
54.3733,-52.1291,-0.608547,0
54.4212,-52.0524,-0.617179,0
54.4674,-51.9748,-0.625622,0
54.5116,-51.8962,-0.633879,0
54.5539,-51.8168,-0.641955,0
54.5942,-51.7366,-0.649845,0
54.6326,-51.6557,-0.657536,0
54.6691,-51.574,-0.665036,0
54.7034,-51.4917,-0.672346,0
54.7359,-51.4088,-0.67944,0
54.7663,-51.3253,-0.68634,0
54.7947,-51.2414,-0.693019,0
54.8212,-51.157,-0.699504,0
54.8466,-51.0725,-0.705534,0
54.872,-50.9882,-0.710934,0
54.8953,-50.9036,-0.716105,0
54.9185,-50.819,-0.720651,0
54.9404,-50.7343,-0.724831,0
54.9605,-50.6491,-0.728796,0
54.9787,-50.5636,-0.732507,0
54.9952,-50.4778,-0.735993,0
55.0098,-50.3917,-0.739255,0
55.0226,-50.3053,-0.742272,0
55.0334,-50.2188,-0.745046,0
55.0426,-50.132,-0.747599,0
49.1653,-52.728,-0.0964812,0
49.2328,-52.7818,-0.100959,0
49.3015,-52.8342,-0.105519,0
49.3714,-52.8853,-0.110163,0
49.4425,-52.9349,-0.114889,0
49.5147,-52.9831,-0.119689,0
49.5881,-53.0299,-0.124562,0
49.6627,-53.0752,-0.129509,0
49.7383,-53.1189,-0.134528,0
49.8149,-53.1612,-0.139621,0
49.8927,-53.2018,-0.144777,0
49.9714,-53.2409,-0.150007,0
50.0511,-53.2783,-0.155304,0
50.1322,-53.3126,-0.161242,0
50.2144,-53.3444,-0.16759,0
50.2973,-53.3751,-0.173708,0
50.3809,-53.4036,-0.180051,0
50.4654,-53.4302,-0.186481,0
50.5505,-53.455,-0.19298,0
50.6364,-53.4779,-0.199548,0
50.7229,-53.4989,-0.206183,0
50.8099,-53.5179,-0.212887,0
50.8976,-53.535,-0.219655,0
50.9857,-53.5501,-0.226481,0
51.0743,-53.5632,-0.233356,0
51.1634,-53.5744,-0.240285,0
51.2527,-53.5834,-0.247272,0
51.3424,-53.5905,-0.254289,0
51.4324,-53.5955,-0.261364,0
51.5227,-53.5985,-0.268469,0
51.6131,-53.5993,-0.275607,0
51.7038,-53.5981,-0.282785,0
51.7944,-53.5948,-0.289982,0
51.8852,-53.5894,-0.297209,0
51.9759,-53.5818,-0.30446,0
52.0666,-53.5722,-0.31172,0
52.1572,-53.5604,-0.318991,0
52.2477,-53.5465,-0.326276,0
52.3379,-53.5304,-0.333566,0
52.428,-53.5123,-0.340851,0
52.5166,-53.489,-0.349103,0
52.6045,-53.4629,-0.35758,0
52.6904,-53.4313,-0.36716,0
52.7756,-53.3978,-0.376652,0
52.8601,-53.3624,-0.386032,0
52.9418,-53.3214,-0.396574,0
53.0218,-53.2772,-0.407502,0
53.1005,-53.231,-0.418361,0
53.178,-53.1829,-0.429157,0
53.2541,-53.1331,-0.439875,0
53.3288,-53.0814,-0.450505,0
53.4022,-53.0281,-0.461052,0
53.4741,-52.973,-0.471506,0
53.5445,-52.9163,-0.481857,0
53.6135,-52.8579,-0.492101,0
53.6808,-52.798,-0.502228,0
53.7466,-52.7366,-0.512243,0
53.8107,-52.6737,-0.522131,0
53.8732,-52.6094,-0.531887,0
53.9341,-52.5438,-0.541506,0
53.9932,-52.4767,-0.550993,0
54.0505,-52.4085,-0.560329,0
54.1062,-52.339,-0.569523,0
54.16,-52.2683,-0.578561,0
54.2121,-52.1964,-0.587443,0
54.2623,-52.1235,-0.596159,0
54.3108,-52.0496,-0.604704,0
54.3573,-51.9747,-0.613088,0
54.402,-51.8989,-0.621291,0
54.4448,-51.8221,-0.629323,0
54.4857,-51.7446,-0.637165,0
54.5248,-51.6662,-0.644826,0
54.5619,-51.5872,-0.652302,0
54.597,-51.5074,-0.659587,0
54.6303,-51.427,-0.666672,0
54.6616,-51.346,-0.673576,0
54.6909,-51.2645,-0.680265,0
54.7202,-51.1832,-0.686325,0
54.748,-51.1017,-0.692009,0
54.7742,-51.0197,-0.697468,0
54.7985,-50.9373,-0.702702,0
54.8217,-50.8547,-0.707541,0
54.8445,-50.7721,-0.711803,0
54.8655,-50.6891,-0.715842,0
54.8848,-50.6058,-0.71966,0
54.9023,-50.5221,-0.723244,0
54.9179,-50.4381,-0.726598,0
54.9317,-50.3539,-0.729723,0
54.9437,-50.2694,-0.732624,0
54.954,-50.1847,-0.735285,0
54.9624,-50.0999,-0.737712,0
49.1565,-52.7208,-0.0959002,0
49.2238,-52.7747,-0.100368,0
49.2923,-52.8274,-0.104919,0
49.3621,-52.8786,-0.109553,0
49.433,-52.9285,-0.114264,0
49.5052,-52.9769,-0.119045,0
49.5784,-53.0238,-0.123913,0
49.6527,-53.0693,-0.128845,0
49.7282,-53.1132,-0.133864,0
49.8048,-53.1557,-0.138947,0
49.8823,-53.1965,-0.144098,0
49.9609,-53.2358,-0.149313,0
50.0405,-53.2735,-0.154601,0
50.1212,-53.3091,-0.16009,0
50.2035,-53.34,-0.166843,0
50.2862,-53.3712,-0.172878,0
50.3698,-53.3999,-0.179211,0
50.4542,-53.4268,-0.185627,0
50.5393,-53.4519,-0.192116,0
50.625,-53.475,-0.198674,0
50.7114,-53.4962,-0.205304,0
50.7984,-53.5155,-0.211999,0
50.8859,-53.5329,-0.218757,0
50.974,-53.5482,-0.225568,0
51.0626,-53.5616,-0.232448,0
51.1516,-53.573,-0.239367,0
51.2409,-53.5824,-0.246345,0
51.3305,-53.5897,-0.253366,0
51.4205,-53.595,-0.260427,0
51.5108,-53.5982,-0.267531,0
51.6012,-53.5993,-0.27467,0
51.6918,-53.5984,-0.281838,0
51.7825,-53.5953,-0.289035,0
51.8732,-53.5902,-0.296257,0
51.964,-53.5829,-0.303498,0
52.0547,-53.5736,-0.310759,0
52.1453,-53.5621,-0.318039,0
52.2358,-53.5485,-0.325309,0
52.326,-53.5327,-0.332599,0
52.416,-53.5148,-0.339889,0
52.5049,-53.4922,-0.34801,0
52.593,-53.467,-0.356301,0
52.6791,-53.4356,-0.365905,0
52.7644,-53.4023,-0.375397,0
52.8489,-53.3672,-0.384802,0
52.9312,-53.3271,-0.395134,0
53.0112,-53.2831,-0.406066,0
53.0902,-53.2372,-0.416935,0
53.1678,-53.1894,-0.427741,0
53.2441,-53.1398,-0.438469,0
53.3191,-53.0884,-0.449113,0
53.3927,-53.0352,-0.459675,0
53.4647,-52.9804,-0.470129,0
53.5354,-52.9238,-0.480495,0
53.6045,-52.8657,-0.490754,0
53.672,-52.806,-0.500895,0
53.738,-52.7448,-0.510925,0
53.8023,-52.6821,-0.520832,0
53.8651,-52.618,-0.530602,0
53.9262,-52.5525,-0.540251,0
53.9855,-52.4857,-0.549753,0
54.0431,-52.4176,-0.559108,0
54.099,-52.3482,-0.568317,0
54.1531,-52.2777,-0.57738,0
54.2053,-52.206,-0.586276,0
54.2559,-52.1332,-0.595016,0
54.3045,-52.0594,-0.603586,0
54.3513,-51.9847,-0.611989,0
54.3962,-51.9089,-0.620221,0
54.4393,-51.8323,-0.628268,0
54.4805,-51.7549,-0.636135,0
54.5198,-51.6766,-0.643825,0
54.557,-51.5976,-0.65133,0
54.5925,-51.518,-0.658635,0
54.626,-51.4377,-0.665749,0
54.6576,-51.3568,-0.672678,0
54.6872,-51.2753,-0.679396,0
54.7163,-51.194,-0.685558,0
54.7445,-51.1125,-0.691271,0
54.7708,-51.0306,-0.696755,0
54.7954,-50.9482,-0.702028,0
54.8185,-50.8655,-0.706955,0
54.8416,-50.783,-0.711252,0
54.8629,-50.7001,-0.715319,0
54.8823,-50.6168,-0.719167,0
54.9001,-50.5332,-0.72278,0
54.9159,-50.4492,-0.726169,0
54.93,-50.365,-0.729323,0
54.9423,-50.2805,-0.732253,0
54.9527,-50.1959,-0.734943,0
54.9614,-50.1111,-0.737409,0
49.1477,-52.7136,-0.0953094,0
49.2148,-52.7677,-0.0997723,0
49.2832,-52.8205,-0.104313,0
49.3528,-52.8719,-0.108937,0
49.4235,-52.922,-0.113635,0
49.4955,-52.9706,-0.11841,0
49.5686,-53.0177,-0.123263,0
49.6429,-53.0634,-0.12819,0
49.7182,-53.1075,-0.13319,0
49.7946,-53.1502,-0.138268,0
49.872,-53.1912,-0.143415,0
49.9505,-53.2307,-0.14862,0
50.03,-53.2686,-0.153903,0
50.1104,-53.3048,-0.15924,0
50.1927,-53.3357,-0.166095,0
50.2752,-53.3672,-0.172053,0
50.3587,-53.3962,-0.178376,0
50.443,-53.4234,-0.184777,0
50.528,-53.4487,-0.191257,0
50.6137,-53.472,-0.197809,0
50.7,-53.4935,-0.20443,0
50.7869,-53.5131,-0.211115,0
50.8744,-53.5307,-0.217863,0
50.9624,-53.5463,-0.22467,0
51.0509,-53.56,-0.231535,0
51.1397,-53.5716,-0.238449,0
51.2291,-53.5812,-0.245422,0
51.3187,-53.5888,-0.252433,0
51.4087,-53.5944,-0.259489,0
51.4988,-53.5979,-0.266594,0
51.5892,-53.5993,-0.273727,0
51.6798,-53.5986,-0.28089,0
51.7705,-53.5959,-0.288083,0
51.8612,-53.591,-0.295304,0
51.952,-53.584,-0.302541,0
52.0427,-53.5749,-0.309806,0
52.1333,-53.5637,-0.317067,0
52.2238,-53.5504,-0.324357,0
52.3141,-53.5349,-0.331638,0
52.4042,-53.5173,-0.338928,0
52.4932,-53.4954,-0.346916,0
52.5816,-53.4706,-0.355143,0
52.6678,-53.4398,-0.36464,0
52.7532,-53.4068,-0.374157,0
52.8378,-53.3719,-0.383571,0
52.9205,-53.3328,-0.393683,0
53.0008,-53.289,-0.404631,0
53.0798,-53.2433,-0.415505,0
53.1577,-53.1958,-0.42632,0
53.2341,-53.1464,-0.437057,0
53.3092,-53.0952,-0.447712,0
53.383,-53.0423,-0.458288,0
53.4553,-52.9877,-0.468757,0
53.5261,-52.9314,-0.479133,0
53.5955,-52.8735,-0.489406,0
53.6632,-52.814,-0.499567,0
53.7294,-52.753,-0.509611,0
53.794,-52.6905,-0.519528,0
53.857,-52.6266,-0.529313,0
53.9181,-52.5612,-0.538981,0
53.9777,-52.4946,-0.548498,0
54.0356,-52.4266,-0.557883,0
54.0917,-52.3574,-0.567111,0
54.146,-52.287,-0.576193,0
54.1986,-52.2155,-0.585114,0
54.2493,-52.1429,-0.593869,0
54.2981,-52.0692,-0.602468,0
54.3452,-51.9946,-0.61089,0
54.3905,-51.919,-0.619142,0
54.4338,-51.8425,-0.627214,0
54.4751,-51.7651,-0.635114,0
54.5147,-51.687,-0.642819,0
54.5523,-51.6081,-0.650344,0
54.588,-51.5285,-0.657682,0
54.6217,-51.4483,-0.664821,0
54.6536,-51.3675,-0.671769,0
54.6834,-51.2861,-0.678512,0
54.7124,-51.2047,-0.684782,0
54.7409,-51.1233,-0.690534,0
54.7674,-51.0414,-0.696052,0
54.7922,-50.9591,-0.701344,0
54.8154,-50.8764,-0.706374,0
54.8387,-50.7939,-0.7107,0
54.8602,-50.7111,-0.714797,0
54.8799,-50.6278,-0.718669,0
54.8978,-50.5442,-0.722311,0
54.9139,-50.4603,-0.725734,0
54.9282,-50.3761,-0.728923,0
54.9408,-50.2917,-0.731877,0
54.9515,-50.2071,-0.734606,0
54.9604,-50.1223,-0.737096,0
49.2116,-52.6629,-0.0995525,0
49.2777,-52.7154,-0.103942,0
49.3449,-52.7667,-0.10841,0
49.4134,-52.8165,-0.112951,0
49.483,-52.865,-0.11758,0
49.5537,-52.912,-0.122277,0
49.6257,-52.9577,-0.127053,0
49.6986,-53.0018,-0.131891,0
49.7727,-53.0445,-0.136808,0
49.8477,-53.0857,-0.141799,0
49.9238,-53.1253,-0.146857,0
50.0009,-53.1634,-0.15197,0
50.0789,-53.1998,-0.157155,0
50.1591,-53.2306,-0.164045,0
50.2405,-53.2575,-0.171847,0
50.3212,-53.2883,-0.177453,0
50.4027,-53.3173,-0.183161,0
50.485,-53.3444,-0.188976,0
50.5681,-53.3688,-0.195187,0
50.652,-53.3911,-0.201613,0
50.7366,-53.4114,-0.208097,0
50.8216,-53.4299,-0.21465,0
50.9073,-53.4465,-0.221257,0
50.9934,-53.4611,-0.227931,0
51.0799,-53.4737,-0.234655,0
51.167,-53.4845,-0.241432,0
51.2542,-53.4932,-0.248244,0
51.3419,-53.5,-0.255114,0
51.4298,-53.5047,-0.262018,0
51.518,-53.5074,-0.268957,0
51.6062,-53.5081,-0.275929,0
51.6948,-53.5068,-0.282946,0
51.7833,-53.5034,-0.289982,0
51.8719,-53.498,-0.297028,0
51.9605,-53.4904,-0.304108,0
52.0491,-53.4809,-0.311198,0
52.1375,-53.4692,-0.318303,0
52.2258,-53.4555,-0.325412,0
52.3139,-53.4397,-0.332526,0
52.4017,-53.4218,-0.339631,0
52.4892,-53.4018,-0.346745,0
52.5762,-53.3791,-0.354064,0
52.6602,-53.3482,-0.363429,0
52.7416,-53.311,-0.37422,0
52.8219,-53.2718,-0.384968,0
52.9011,-53.2307,-0.395676,0
52.9791,-53.1876,-0.40633,0
53.056,-53.1428,-0.416916,0
53.1316,-53.0961,-0.427448,0
53.2059,-53.0476,-0.437907,0
53.2789,-52.9974,-0.448278,0
53.3505,-52.9455,-0.458561,0
53.4208,-52.8919,-0.468762,0
53.4895,-52.8367,-0.478859,0
53.5569,-52.78,-0.488859,0
53.6227,-52.7217,-0.498752,0
53.687,-52.6619,-0.508517,0
53.7496,-52.6007,-0.518176,0
53.8107,-52.5381,-0.527697,0
53.8702,-52.4742,-0.537092,0
53.928,-52.409,-0.546354,0
53.9841,-52.3425,-0.555485,0
54.0385,-52.2748,-0.564455,0
54.0912,-52.2059,-0.573283,0
54.1422,-52.136,-0.581965,0
54.1913,-52.0649,-0.59048,0
54.2388,-51.9929,-0.598835,0
54.2844,-51.9199,-0.607023,0
54.3281,-51.846,-0.615051,0
54.3701,-51.7712,-0.622897,0
54.4102,-51.6956,-0.630568,0
54.4484,-51.6192,-0.638068,0
54.4848,-51.5421,-0.645373,0
54.5193,-51.4644,-0.652502,0
54.5521,-51.386,-0.659396,0
54.5848,-51.308,-0.665617,0
54.6157,-51.2293,-0.671618,0
54.6449,-51.1502,-0.677409,0
54.6723,-51.0705,-0.68298,0
54.698,-50.9903,-0.688327,0
54.7218,-50.9097,-0.693469,0
54.7452,-50.8292,-0.698039,0
54.7677,-50.7485,-0.702209,0
54.7883,-50.6673,-0.706178,0
54.8072,-50.5858,-0.709914,0
54.8243,-50.504,-0.71342,0
54.8397,-50.4218,-0.716716,0
54.8532,-50.3394,-0.719787,0
54.8651,-50.2567,-0.722624,0
54.8751,-50.1739,-0.725231,0
54.8834,-50.0909,-0.727614,0
49.203,-52.6559,-0.0989812,0
49.2688,-52.7086,-0.103356,0
49.3359,-52.76,-0.107814,0
49.4042,-52.81,-0.11235,0
49.4737,-52.8587,-0.116965,0
49.5444,-52.9059,-0.121657,0
49.6161,-52.9517,-0.126423,0
49.689,-52.9961,-0.131252,0
49.7628,-53.039,-0.136164,0
49.8378,-53.0803,-0.141135,0
49.9137,-53.1202,-0.146179,0
49.9907,-53.1584,-0.151296,0
50.0686,-53.1951,-0.156462,0
50.1484,-53.2272,-0.162922,0
50.2299,-53.2533,-0.171125,0
50.3105,-53.2844,-0.176701,0
50.3919,-53.3136,-0.182394,0
50.4741,-53.3409,-0.188205,0
50.5571,-53.3658,-0.194347,0
50.641,-53.3883,-0.200754,0
50.7253,-53.4089,-0.207238,0
50.8104,-53.4276,-0.213781,0
50.8959,-53.4444,-0.220387,0
50.982,-53.4593,-0.227043,0
51.0684,-53.4722,-0.233762,0
51.1554,-53.4832,-0.240529,0
51.2427,-53.4922,-0.247345,0
51.3303,-53.4992,-0.254206,0
51.4182,-53.5042,-0.2611,0
51.5063,-53.5072,-0.268044,0
51.5947,-53.5081,-0.275016,0
51.6831,-53.5071,-0.282018,0
51.7716,-53.5039,-0.28905,0
51.8602,-53.4988,-0.296095,0
51.9488,-53.4915,-0.303176,0
52.0374,-53.4823,-0.310256,0
52.1259,-53.4709,-0.31736,0
52.2141,-53.4574,-0.324474,0
52.3023,-53.4419,-0.331584,0
52.3901,-53.4243,-0.338693,0
52.4777,-53.4046,-0.345812,0
52.5648,-53.3825,-0.353005,0
52.6494,-53.353,-0.361999,0
52.7309,-53.316,-0.372795,0
52.8113,-53.2771,-0.383556,0
52.8907,-53.2362,-0.39426,0
52.9689,-53.1934,-0.404924,0
53.0459,-53.1488,-0.415534,0
53.1216,-53.1023,-0.426061,0
53.1962,-53.0541,-0.43653,0
53.2694,-53.0041,-0.446911,0
53.3412,-52.9524,-0.457219,0
53.4116,-52.8991,-0.467419,0
53.4805,-52.8441,-0.477531,0
53.548,-52.7875,-0.487546,0
53.6141,-52.7295,-0.497438,0
53.6785,-52.6699,-0.507233,0
53.7414,-52.6089,-0.516901,0
53.8027,-52.5465,-0.526447,0
53.8624,-52.4827,-0.535866,0
53.9204,-52.4176,-0.545143,0
53.9768,-52.3513,-0.554279,0
54.0315,-52.2838,-0.563278,0
54.0843,-52.2151,-0.572131,0
54.1355,-52.1453,-0.580827,0
54.185,-52.0744,-0.589372,0
54.2326,-52.0025,-0.597746,0
54.2784,-51.9296,-0.605959,0
54.3224,-51.8558,-0.613996,0
54.3646,-51.7811,-0.621872,0
54.405,-51.7056,-0.629567,0
54.4434,-51.6294,-0.637082,0
54.4801,-51.5524,-0.644421,0
54.5148,-51.4747,-0.651569,0
54.5477,-51.3964,-0.658537,0
54.5805,-51.3183,-0.664806,0
54.6117,-51.2398,-0.670832,0
54.6411,-51.1606,-0.676657,0
54.6688,-51.081,-0.682258,0
54.6947,-51.0009,-0.687638,0
54.7188,-50.9204,-0.692795,0
54.7422,-50.8398,-0.697468,0
54.7648,-50.7592,-0.701677,0
54.7857,-50.6781,-0.705671,0
54.8048,-50.5966,-0.709426,0
54.8222,-50.5148,-0.71297,0
54.8377,-50.4327,-0.716296,0
54.8516,-50.3503,-0.719387,0
54.8636,-50.2677,-0.722258,0
54.8739,-50.1849,-0.724894,0
54.8824,-50.1019,-0.727311,0
49.1944,-52.6488,-0.0984148,0
49.2601,-52.7017,-0.102775,0
49.327,-52.7533,-0.107223,0
49.3952,-52.8035,-0.111745,0
49.4645,-52.8523,-0.116349,0
49.535,-52.8998,-0.121032,0
49.6066,-52.9458,-0.125783,0
49.6793,-52.9903,-0.130612,0
49.753,-53.0334,-0.13551,0
49.8278,-53.075,-0.140475,0
49.9037,-53.115,-0.14551,0
49.9805,-53.1535,-0.150617,0
50.0582,-53.1904,-0.155778,0
50.1376,-53.2237,-0.161799,0
50.2194,-53.2492,-0.170334,0
50.2998,-53.2804,-0.175959,0
50.3811,-53.3098,-0.181642,0
50.4632,-53.3374,-0.187429,0
50.5461,-53.3627,-0.193508,0
50.6298,-53.3854,-0.199909,0
50.7142,-53.4062,-0.206374,0
50.7991,-53.4252,-0.212917,0
50.8847,-53.4423,-0.219509,0
50.9706,-53.4574,-0.226164,0
51.0571,-53.4706,-0.232868,0
51.144,-53.4818,-0.239631,0
51.2312,-53.4911,-0.246442,0
51.3187,-53.4984,-0.253298,0
51.4066,-53.5036,-0.260192,0
51.4947,-53.5069,-0.267121,0
51.583,-53.5081,-0.274089,0
51.6714,-53.5073,-0.281091,0
51.7599,-53.5045,-0.288112,0
51.8485,-53.4996,-0.295163,0
51.9371,-53.4926,-0.302238,0
52.0257,-53.4836,-0.309328,0
52.1141,-53.4725,-0.316428,0
52.2025,-53.4593,-0.323532,0
52.2906,-53.444,-0.330646,0
52.3786,-53.4267,-0.337756,0
52.4662,-53.4073,-0.34487,0
52.5534,-53.3858,-0.351974,0
52.6383,-53.3571,-0.360763,0
52.7202,-53.321,-0.371374,0
52.8008,-53.2823,-0.382136,0
52.8802,-53.2417,-0.392858,0
52.9587,-53.1992,-0.403522,0
53.0358,-53.1548,-0.414133,0
53.1118,-53.1086,-0.424679,0
53.1864,-53.0606,-0.435153,0
53.2598,-53.0108,-0.445549,0
53.3318,-52.9593,-0.455856,0
53.4023,-52.9062,-0.466076,0
53.4715,-52.8514,-0.476208,0
53.5392,-52.7951,-0.486227,0
53.6055,-52.7372,-0.496144,0
53.6701,-52.6778,-0.505949,0
53.7332,-52.617,-0.515632,0
53.7948,-52.5548,-0.525192,0
53.8547,-52.4912,-0.534626,0
53.9129,-52.4263,-0.543923,0
53.9695,-52.3601,-0.553088,0
54.0243,-52.2927,-0.562106,0
54.0775,-52.2242,-0.570973,0
54.1289,-52.1545,-0.579684,0
54.1785,-52.0838,-0.588254,0
54.2264,-52.012,-0.596647,0
54.2724,-51.9393,-0.604885,0
54.3167,-51.8656,-0.612951,0
54.3591,-51.791,-0.620842,0
54.3997,-51.7156,-0.628566,0
54.4384,-51.6395,-0.6361,0
54.4753,-51.5626,-0.643464,0
54.5104,-51.485,-0.650636,0
54.5435,-51.4067,-0.657624,0
54.5763,-51.3286,-0.663996,0
54.6077,-51.2501,-0.670055,0
54.6373,-51.1711,-0.6759,0
54.6652,-51.0916,-0.681525,0
54.6913,-51.0115,-0.68694,0
54.7157,-50.9311,-0.692136,0
54.7391,-50.8504,-0.696901,0
54.762,-50.7698,-0.701135,0
54.783,-50.6888,-0.705148,0
54.8024,-50.6074,-0.708947,0
54.82,-50.5256,-0.712516,0
54.8358,-50.4435,-0.715871,0
54.8498,-50.3612,-0.718991,0
54.8621,-50.2786,-0.721887,0
54.8726,-50.1958,-0.724557,0
54.8813,-50.1128,-0.727004,0
49.2561,-52.6003,-0.102502,0
49.3208,-52.6516,-0.106808,0
49.3868,-52.7016,-0.111188,0
49.4538,-52.7503,-0.115641,0
49.522,-52.7977,-0.120168,0
49.5914,-52.8436,-0.124777,0
49.6618,-52.8882,-0.12945,0
49.7333,-52.9313,-0.134196,0
49.8058,-52.9729,-0.139015,0
49.8793,-53.0131,-0.143893,0
49.9538,-53.0517,-0.148845,0
50.0293,-53.0888,-0.153849,0
50.1057,-53.1244,-0.158928,0
50.1849,-53.1518,-0.166735,0
50.2651,-53.1763,-0.175104,0
50.3444,-53.2042,-0.181408,0
50.424,-53.2324,-0.186994,0
50.5045,-53.2587,-0.192687,0
50.5855,-53.2831,-0.198473,0
50.6673,-53.3057,-0.204382,0
50.7498,-53.3264,-0.210373,0
50.833,-53.3451,-0.216471,0
50.9166,-53.3615,-0.222809,0
51.0008,-53.3756,-0.229323,0
51.0854,-53.3879,-0.2359,0
51.1704,-53.3982,-0.242516,0
51.2558,-53.4066,-0.249191,0
51.3414,-53.4131,-0.255895,0
51.4273,-53.4176,-0.262648,0
51.5134,-53.4201,-0.269426,0
51.5997,-53.4207,-0.276247,0
51.6862,-53.4192,-0.283097,0
51.7727,-53.4158,-0.289968,0
51.8592,-53.4103,-0.296857,0
51.9458,-53.4028,-0.303766,0
52.0322,-53.3933,-0.31069,0
52.1186,-53.3818,-0.317634,0
52.2048,-53.3683,-0.324577,0
52.2908,-53.3527,-0.331525,0
52.3763,-53.3342,-0.338747,0
52.4614,-53.3137,-0.346003,0
52.5461,-53.2911,-0.353273,0
52.628,-53.2606,-0.362526,0
52.7067,-53.2225,-0.373698,0
52.7848,-53.1839,-0.384367,0
52.8622,-53.1439,-0.394816,0
52.9384,-53.1021,-0.405207,0
53.0134,-53.0584,-0.415549,0
53.0872,-53.013,-0.425812,0
53.1598,-52.9658,-0.436022,0
53.2312,-52.917,-0.446144,0
53.3011,-52.8665,-0.456188,0
53.3697,-52.8143,-0.466139,0
53.4369,-52.7606,-0.476003,0
53.5027,-52.7054,-0.485759,0
53.567,-52.6486,-0.495417,0
53.6298,-52.5905,-0.504953,0
53.6912,-52.5309,-0.514382,0
53.7509,-52.4699,-0.523693,0
53.8091,-52.4076,-0.532878,0
53.8656,-52.3441,-0.541921,0
53.9205,-52.2793,-0.550837,0
53.9737,-52.2133,-0.559601,0
54.0253,-52.1462,-0.568234,0
54.0752,-52.078,-0.576716,0
54.1233,-52.0088,-0.585041,0
54.1698,-51.9386,-0.593215,0
54.2144,-51.8674,-0.601222,0
54.2573,-51.7954,-0.609069,0
54.2984,-51.7224,-0.616745,0
54.3377,-51.6487,-0.624255,0
54.3752,-51.5742,-0.631584,0
54.4121,-51.4997,-0.638381,0
54.4476,-51.4246,-0.644885,0
54.4814,-51.3489,-0.651183,0
54.5136,-51.2726,-0.657272,0
54.544,-51.1958,-0.663156,0
54.5726,-51.1184,-0.668835,0
54.5995,-51.0404,-0.674294,0
54.6247,-50.9621,-0.679548,0
54.6481,-50.8833,-0.684582,0
54.6718,-50.8047,-0.688893,0
54.6937,-50.7257,-0.693,0
54.7141,-50.6463,-0.696877,0
54.7325,-50.5666,-0.700539,0
54.7493,-50.4865,-0.703981,0
54.7644,-50.4061,-0.707209,0
54.7777,-50.3255,-0.710212,0
54.7894,-50.2446,-0.71299,0
54.7992,-50.1635,-0.715558,0
54.8073,-50.0823,-0.717897,0
49.2476,-52.5934,-0.101945,0
49.3122,-52.6449,-0.106232,0
49.378,-52.6951,-0.110607,0
49.4449,-52.744,-0.115046,0
49.513,-52.7915,-0.119572,0
49.5822,-52.8376,-0.124162,0
49.6524,-52.8824,-0.12883,0
49.7237,-52.9257,-0.133566,0
49.7962,-52.9675,-0.138371,0
49.8695,-53.0079,-0.143249,0
49.9439,-53.0467,-0.148185,0
50.0193,-53.084,-0.15319,0
50.0955,-53.1198,-0.158263,0
50.1744,-53.1485,-0.165641,0
50.2545,-53.1732,-0.174001,0
50.3339,-53.2004,-0.18068,0
50.4134,-53.2288,-0.186247,0
50.4937,-53.2553,-0.191926,0
50.5748,-53.28,-0.197712,0
50.6565,-53.3028,-0.203596,0
50.7389,-53.3237,-0.209577,0
50.822,-53.3427,-0.215661,0
50.9055,-53.3595,-0.22195,0
50.9897,-53.3739,-0.228459,0
51.0742,-53.3864,-0.235026,0
51.1591,-53.397,-0.241642,0
51.2445,-53.4056,-0.248303,0
51.3301,-53.4123,-0.255012,0
51.416,-53.4171,-0.26175,0
51.5021,-53.4199,-0.268532,0
51.5884,-53.4207,-0.275344,0
51.6748,-53.4195,-0.282189,0
51.7613,-53.4163,-0.28905,0
51.8477,-53.4111,-0.295949,0
51.9343,-53.4039,-0.302858,0
52.0208,-53.3947,-0.309787,0
52.1072,-53.3834,-0.316716,0
52.1934,-53.3702,-0.323664,0
52.2795,-53.3548,-0.330607,0
52.3651,-53.3368,-0.337795,0
52.4502,-53.3165,-0.345041,0
52.5349,-53.2942,-0.352311,0
52.6176,-53.2655,-0.361052,0
52.6963,-53.2277,-0.372223,0
52.7745,-53.189,-0.382985,0
52.852,-53.1493,-0.393434,0
52.9284,-53.1077,-0.40384,0
53.0036,-53.0643,-0.414186,0
53.0776,-53.0191,-0.42446,0
53.1503,-52.9722,-0.434675,0
53.2218,-52.9235,-0.444806,0
53.2919,-52.8732,-0.454865,0
53.3608,-52.8213,-0.464831,0
53.4281,-52.7678,-0.474704,0
53.4941,-52.7128,-0.484474,0
53.5586,-52.6562,-0.494142,0
53.6216,-52.5982,-0.503708,0
53.6831,-52.5388,-0.513146,0
53.743,-52.478,-0.522472,0
53.8014,-52.4159,-0.531662,0
53.8582,-52.3525,-0.540734,0
53.9134,-52.2879,-0.54967,0
53.9668,-52.2221,-0.558454,0
54.0186,-52.1551,-0.567106,0
54.0687,-52.0871,-0.575602,0
54.117,-52.018,-0.583952,0
54.1637,-51.9479,-0.592145,0
54.2086,-51.8769,-0.600173,0
54.2517,-51.8049,-0.608049,0
54.2931,-51.7321,-0.615749,0
54.3326,-51.6585,-0.623273,0
54.3704,-51.5841,-0.630632,0
54.4073,-51.5095,-0.637511,0
54.443,-51.4346,-0.64404,0
54.477,-51.359,-0.650368,0
54.5095,-51.2827,-0.656486,0
54.54,-51.2059,-0.662394,0
54.5689,-51.1286,-0.668093,0
54.596,-51.0508,-0.673586,0
54.6215,-50.9725,-0.678864,0
54.6452,-50.8937,-0.683932,0
54.6688,-50.8151,-0.688337,0
54.6909,-50.7362,-0.692463,0
54.7114,-50.6568,-0.696374,0
54.7302,-50.5771,-0.70007,0
54.7472,-50.4971,-0.703542,0
54.7625,-50.4167,-0.706794,0
54.7761,-50.3361,-0.709831,0
54.7879,-50.2553,-0.712643,0
54.798,-50.1743,-0.715231,0
54.8064,-50.0931,-0.717599,0
49.2392,-52.5865,-0.101388,0
49.3036,-52.6382,-0.105671,0
49.3693,-52.6885,-0.110026,0
49.436,-52.7376,-0.11446,0
49.5039,-52.7853,-0.118967,0
49.573,-52.8316,-0.123552,0
49.6431,-52.8765,-0.12821,0
49.7143,-52.92,-0.132936,0
49.7865,-52.9621,-0.137736,0
49.8598,-53.0026,-0.142599,0
49.9341,-53.0417,-0.147531,0
50.0093,-53.0792,-0.152531,0
50.0855,-53.1151,-0.157585,0
50.1639,-53.1451,-0.164543,0
50.2438,-53.17,-0.172892,0
50.3235,-53.1965,-0.179958,0
50.4029,-53.2251,-0.18551,0
50.4831,-53.2519,-0.191169,0
50.5641,-53.2769,-0.196935,0
50.6457,-53.2999,-0.202814,0
50.728,-53.3211,-0.208776,0
50.811,-53.3403,-0.21485,0
50.8945,-53.3574,-0.221091,0
50.9785,-53.3721,-0.227599,0
51.063,-53.3848,-0.234157,0
51.148,-53.3957,-0.240763,0
51.2332,-53.4046,-0.247424,0
51.3188,-53.4116,-0.254118,0
51.4046,-53.4166,-0.260856,0
51.4907,-53.4196,-0.267634,0
51.577,-53.4207,-0.27444,0
51.6634,-53.4198,-0.281286,0
51.7498,-53.4169,-0.288151,0
51.8364,-53.4119,-0.295041,0
51.923,-53.405,-0.301945,0
52.0095,-53.396,-0.308869,0
52.0959,-53.385,-0.315807,0
52.1821,-53.372,-0.322746,0
52.2681,-53.357,-0.329689,0
52.3537,-53.3393,-0.336843,0
52.4391,-53.3193,-0.344094,0
52.5238,-53.2972,-0.351354,0
52.6071,-53.2703,-0.359562,0
52.686,-53.2328,-0.370749,0
52.7643,-53.1941,-0.381603,0
52.8419,-53.1546,-0.392062,0
52.9184,-53.1133,-0.402463,0
52.9937,-53.0701,-0.412819,0
