36.9506,-13.5085,0.494446,0
36.928,-13.3687,0.495423,0
36.902,-13.2294,0.496331,0
36.8727,-13.0908,0.497191,0
36.8399,-12.9527,0.497972,0
36.8037,-12.8154,0.498695,0
36.7644,-12.679,0.499368,0
32.8375,-20.0886,0.43053,0
32.9659,-20.0425,0.431605,0
33.0931,-19.9934,0.43265,0
33.2192,-19.9413,0.433685,0
33.3438,-19.8862,0.434691,0
33.4672,-19.8281,0.435677,0
33.589,-19.7671,0.436634,0
33.7093,-19.7032,0.437571,0
33.828,-19.6365,0.438499,0
33.945,-19.567,0.439388,0
34.0602,-19.4947,0.440247,0
34.1737,-19.4198,0.441097,0
34.2852,-19.3422,0.441898,0
34.3948,-19.262,0.442689,0
34.5025,-19.1792,0.44345,0
34.6082,-19.0939,0.444183,0
34.7117,-19.0061,0.444876,0
34.813,-18.916,0.44556,0
34.9121,-18.8235,0.446204,0
35.0097,-18.7294,0.447054,0
35.1061,-18.6343,0.448275,0
35.2002,-18.537,0.449476,0
35.2921,-18.4375,0.450667,0
35.3826,-18.3366,0.452122,0
35.4707,-18.2337,0.453558,0
35.5563,-18.1287,0.454974,0
35.6395,-18.0217,0.456361,0
35.7202,-17.9128,0.457728,0
35.7982,-17.8019,0.459066,0
35.8736,-17.6892,0.460384,0
35.9465,-17.5748,0.461663,0
36.0165,-17.4586,0.462913,0
36.0837,-17.3408,0.464134,0
36.1483,-17.2215,0.465325,0
36.21,-17.1006,0.466497,0
36.2687,-16.9783,0.46762,0
36.3247,-16.8546,0.468714,0
36.3777,-16.7296,0.469788,0
36.4277,-16.6033,0.470823,0
36.4748,-16.4759,0.47182,0
36.5187,-16.3474,0.472777,0
36.5608,-16.2182,0.473958,0
36.6005,-16.0882,0.475286,0
36.6371,-15.9573,0.476575,0
36.6706,-15.8254,0.477835,0
36.701,-15.6928,0.479056,0
36.7284,-15.5594,0.480247,0
36.7525,-15.4254,0.4814,0
36.7734,-15.2908,0.482523,0
36.7913,-15.1556,0.483597,0
36.8059,-15.02,0.484642,0
36.8173,-14.8841,0.485638,0
36.8253,-14.7479,0.486566,0
36.8285,-14.6114,0.487044,0
36.8283,-14.4749,0.487464,0
36.8249,-14.3385,0.487855,0
36.8181,-14.2021,0.488177,0
36.8081,-14.066,0.488441,0
36.7949,-13.9301,0.488655,0
36.7792,-13.7945,0.489027,0
36.7632,-13.6589,0.490062,0
36.7441,-13.5235,0.491038,0
36.7216,-13.3886,0.491966,0
36.6958,-13.2542,0.492835,0
36.6668,-13.1204,0.493646,0
36.6346,-12.9872,0.494398,0
36.5991,-12.8548,0.495101,0
36.5604,-12.7232,0.495736,0
29.984,-20.3747,0.41805,0
30.1213,-20.3917,0.418206,0
30.2589,-20.4052,0.418343,0
30.3965,-20.4173,0.418861,0
30.5338,-20.4301,0.420286,0
30.6715,-20.4395,0.421683,0
30.8093,-20.4455,0.42305,0
30.9473,-20.4481,0.424388,0
31.0852,-20.4472,0.425677,0
31.223,-20.4407,0.426448,0
31.3605,-20.4293,0.426849,0
31.4975,-20.4146,0.427239,0
31.634,-20.3967,0.427601,0
31.7699,-20.3755,0.427972,0
31.9052,-20.3511,0.428323,0
32.0398,-20.3235,0.428665,0
32.1734,-20.2927,0.428988,0
32.3063,-20.2587,0.4293,0
32.4383,-20.2216,0.429603,0
32.5691,-20.1815,0.429886,0
32.6988,-20.1382,0.430159,0
32.8274,-20.092,0.430443,0
32.9559,-20.0462,0.431517,0
33.0834,-19.9973,0.432571,0
33.2094,-19.9454,0.433607,0
33.3342,-19.8905,0.434612,0
33.4577,-19.8327,0.435599,0
33.5795,-19.7719,0.436566,0
33.6999,-19.7083,0.437503,0
33.8187,-19.6418,0.438431,0
33.9359,-19.5725,0.43931,0
34.0513,-19.5005,0.440189,0
34.1649,-19.4257,0.441019,0
34.2766,-19.3483,0.441839,0
34.3864,-19.2683,0.44263,0
34.4942,-19.1857,0.443392,0
34.6,-19.1006,0.444124,0
34.7037,-19.0131,0.444837,0
34.8052,-18.9231,0.445511,0
34.9045,-18.8308,0.446155,0
35.002,-18.7367,0.446966,0
35.0986,-18.6418,0.448177,0
35.193,-18.5446,0.449388,0
35.2851,-18.4453,0.450579,0
35.3756,-18.3446,0.452005,0
35.4639,-18.2418,0.453441,0
35.5498,-18.137,0.454866,0
35.6331,-18.0301,0.456253,0
35.714,-17.9213,0.45762,0
35.7923,-17.8106,0.458958,0
35.8679,-17.6981,0.460277,0
35.9409,-17.5837,0.461556,0
36.0112,-17.4677,0.462816,0
36.0786,-17.3501,0.464046,0
36.1434,-17.2308,0.465237,0
36.2053,-17.11,0.466409,0
36.2643,-16.9878,0.467542,0
36.3205,-16.8642,0.468636,0
36.3737,-16.7393,0.46971,0
36.4239,-16.6132,0.470745,0
36.4712,-16.4859,0.471741,0
36.5155,-16.3575,0.472708,0
36.5576,-16.2283,0.473861,0
36.5975,-16.0984,0.475179,0
36.6344,-15.9675,0.476468,0
36.6681,-15.8357,0.477737,0
36.6987,-15.7032,0.478968,0
36.7263,-15.5698,0.480159,0
36.7508,-15.4358,0.481312,0
36.772,-15.3013,0.482435,0
36.7901,-15.1662,0.483519,0
36.8049,-15.0306,0.484564,0
36.8166,-14.8947,0.48557,0
36.825,-14.7585,0.486517,0
36.8284,-14.622,0.487005,0
36.8284,-14.4855,0.487445,0
36.8252,-14.3491,0.487825,0
36.8187,-14.2127,0.488148,0
36.8091,-14.0766,0.488431,0
36.796,-13.9407,0.488646,0
36.7802,-13.8051,0.488939,0
36.7646,-13.6694,0.489974,0
36.7456,-13.534,0.49097,0
36.7234,-13.3991,0.491888,0
36.6979,-13.2646,0.492767,0
36.6692,-13.1308,0.493587,0
36.6373,-12.9975,0.494339,0
36.602,-12.8651,0.495042,0
36.5636,-12.7334,0.495687,0
29.9734,-20.3732,0.41803,0
30.1106,-20.3905,0.418196,0
30.2482,-20.4043,0.418323,0
30.3858,-20.4162,0.418753,0
30.5231,-20.4292,0.420179,0
30.6608,-20.4389,0.421575,0
30.7986,-20.4452,0.422943,0
30.9365,-20.448,0.42428,0
31.0745,-20.4474,0.425579,0
31.2123,-20.4415,0.426419,0
31.3498,-20.4303,0.42682,0
31.4868,-20.4159,0.4272,0
31.6234,-20.3982,0.427581,0
31.7594,-20.3773,0.427943,0
31.8947,-20.3531,0.428294,0
32.0293,-20.3257,0.428636,0
32.1631,-20.2952,0.428958,0
32.2961,-20.2615,0.429271,0
32.428,-20.2246,0.429573,0
32.559,-20.1847,0.429866,0
32.6887,-20.1417,0.43014,0
32.8174,-20.0957,0.430404,0
32.946,-20.0499,0.431439,0
33.0734,-20.0013,0.432493,0
33.1997,-19.9496,0.433529,0
33.3245,-19.8949,0.434544,0
33.448,-19.8373,0.435521,0
33.5701,-19.7768,0.436497,0
33.6907,-19.7133,0.437445,0
33.8095,-19.6471,0.438362,0
33.9268,-19.578,0.439251,0
34.0424,-19.5062,0.44012,0
34.1561,-19.4317,0.44096,0
34.268,-19.3544,0.441771,0
34.378,-19.2746,0.442571,0
34.4859,-19.1922,0.443323,0
34.5919,-19.1073,0.444066,0
34.6957,-19.02,0.444779,0
34.7973,-18.9302,0.445452,0
34.8969,-18.838,0.446116,0
34.9945,-18.744,0.446868,0
35.0912,-18.6493,0.448089,0
35.1857,-18.5523,0.44929,0
35.278,-18.4531,0.450482,0
35.3686,-18.3525,0.451888,0
35.4571,-18.2499,0.453333,0
35.5431,-18.1452,0.454759,0
35.6267,-18.0385,0.456155,0
35.7077,-17.9299,0.457523,0
35.7863,-17.8193,0.458861,0
35.8621,-17.7069,0.460179,0
35.9353,-17.5927,0.461458,0
36.0058,-17.4768,0.462718,0
36.0735,-17.3593,0.463948,0
36.1384,-17.2401,0.46515,0
36.2005,-17.1195,0.466312,0
36.2598,-16.9974,0.467445,0
36.3162,-16.8739,0.468548,0
36.3697,-16.7491,0.469622,0
36.4202,-16.6231,0.470657,0
36.4677,-16.4958,0.471663,0
36.5122,-16.3675,0.47263,0
36.5544,-16.2384,0.473753,0
36.5945,-16.1085,0.475081,0
36.6316,-15.9777,0.47638,0
36.6655,-15.846,0.47764,0
36.6965,-15.7135,0.47887,0
36.7243,-15.5802,0.480071,0
36.749,-15.4463,0.481224,0
36.7705,-15.3117,0.482347,0
36.7887,-15.1767,0.483441,0
36.8038,-15.0412,0.484476,0
36.8159,-14.9053,0.485491,0
36.8245,-14.7691,0.486458,0
36.8282,-14.6327,0.486976,0
36.8286,-14.4962,0.487405,0
36.8256,-14.3597,0.487796,0
36.8194,-14.2233,0.488118,0
36.8099,-14.0872,0.488411,0
36.7972,-13.9513,0.488636,0
36.7814,-13.8157,0.488861,0
36.7659,-13.68,0.489905,0
36.7473,-13.5446,0.490892,0
36.7253,-13.4096,0.491829,0
36.7,-13.2751,0.492698,0
36.6716,-13.1412,0.493519,0
36.6398,-13.0079,0.49428,0
36.6048,-12.8754,0.494984,0
36.5666,-12.7437,0.495638,0
32.7774,-19.9074,0.429671,0
32.9012,-19.8617,0.430413,0
33.0243,-19.8142,0.431439,0
33.1462,-19.7639,0.432425,0
33.2668,-19.7106,0.433411,0
33.3861,-19.6545,0.434359,0
33.5039,-19.5956,0.435286,0
33.6202,-19.5339,0.436204,0
33.735,-19.4694,0.437083,0
33.8483,-19.4023,0.437952,0
33.9598,-19.3325,0.438782,0
34.0695,-19.26,0.439593,0
34.1774,-19.185,0.440384,0
34.2835,-19.1075,0.441146,0
34.3877,-19.0275,0.441878,0
34.4899,-18.9451,0.442591,0
34.5901,-18.8603,0.443275,0
34.6881,-18.7732,0.443929,0
34.7855,-18.6854,0.445081,0
34.8809,-18.5955,0.446263,0
34.9743,-18.5035,0.447435,0
35.0655,-18.4093,0.448597,0
35.1544,-18.3129,0.449749,0
35.241,-18.2146,0.450882,0
35.3257,-18.1145,0.452103,0
35.4086,-18.0129,0.45347,0
35.489,-17.9094,0.454818,0
35.567,-17.8039,0.456136,0
35.6425,-17.6967,0.457435,0
35.7155,-17.5876,0.458704,0
35.7859,-17.4769,0.459935,0
35.8537,-17.3645,0.461146,0
35.9187,-17.2505,0.462327,0
35.9812,-17.135,0.463489,0
36.0408,-17.018,0.464612,0
36.0977,-16.8997,0.465716,0
36.1517,-16.78,0.466771,0
36.203,-16.659,0.467806,0
36.2513,-16.5369,0.468802,0
36.2968,-16.4137,0.469769,0
36.3395,-16.2893,0.470706,0
36.3807,-16.1645,0.472015,0
36.4191,-16.0387,0.473304,0
36.4544,-15.912,0.474554,0
36.4867,-15.7844,0.475775,0
36.5162,-15.6561,0.476946,0
36.5424,-15.527,0.478109,0
36.5658,-15.3973,0.479212,0
36.5859,-15.2671,0.480286,0
36.6031,-15.1363,0.481341,0
36.6173,-15.0051,0.482347,0
36.627,-14.8735,0.483021,0
36.6331,-14.7417,0.483538,0
36.6362,-14.6098,0.484007,0
36.636,-14.4778,0.484417,0
36.6327,-14.3458,0.484778,0
36.6262,-14.214,0.485101,0
36.6165,-14.0824,0.485364,0
36.6037,-13.951,0.48557,0
36.5877,-13.82,0.485755,0
36.5723,-13.6888,0.486751,0
36.5536,-13.558,0.487698,0
36.5317,-13.4276,0.488597,0
36.5067,-13.2976,0.489437,0
36.4786,-13.1683,0.490208,0
36.4473,-13.0396,0.490941,0
36.4129,-12.9116,0.491614,0
36.3755,-12.7844,0.49222,0
30.019,-20.1753,0.416155,0
30.1516,-20.1919,0.416312,0
30.2845,-20.2052,0.416439,0
30.4172,-20.2179,0.417171,0
30.5498,-20.2303,0.418548,0
30.6829,-20.2394,0.419896,0
30.816,-20.2452,0.421214,0
30.9492,-20.2477,0.422493,0
31.0826,-20.2469,0.423753,0
31.2157,-20.2428,0.424984,0
31.3487,-20.2354,0.426165,0
31.4812,-20.2215,0.426575,0
31.6133,-20.2043,0.426937,0
31.7448,-20.1839,0.427288,0
31.8755,-20.1605,0.42762,0
32.0057,-20.1339,0.427952,0
32.1351,-20.1043,0.428265,0
32.2637,-20.0716,0.428568,0
32.3913,-20.0359,0.428861,0
32.5178,-19.9972,0.429134,0
32.6434,-19.9556,0.429407,0
32.7677,-19.911,0.429661,0
32.8916,-19.8652,0.430335,0
33.0148,-19.818,0.431351,0
33.1367,-19.7679,0.432357,0
33.2574,-19.7149,0.433323,0
33.3768,-19.659,0.43428,0
33.4948,-19.6003,0.435228,0
33.6112,-19.5388,0.436126,0
33.7262,-19.4745,0.437025,0
33.8395,-19.4076,0.437884,0
33.9511,-19.338,0.438714,0
34.061,-19.2658,0.439534,0
34.1691,-19.191,0.440325,0
34.2754,-19.1137,0.441087,0
34.3797,-19.0338,0.44182,0
34.482,-18.9516,0.442532,0
34.5823,-18.867,0.443216,0
34.6805,-18.78,0.44387,0
34.778,-18.6923,0.444974,0
34.8737,-18.6026,0.446175,0
34.9671,-18.5107,0.447347,0
35.0584,-18.4167,0.448519,0
35.1476,-18.3205,0.449661,0
35.2344,-18.2223,0.450794,0
35.3191,-18.1223,0.451995,0
35.4023,-18.0209,0.453372,0
35.4828,-17.9175,0.45472,0
35.561,-17.8122,0.456029,0
35.6367,-17.7051,0.457337,0
35.7099,-17.5962,0.458607,0
35.7805,-17.4856,0.459847,0
35.8484,-17.3733,0.461068,0
35.9137,-17.2594,0.462239,0
35.9764,-17.144,0.463402,0
36.0363,-17.0272,0.464525,0
36.0934,-16.9089,0.465628,0
36.1476,-16.7894,0.466693,0
36.1991,-16.6685,0.467728,0
36.2477,-16.5464,0.468714,0
36.2934,-16.4233,0.469691,0
36.3362,-16.299,0.470618,0
36.3776,-16.1743,0.471927,0
36.4162,-16.0486,0.473206,0
36.4518,-15.9219,0.474456,0
36.4843,-15.7944,0.475677,0
36.514,-15.6661,0.476859,0
36.5405,-15.5371,0.478021,0
36.564,-15.4074,0.479134,0
36.5845,-15.2772,0.480208,0
36.602,-15.1465,0.481253,0
36.6162,-15.0153,0.482269,0
36.6265,-14.8838,0.482982,0
36.6329,-14.752,0.483509,0
36.636,-14.62,0.483978,0
36.6361,-14.488,0.484388,0
36.633,-14.3561,0.484759,0
36.6267,-14.2242,0.485071,0
36.6173,-14.0926,0.485335,0
36.6048,-13.9612,0.48556,0
36.5891,-13.8302,0.485726,0
36.5736,-13.699,0.486673,0
36.5552,-13.5681,0.48763,0
36.5336,-13.4377,0.488529,0
36.5088,-13.3077,0.489378,0
36.4809,-13.1783,0.49015,0
36.4498,-13.0496,0.490882,0
36.4157,-12.9215,0.491556,0
36.3784,-12.7943,0.492171,0
30.0087,-20.1739,0.416136,0
30.1413,-20.1908,0.416302,0
30.2741,-20.2043,0.416429,0
30.407,-20.2168,0.417054,0
30.5395,-20.2295,0.418431,0
30.6726,-20.2388,0.419788,0
30.8056,-20.2449,0.421107,0
30.9389,-20.2476,0.422396,0
31.0722,-20.2471,0.423655,0
31.2054,-20.2432,0.424886,0
31.3384,-20.2361,0.426077,0
31.4709,-20.2227,0.426546,0
31.603,-20.2057,0.426907,0
31.7345,-20.1856,0.427259,0
31.8654,-20.1624,0.427601,0
31.9957,-20.1361,0.427923,0
32.1251,-20.1067,0.428245,0
32.2537,-20.0743,0.428558,0
32.3813,-20.0388,0.428841,0
32.508,-20.0003,0.429124,0
32.6336,-19.9589,0.429388,0
32.7582,-19.9145,0.429632,0
32.882,-19.8688,0.430257,0
33.0052,-19.8218,0.431282,0
33.1273,-19.7719,0.432279,0
33.2481,-19.7191,0.433255,0
33.3676,-19.6634,0.434212,0
33.4857,-19.6049,0.43515,0
33.6023,-19.5437,0.436058,0
33.7173,-19.4796,0.436946,0
33.8307,-19.4129,0.437816,0
33.9425,-19.3435,0.438655,0
34.0525,-19.2715,0.439466,0
34.1608,-19.1969,0.440267,0
34.2671,-19.1198,0.441029,0
34.3716,-19.0401,0.441771,0
34.4741,-18.9581,0.442474,0
34.5746,-18.8737,0.443167,0
34.673,-18.7869,0.443831,0
34.7705,-18.6992,0.444886,0
34.8662,-18.6097,0.446077,0
34.96,-18.5179,0.447259,0
35.0514,-18.4241,0.448421,0
35.1407,-18.3281,0.449573,0
35.2277,-18.23,0.450706,0
35.3126,-18.1302,0.451888,0
35.3959,-18.0288,0.453255,0
35.4766,-17.9256,0.454612,0
35.5551,-17.8204,0.455931,0
35.6309,-17.7135,0.45723,0
35.7043,-17.6047,0.458509,0
35.7751,-17.4942,0.459749,0
35.8432,-17.3821,0.46097,0
35.9087,-17.2683,0.462152,0
35.9716,-17.1531,0.463314,0
36.0316,-17.0363,0.464437,0
36.089,-16.9182,0.46554,0
36.1434,-16.7987,0.466605,0
36.1952,-16.6779,0.46764,0
36.2441,-16.556,0.468646,0
36.2899,-16.4329,0.469622,0
36.333,-16.3088,0.47056,0
36.3745,-16.184,0.47182,0
36.4132,-16.0584,0.473099,0
36.4491,-15.9318,0.474359,0
36.482,-15.8043,0.475579,0
36.5118,-15.6761,0.476771,0
36.5385,-15.5471,0.477923,0
36.5623,-15.4175,0.479036,0
36.583,-15.2874,0.48013,0
36.6007,-15.1567,0.481175,0
36.6153,-15.0256,0.482191,0
36.6258,-14.894,0.482943,0
36.6324,-14.7622,0.48346,0
36.6359,-14.6303,0.483939,0
36.6362,-14.4983,0.484359,0
36.6334,-14.3664,0.48473,0
36.6273,-14.2345,0.485052,0
36.6182,-14.1028,0.485325,0
36.6059,-13.9714,0.48554,0
36.5904,-13.8404,0.485716,0
36.5748,-13.7092,0.486605,0
36.5567,-13.5783,0.487562,0
36.5354,-13.4478,0.48846,0
36.5109,-13.3178,0.48931,0
36.4832,-13.1884,0.490101,0
36.4524,-13.0596,0.490823,0
36.4185,-12.9315,0.491517,0
36.3815,-12.8042,0.492132,0
32.7211,-19.7374,0.428958,0
32.8405,-19.6918,0.4293,0
32.9596,-19.6459,0.430286,0
33.0777,-19.5972,0.431253,0
33.1944,-19.5457,0.4322,0
33.3098,-19.4915,0.433128,0
33.4239,-19.4345,0.434027,0
33.5366,-19.3748,0.434905,0
33.6477,-19.3125,0.435765,0
33.7574,-19.2475,0.436595,0
33.8654,-19.18,0.437405,0
33.9716,-19.11,0.438196,0
34.0762,-19.0374,0.438958,0
34.1789,-18.9625,0.4397,0
34.2798,-18.885,0.440404,0
34.3788,-18.8053,0.441087,0
34.4766,-18.7241,0.442015,0
34.573,-18.6415,0.443196,0
34.6674,-18.5566,0.444359,0
34.7599,-18.4696,0.445511,0
34.8504,-18.3804,0.446644,0
34.9387,-18.2891,0.447777,0
35.0248,-18.1958,0.4489,0
35.1088,-18.1005,0.449993,0
35.1905,-18.0033,0.451068,0
35.2699,-17.9042,0.452142,0
35.3476,-17.8037,0.453362,0
35.423,-17.7016,0.454642,0
35.4962,-17.5977,0.455902,0
35.5668,-17.4921,0.457122,0
35.6349,-17.3848,0.458323,0
35.7005,-17.276,0.459495,0
35.7635,-17.1656,0.460638,0
35.8239,-17.0537,0.461761,0
35.8817,-16.9404,0.462855,0
35.9367,-16.8258,0.463909,0
35.9891,-16.7099,0.464935,0
36.0387,-16.5927,0.465931,0
36.0855,-16.4745,0.466898,0
36.1296,-16.3551,0.467835,0
36.1715,-16.235,0.468939,0
36.2114,-16.114,0.470198,0
36.2484,-15.9922,0.471439,0
36.2826,-15.8694,0.47265,0
36.3138,-15.7459,0.473821,0
36.3423,-15.6215,0.474964,0
36.3677,-15.4965,0.476077,0
36.3902,-15.3709,0.477161,0
36.4098,-15.2448,0.478206,0
36.4257,-15.1181,0.479066,0
36.4377,-14.9909,0.479661,0
36.4468,-14.8635,0.480208,0
36.4527,-14.7359,0.480706,0
36.4556,-14.6082,0.481155,0
36.4554,-14.4805,0.481556,0
36.4521,-14.3528,0.481907,0
36.4459,-14.2252,0.48221,0
36.4366,-14.0977,0.482464,0
36.4241,-13.9706,0.482679,0
36.4086,-13.8438,0.482825,0
36.393,-13.7169,0.483655,0
36.3748,-13.5903,0.484564,0
36.3535,-13.4641,0.485433,0
36.3292,-13.3384,0.486234,0
36.302,-13.2133,0.486995,0
36.2716,-13.0887,0.487689,0
36.2382,-12.9649,0.488343,0
36.2019,-12.8419,0.488939,0
30.0519,-19.9886,0.414378,0
30.1801,-20.0048,0.414534,0
30.3084,-20.0178,0.414661,0
30.4366,-20.0311,0.415579,0
30.5649,-20.0431,0.416907,0
30.6936,-20.0519,0.418216,0
30.8223,-20.0575,0.419495,0
30.9512,-20.0599,0.420736,0
31.08,-20.0591,0.421946,0
31.2087,-20.0552,0.423128,0
31.3374,-20.0481,0.42429,0
31.4658,-20.0378,0.425404,0
31.5938,-20.0236,0.426292,0
31.7211,-20.004,0.426644,0
31.8477,-19.9815,0.426966,0
31.9738,-19.9559,0.427288,0
32.0991,-19.9274,0.427601,0
32.2235,-19.8958,0.427884,0
32.3471,-19.8614,0.428167,0
32.4697,-19.8241,0.428441,0
32.5912,-19.7839,0.428695,0
32.7118,-19.7409,0.428948,0
32.8312,-19.6953,0.429222,0
32.9504,-19.6496,0.430208,0
33.0685,-19.6011,0.431175,0
33.1854,-19.5499,0.432132,0
33.3009,-19.4958,0.43306,0
33.4151,-19.439,0.433948,0
33.5279,-19.3796,0.434837,0
33.6391,-19.3174,0.435687,0
33.7489,-19.2527,0.436536,0
33.857,-19.1854,0.437347,0
33.9634,-19.1155,0.438138,0
34.0681,-19.0432,0.4389,0
34.171,-18.9684,0.439632,0
34.272,-18.8912,0.440355,0
34.3712,-18.8116,0.441038,0
34.4689,-18.7305,0.441927,0
34.5655,-18.648,0.443099,0
34.6602,-18.5633,0.444261,0
34.7529,-18.4764,0.445423,0
34.8434,-18.3874,0.446566,0
34.932,-18.2963,0.447689,0
35.0183,-18.2031,0.448802,0
35.1024,-18.108,0.449905,0
35.1843,-18.0109,0.450989,0
35.2638,-17.912,0.452064,0
35.3416,-17.8116,0.453255,0
35.4173,-17.7096,0.454544,0
35.4905,-17.6058,0.455794,0
35.5614,-17.5004,0.457025,0
35.6297,-17.3932,0.458236,0
35.6955,-17.2845,0.459407,0
35.7588,-17.1742,0.46055,0
35.8193,-17.0625,0.461673,0
35.8773,-16.9493,0.462767,0
35.9326,-16.8348,0.463821,0
35.9852,-16.719,0.464857,0
36.035,-16.6019,0.465853,0
36.082,-16.4837,0.466829,0
36.1262,-16.3644,0.467757,0
36.1683,-16.2443,0.468831,0
36.2084,-16.1235,0.470101,0
36.2456,-16.0017,0.471341,0
36.28,-15.879,0.472552,0
36.3115,-15.7555,0.473734,0
36.3402,-15.6312,0.474876,0
36.3658,-15.5063,0.475999,0
36.3886,-15.3807,0.477083,0
36.4084,-15.2546,0.478128,0
36.4246,-15.1279,0.479017,0
36.4369,-15.0008,0.479612,0
36.4462,-14.8735,0.480169,0
36.4523,-14.7459,0.480667,0
36.4555,-14.6182,0.481116,0
36.4555,-14.4904,0.481527,0
36.4525,-14.3627,0.481878,0
36.4465,-14.2351,0.482191,0
36.4373,-14.1076,0.482445,0
36.4252,-13.9805,0.482659,0
36.41,-13.8536,0.482816,0
36.3942,-13.7268,0.483587,0
36.3762,-13.6002,0.484495,0
36.3553,-13.4739,0.485364,0
36.3312,-13.3482,0.486175,0
36.3042,-13.223,0.486937,0
36.2741,-13.0984,0.48765,0
36.2409,-12.9746,0.488294,0
36.2048,-12.8514,0.48889,0
30.042,-19.9872,0.414368,0
30.17,-20.0037,0.414534,0
30.2984,-20.0169,0.414652,0
30.4267,-20.03,0.415472,0
30.555,-20.0422,0.4168,0
30.6836,-20.0513,0.418109,0
30.8123,-20.0571,0.419388,0
30.9411,-20.0598,0.420638,0
31.07,-20.0593,0.421849,0
31.1987,-20.0556,0.42304,0
31.3274,-20.0488,0.424202,0
31.4559,-20.0387,0.425316,0
31.5838,-20.025,0.426273,0
31.7112,-20.0056,0.426614,0
31.838,-19.9833,0.426946,0
31.964,-19.958,0.427269,0
32.0893,-19.9297,0.427571,0
32.2139,-19.8984,0.427874,0
32.3374,-19.8642,0.428148,0
32.4602,-19.8271,0.428421,0
32.5818,-19.7872,0.428675,0
32.7024,-19.7444,0.428929,0
32.8219,-19.6987,0.429163,0
32.9412,-19.6533,0.43014,0
33.0594,-19.605,0.431107,0
33.1763,-19.5539,0.432054,0
33.292,-19.5001,0.432982,0
33.4062,-19.4435,0.43388,0
33.5191,-19.3843,0.434769,0
33.6305,-19.3224,0.435628,0
33.7404,-19.2578,0.436468,0
33.8486,-19.1907,0.437279,0
33.9552,-19.121,0.438079,0
34.06,-19.0489,0.438841,0
34.1631,-18.9743,0.439583,0
34.2643,-18.8973,0.440296,0
34.3635,-18.8179,0.440989,0
34.4614,-18.7368,0.441839,0
34.5581,-18.6545,0.443011,0
34.6529,-18.57,0.444173,0
34.7457,-18.4833,0.445335,0
34.8365,-18.3944,0.446478,0
34.9251,-18.3034,0.447601,0
35.0116,-18.2105,0.448724,0
35.0959,-18.1155,0.449818,0
35.178,-18.0186,0.450902,0
35.2577,-17.9198,0.451976,0
35.3356,-17.8195,0.453167,0
35.4114,-17.7176,0.454437,0
35.4849,-17.614,0.455696,0
35.5559,-17.5086,0.456927,0
35.6245,-17.4016,0.458128,0
35.6905,-17.293,0.45931,0
35.7539,-17.1828,0.460462,0
35.8148,-17.0712,0.461585,0
35.8729,-16.9581,0.462679,0
35.9284,-16.8437,0.463734,0
35.9812,-16.728,0.464769,0
36.0312,-16.6111,0.465775,0
36.0784,-16.493,0.466751,0
36.1229,-16.3737,0.467689,0
36.165,-16.2537,0.468734,0
36.2054,-16.1329,0.470003,0
36.2428,-16.0112,0.471243,0
36.2774,-15.8886,0.472464,0
36.3092,-15.7652,0.473646,0
36.338,-15.6409,0.474798,0
36.3639,-15.516,0.475911,0
36.387,-15.3905,0.476995,0
36.4069,-15.2645,0.47805,0
36.4236,-15.1379,0.478978,0
36.4361,-15.0108,0.479573,0
36.4455,-14.8834,0.48012,0
36.452,-14.7558,0.480628,0
36.4554,-14.6281,0.481087,0
36.4556,-14.5004,0.481497,0
36.4529,-14.3726,0.481849,0
36.4471,-14.245,0.482171,0
36.4382,-14.1176,0.482435,0
36.4262,-13.9904,0.48264,0
36.4113,-13.8635,0.482806,0
36.3955,-13.7367,0.483509,0
36.3778,-13.61,0.484427,0
36.357,-13.4838,0.485296,0
36.3332,-13.358,0.486126,0
36.3064,-13.2327,0.486878,0
36.2766,-13.1081,0.487591,0
36.2436,-12.9842,0.488245,0
36.2077,-12.861,0.488841,0
32.668,-19.5774,0.428294,0
32.7837,-19.5329,0.428509,0
32.8988,-19.4876,0.429212,0
33.0131,-19.4404,0.43015,0
33.1262,-19.3906,0.431058,0
33.2381,-19.3381,0.431956,0
33.3488,-19.2829,0.432825,0
33.4579,-19.2252,0.433685,0
33.5656,-19.1648,0.434515,0
33.6718,-19.1019,0.435325,0
33.7765,-19.0366,0.436116,0
33.8795,-18.9687,0.436878,0
33.9809,-18.8985,0.437611,0
34.0805,-18.8259,0.438333,0
34.1785,-18.7512,0.439095,0
34.2757,-18.6755,0.440267,0
34.371,-18.5976,0.441409,0
34.4645,-18.5175,0.442562,0
34.5562,-18.4352,0.443685,0
34.6459,-18.3508,0.444808,0
34.7335,-18.2644,0.445911,0
34.8192,-18.1759,0.447005,0
34.9027,-18.0854,0.448079,0
34.9841,-17.993,0.449154,0
35.0634,-17.8988,0.450198,0
35.1404,-17.8027,0.451234,0
35.2151,-17.7048,0.452249,0
35.2876,-17.6053,0.453245,0
35.3583,-17.5045,0.454446,0
35.4267,-17.4021,0.455638,0
35.4928,-17.2981,0.45679,0
35.5563,-17.1926,0.457933,0
35.6173,-17.0856,0.459046,0
35.6759,-16.9771,0.46013,0
35.7319,-16.8673,0.461185,0
35.7852,-16.7562,0.46221,0
35.8359,-16.6439,0.463206,0
35.884,-16.5303,0.464173,0
35.9294,-16.4157,0.465111,0
35.972,-16.3,0.466009,0
36.0133,-16.1837,0.467259,0
36.0519,-16.0665,0.468489,0
36.0877,-15.9483,0.469681,0
36.1208,-15.8293,0.470853,0
36.151,-15.7096,0.471995,0
36.1784,-15.589,0.473109,0
36.2031,-15.4679,0.474183,0
36.2246,-15.3461,0.475169,0
36.2422,-15.2236,0.475833,0
36.2568,-15.1007,0.476448,0
36.2684,-14.9775,0.477025,0
36.2771,-14.8541,0.477552,0
36.2829,-14.7305,0.47804,0
36.2856,-14.6068,0.47847,0
36.2855,-14.483,0.478861,0
36.2823,-14.3593,0.479202,0
36.2762,-14.2357,0.479505,0
36.2672,-14.1122,0.479739,0
36.2552,-13.989,0.479945,0
36.2402,-13.8661,0.480091,0
36.2243,-13.7434,0.480736,0
36.2066,-13.6208,0.481624,0
36.1859,-13.4985,0.482454,0
36.1623,-13.3768,0.483236,0
36.1358,-13.2556,0.483968,0
36.1063,-13.135,0.484642,0
36.0739,-13.0151,0.485277,0
36.0386,-12.896,0.485843,0
30.0827,-19.8133,0.412718,0
30.2066,-19.8292,0.412874,0
30.3309,-19.8419,0.412991,0
30.4549,-19.8557,0.414095,0
30.5791,-19.8672,0.415384,0
30.7036,-19.8757,0.416634,0
30.8282,-19.8812,0.417874,0
30.9529,-19.8835,0.419075,0
31.0777,-19.8828,0.420257,0
31.2023,-19.879,0.4214,0
31.3268,-19.8722,0.422513,0
31.4511,-19.8622,0.423597,0
31.5751,-19.8493,0.424652,0
31.6986,-19.8332,0.425667,0
31.8216,-19.813,0.426351,0
31.9437,-19.7883,0.426673,0
32.0652,-19.7608,0.426956,0
32.1858,-19.7304,0.427249,0
32.3055,-19.6972,0.427523,0
32.4243,-19.6612,0.427786,0
32.5423,-19.6224,0.42804,0
32.659,-19.5808,0.428275,0
32.7748,-19.5365,0.428499,0
32.8898,-19.4911,0.429134,0
33.0043,-19.4442,0.430071,0
33.1175,-19.3946,0.430989,0
33.2295,-19.3423,0.431888,0
33.3402,-19.2873,0.432767,0
33.4495,-19.2297,0.433616,0
33.5573,-19.1696,0.434446,0
33.6637,-19.1069,0.435267,0
33.7684,-19.0417,0.436058,0
33.8716,-18.9741,0.43682,0
33.973,-18.904,0.437562,0
34.0728,-18.8316,0.438275,0
34.1709,-18.757,0.439017,0
34.2681,-18.6815,0.440179,0
34.3637,-18.6038,0.441331,0
34.4573,-18.5238,0.442474,0
34.5491,-18.4417,0.443597,0
34.639,-18.3575,0.44472,0
34.7268,-18.2712,0.445833,0
34.8126,-18.1828,0.446917,0
34.8963,-18.0925,0.447991,0
34.9779,-18.0003,0.449066,0
35.0573,-17.9062,0.45012,0
35.1345,-17.8102,0.451146,0
35.2094,-17.7125,0.452171,0
35.282,-17.6131,0.453177,0
35.3529,-17.5124,0.454349,0
35.4216,-17.4101,0.45554,0
35.4877,-17.3063,0.456702,0
35.5515,-17.2008,0.457845,0
35.6127,-17.094,0.458958,0
35.6714,-16.9856,0.460042,0
35.7276,-16.8759,0.461107,0
35.7812,-16.7649,0.462132,0
35.8321,-16.6526,0.463138,0
35.8803,-16.5392,0.464105,0
35.9259,-16.4246,0.465042,0
35.9688,-16.309,0.465941,0
36.0102,-16.1928,0.467161,0
36.049,-16.0756,0.468382,0
36.085,-15.9576,0.469583,0
36.1183,-15.8386,0.470765,0
36.1488,-15.7189,0.471907,0
36.1764,-15.5984,0.473021,0
36.2013,-15.4773,0.474095,0
36.223,-15.3556,0.475111,0
36.2409,-15.2331,0.475784,0
36.2557,-15.1103,0.476409,0
36.2677,-14.9871,0.476986,0
36.2766,-14.8637,0.477513,0
36.2825,-14.7401,0.478001,0
36.2855,-14.6164,0.478441,0
36.2855,-14.4926,0.478831,0
36.2827,-14.3689,0.479173,0
36.2769,-14.2453,0.479476,0
36.268,-14.1218,0.47973,0
36.2562,-13.9986,0.479925,0
36.2414,-13.8757,0.480081,0
36.2255,-13.7529,0.480667,0
36.208,-13.6303,0.481556,0
36.1877,-13.508,0.482386,0
36.1643,-13.3862,0.483177,0
36.138,-13.265,0.483909,0
36.1087,-13.1443,0.484593,0
36.0765,-13.0244,0.485228,0
36.0415,-12.9052,0.485794,0
30.073,-19.812,0.412708,0
30.197,-19.828,0.412864,0
30.3212,-19.841,0.412982,0
30.4453,-19.8546,0.413987,0
30.5695,-19.8664,0.415277,0
30.6939,-19.8752,0.416546,0
30.8185,-19.8808,0.417777,0
30.9432,-19.8835,0.418987,0
31.0679,-19.883,0.420159,0
31.1926,-19.8794,0.421312,0
31.3171,-19.8728,0.422435,0
31.4414,-19.8631,0.423519,0
31.5654,-19.8504,0.424573,0
31.6891,-19.8346,0.425599,0
31.8121,-19.8148,0.426331,0
31.9342,-19.7904,0.426644,0
32.0557,-19.763,0.426937,0
32.1764,-19.7329,0.42723,0
32.2962,-19.6999,0.427503,0
32.4151,-19.6641,0.427767,0
32.533,-19.6255,0.428011,0
32.65,-19.5841,0.428255,0
32.7658,-19.5401,0.42848,0
32.8809,-19.4947,0.429056,0
32.9954,-19.448,0.430003,0
33.1087,-19.3985,0.430921,0
33.2208,-19.3464,0.43182,0
33.3316,-19.2917,0.432698,0
33.4409,-19.2343,0.433548,0
33.549,-19.1744,0.434388,0
33.6554,-19.1119,0.435198,0
33.7603,-19.0469,0.435989,0
33.8636,-18.9794,0.436751,0
33.9652,-18.9096,0.437493,0
34.0651,-18.8373,0.438216,0
34.1632,-18.7628,0.438919,0
34.2607,-18.6875,0.440091,0
34.3563,-18.6099,0.441243,0
34.4502,-18.5301,0.442386,0
34.542,-18.4482,0.443509,0
34.632,-18.3641,0.444632,0
34.7201,-18.2779,0.445745,0
34.806,-18.1898,0.446839,0
34.8898,-18.0996,0.447913,0
34.9716,-18.0075,0.448987,0
35.0512,-17.9135,0.450032,0
35.1285,-17.8177,0.451068,0
35.2037,-17.7202,0.452093,0
35.2764,-17.6209,0.453099,0
35.3474,-17.5203,0.454251,0
35.4162,-17.4182,0.455452,0
35.4826,-17.3144,0.456614,0
35.5466,-17.2091,0.457767,0
35.608,-17.1023,0.45887,0
35.667,-16.9941,0.459964,0
35.7233,-16.8845,0.461019,0
35.7771,-16.7736,0.462044,0
35.8282,-16.6614,0.46305,0
35.8767,-16.5481,0.464027,0
35.9225,-16.4336,0.464964,0
35.9655,-16.318,0.465872,0
36.007,-16.2019,0.467064,0
36.046,-16.0848,0.468284,0
36.0823,-15.9668,0.469505,0
36.1158,-15.8479,0.470667,0
36.1465,-15.7282,0.47182,0
36.1744,-15.6078,0.472933,0
36.1994,-15.4868,0.474017,0
36.2216,-15.3651,0.475062,0
36.2396,-15.2427,0.475736,0
36.2547,-15.1199,0.476361,0
36.2668,-14.9967,0.476946,0
36.2759,-14.8733,0.477474,0
36.2822,-14.7497,0.477962,0
36.2855,-14.626,0.478402,0
36.2857,-14.5023,0.478802,0
36.283,-14.3785,0.479154,0
36.2773,-14.2549,0.479446,0
36.2687,-14.1314,0.47971,0
36.2573,-14.0082,0.479905,0
36.2427,-13.8853,0.480071,0
36.2268,-13.7625,0.480599,0
36.2096,-13.6398,0.481487,0
36.1894,-13.5175,0.482327,0
36.1662,-13.3957,0.483118,0
36.1401,-13.2744,0.483851,0
36.111,-13.1537,0.484544,0
36.0791,-13.0337,0.485179,0
36.0442,-12.9144,0.485755,0
32.618,-19.4265,0.42765,0
32.7302,-19.3835,0.427864,0
32.8414,-19.3383,0.428187,0
32.9523,-19.2926,0.429105,0
33.062,-19.2443,0.429984,0
33.1705,-19.1934,0.430862,0
33.2778,-19.14,0.431712,0
33.3837,-19.084,0.432542,0
33.4881,-19.0255,0.433333,0
33.5912,-18.9646,0.434124,0
33.6927,-18.9013,0.434896,0
33.7927,-18.8355,0.435628,0
33.891,-18.7675,0.436351,0
33.9886,-18.6985,0.437474,0
34.0846,-18.6272,0.438607,0
34.1788,-18.5538,0.43973,0
34.2715,-18.4782,0.440843,0
34.3622,-18.4004,0.441956,0
34.4511,-18.3206,0.44305,0
34.5381,-18.2387,0.444134,0
34.6233,-18.1548,0.445218,0
34.7063,-18.0689,0.446273,0
34.7874,-17.9811,0.447318,0
34.8664,-17.8915,0.448353,0
34.9433,-17.8,0.449368,0
35.018,-17.7068,0.450364,0
35.0905,-17.6118,0.451361,0
35.1609,-17.5152,0.452337,0
35.2289,-17.417,0.453294,0
35.2946,-17.3172,0.454232,0
35.3586,-17.2163,0.455364,0
35.4202,-17.1139,0.456458,0
35.4795,-17.0101,0.457542,0
35.5363,-16.9049,0.458587,0
35.5905,-16.7983,0.459612,0
35.6423,-16.6906,0.460609,0
35.6914,-16.5816,0.461575,0
35.738,-16.4714,0.462513,0
35.782,-16.3602,0.463421,0
35.8239,-16.2481,0.464446,0
35.864,-16.1353,0.465667,0
35.9013,-16.0216,0.466859,0
35.936,-15.907,0.46803,0
35.9681,-15.7915,0.469163,0
35.9973,-15.6753,0.470267,0
36.0239,-15.5583,0.471321,0
36.0465,-15.4405,0.472054,0
36.0663,-15.3222,0.472737,0
36.0833,-15.2035,0.473392,0
36.0975,-15.0844,0.473987,0
36.1087,-14.9649,0.474534,0
36.1172,-14.8452,0.475052,0
36.1227,-14.7254,0.475521,0
36.1255,-14.6054,0.475941,0
36.1253,-14.4854,0.476321,0
36.1222,-14.3654,0.476654,0
36.1163,-14.2455,0.476937,0
36.1075,-14.1258,0.477181,0
36.0958,-14.0064,0.477366,0
36.0813,-13.8873,0.477523,0
36.0654,-13.7683,0.477991,0
36.048,-13.6494,0.478841,0
36.028,-13.531,0.479652,0
36.0049,-13.4129,0.480404,0
35.9791,-13.2954,0.481107,0
35.9505,-13.1786,0.481771,0
35.919,-13.0623,0.482366,0
35.8848,-12.9469,0.482923,0
30.1116,-19.6484,0.411155,0
30.2318,-19.6639,0.411302,0
30.3521,-19.6764,0.411419,0
30.4721,-19.6905,0.412689,0
30.5925,-19.7017,0.413939,0
30.713,-19.71,0.415159,0
30.8337,-19.7152,0.416351,0
30.9545,-19.7175,0.417513,0
31.0754,-19.7169,0.418655,0
31.1962,-19.7132,0.419769,0
31.3168,-19.7066,0.420853,0
31.4372,-19.697,0.421898,0
31.5573,-19.6845,0.422923,0
31.677,-19.669,0.423909,0
31.7964,-19.6506,0.424866,0
31.9152,-19.6292,0.425794,0
32.033,-19.6037,0.426361,0
32.1501,-19.5744,0.426644,0
32.2663,-19.5423,0.426907,0
32.3816,-19.5075,0.427161,0
32.4959,-19.47,0.427405,0
32.6092,-19.4298,0.42763,0
32.7215,-19.3869,0.427855,0
32.8327,-19.3417,0.428118,0
32.9437,-19.2962,0.429027,0
33.0536,-19.2481,0.429915,0
33.1621,-19.1975,0.430794,0
33.2695,-19.1442,0.431644,0
33.3755,-19.0884,0.432464,0
33.4801,-19.0302,0.433275,0
33.5832,-18.9694,0.434056,0
33.6848,-18.9063,0.434827,0
33.785,-18.8407,0.43557,0
33.8834,-18.7729,0.436292,0
33.981,-18.7039,0.437386,0
34.0772,-18.6329,0.438519,0
34.1716,-18.5596,0.439642,0
34.2643,-18.4842,0.440765,0
34.3552,-18.4066,0.441868,0
34.4442,-18.3269,0.442972,0
34.5315,-18.2451,0.444056,0
34.6167,-18.1614,0.44513,0
34.6999,-18.0757,0.446185,0
34.7812,-17.988,0.447239,0
34.8604,-17.8985,0.448275,0
34.9374,-17.8072,0.44929,0
35.0123,-17.7141,0.450296,0
35.085,-17.6193,0.451282,0
35.1555,-17.5228,0.452259,0
35.2236,-17.4247,0.453216,0
35.2895,-17.325,0.454163,0
35.3537,-17.2242,0.455277,0
35.4155,-17.122,0.45638,0
35.4749,-17.0182,0.457454,0
35.5319,-16.9131,0.458509,0
35.5863,-16.8067,0.459534,0
35.6383,-16.699,0.46053,0
35.6877,-16.5901,0.461507,0
35.7345,-16.48,0.462445,0
35.7787,-16.3689,0.463353,0
35.8207,-16.2569,0.464359,0
35.8609,-16.1441,0.465579,0
35.8985,-16.0305,0.466771,0
35.9334,-15.9159,0.467933,0
35.9657,-15.8005,0.469085,0
35.9952,-15.6843,0.470179,0
36.022,-15.5675,0.471263,0
36.0448,-15.4497,0.471995,0
36.0649,-15.3315,0.472689,0
36.0821,-15.2128,0.473343,0
36.0965,-15.0937,0.473939,0
36.108,-14.9742,0.474495,0
36.1166,-14.8546,0.475013,0
36.1224,-14.7347,0.475491,0
36.1254,-14.6147,0.475921,0
36.1254,-14.4947,0.476292,0
36.1226,-14.3747,0.476624,0
36.1169,-14.2549,0.476917,0
36.1083,-14.1352,0.477152,0
36.0969,-14.0157,0.477357,0
36.0826,-13.8965,0.477503,0
36.0666,-13.7776,0.477923,0
36.0495,-13.6587,0.478782,0
36.0296,-13.5402,0.479583,0
36.0069,-13.4221,0.480345,0
35.9813,-13.3046,0.481058,0
35.9529,-13.1876,0.481722,0
35.9216,-13.0714,0.482327,0
35.8875,-12.9558,0.482884,0
30.1023,-19.6471,0.411146,0
30.2224,-19.6628,0.411302,0
30.3427,-19.6755,0.411419,0
30.4628,-19.6895,0.412591,0
30.583,-19.701,0.413841,0
30.7036,-19.7094,0.415062,0
30.8243,-19.7149,0.416263,0
30.9452,-19.7175,0.417435,0
31.0659,-19.717,0.418577,0
31.1867,-19.7136,0.419691,0
31.3074,-19.7072,0.420765,0
31.4279,-19.6979,0.42182,0
31.548,-19.6856,0.422845,0
31.6678,-19.6703,0.423831,0
31.7871,-19.6521,0.424798,0
31.9059,-19.631,0.425726,0
32.024,-19.6059,0.426341,0
32.141,-19.5768,0.426614,0
32.2573,-19.5449,0.426888,0
32.3727,-19.5103,0.427142,0
32.487,-19.473,0.427386,0
32.6005,-19.433,0.42762,0
32.7129,-19.3904,0.427835,0
32.8241,-19.3451,0.42805,0
32.9352,-19.2999,0.428958,0
33.0451,-19.252,0.429847,0
33.1537,-19.2015,0.430726,0
33.2612,-19.1485,0.431575,0
33.3673,-19.0929,0.432405,0
33.472,-19.0348,0.433216,0
33.5752,-18.9742,0.434007,0
33.677,-18.9113,0.434779,0
33.7772,-18.8459,0.435511,0
33.8759,-18.7782,0.436234,0
33.9735,-18.7093,0.437288,0
34.0698,-18.6385,0.438441,0
34.1643,-18.5654,0.439564,0
34.2572,-18.4901,0.440677,0
34.3482,-18.4127,0.44179,0
34.4374,-18.3331,0.442884,0
34.5247,-18.2516,0.443968,0
34.6102,-18.168,0.445052,0
34.6935,-18.0824,0.446107,0
34.7749,-17.9949,0.447152,0
34.8543,-17.9056,0.448187,0
34.9315,-17.8144,0.449212,0
35.0066,-17.7214,0.450218,0
35.0794,-17.6267,0.451214,0
35.1501,-17.5304,0.452181,0
35.2184,-17.4324,0.453138,0
35.2845,-17.3328,0.454085,0
35.3488,-17.2321,0.455179,0
35.4109,-17.13,0.456292,0
35.4704,-17.0264,0.457376,0
35.5276,-16.9214,0.458431,0
35.5822,-16.815,0.459456,0
35.6343,-16.7074,0.460452,0
35.6839,-16.5986,0.461429,0
35.7309,-16.4886,0.462366,0
35.7753,-16.3776,0.463284,0
35.8174,-16.2656,0.464261,0
35.8579,-16.1529,0.465482,0
35.8957,-16.0394,0.466683,0
35.9309,-15.9249,0.467855,0
35.9633,-15.8095,0.468987,0
35.993,-15.6934,0.470101,0
36.02,-15.5766,0.471175,0
36.0432,-15.4589,0.471946,0
36.0634,-15.3407,0.47264,0
36.0809,-15.222,0.473284,0
36.0955,-15.1029,0.4739,0
36.1072,-14.9835,0.474456,0
36.1161,-14.8639,0.474974,0
36.122,-14.744,0.475452,0
36.1252,-14.6241,0.475882,0
36.1255,-14.5041,0.476273,0
36.1229,-14.3841,0.476605,0
36.1173,-14.2642,0.476898,0
36.1091,-14.1445,0.477142,0
36.0978,-14.025,0.477347,0
36.0837,-13.9058,0.477493,0
36.0677,-13.7868,0.477855,0
36.0509,-13.6679,0.478714,0
36.0312,-13.5494,0.479525,0
36.0088,-13.4313,0.480296,0
35.9834,-13.3137,0.480999,0
35.9552,-13.1967,0.481663,0
35.9241,-13.0804,0.482288,0
35.8903,-12.9648,0.482845,0
32.5708,-19.2839,0.427054,0
32.6797,-19.2423,0.427269,0
32.7875,-19.198,0.427464,0
32.8948,-19.153,0.428118,0
33.0013,-19.1061,0.428978,0
33.1067,-19.0568,0.429818,0
33.2108,-19.005,0.430648,0
33.3136,-18.9507,0.431448,0
33.415,-18.894,0.432239,0
33.5151,-18.8349,0.432991,0
33.6136,-18.7734,0.433724,0
33.7113,-18.7108,0.434798,0
33.8077,-18.6461,0.435921,0
33.9025,-18.5791,0.437034,0
33.9958,-18.51,0.438138,0
34.0873,-18.4387,0.439232,0
34.1773,-18.3652,0.440316,0
34.2654,-18.2897,0.44139,0
34.3517,-18.2122,0.442454,0
34.4362,-18.1326,0.443509,0
34.5189,-18.0512,0.444544,0
34.5996,-17.9678,0.445579,0
34.6784,-17.8825,0.446595,0
34.7551,-17.7955,0.447601,0
34.8298,-17.7066,0.448587,0
34.9023,-17.6161,0.449564,0
34.9728,-17.5239,0.450521,0
35.041,-17.43,0.451458,0
35.107,-17.3347,0.452396,0
35.1709,-17.2377,0.453304,0
35.2324,-17.1394,0.454212,0
35.2916,-17.0396,0.455081,0
35.3491,-16.9387,0.456116,0
35.4042,-16.8366,0.457132,0
35.4568,-16.7332,0.458128,0
35.507,-16.6285,0.459095,0
35.5548,-16.5227,0.460032,0
35.6,-16.4157,0.460941,0
35.6427,-16.3077,0.461829,0
35.6839,-16.1991,0.462982,0
35.7227,-16.0896,0.464173,0
35.759,-15.9791,0.465325,0
35.7927,-15.8678,0.466458,0
35.8236,-15.7557,0.467532,0
35.851,-15.6426,0.468323,0
35.8756,-15.5289,0.469066,0
35.8976,-15.4146,0.469788,0
35.9168,-15.2998,0.470452,0
35.9334,-15.1846,0.471077,0
35.947,-15.0689,0.471654,0
35.958,-14.953,0.472191,0
35.9661,-14.8369,0.472689,0
35.9716,-14.7205,0.473148,0
35.9741,-14.6041,0.473558,0
35.974,-14.4876,0.473919,0
35.971,-14.3712,0.474241,0
35.9652,-14.2549,0.474525,0
35.9567,-14.1387,0.474749,0
35.9454,-14.0228,0.474945,0
35.9313,-13.9072,0.475081,0
35.9152,-13.7918,0.475394,0
35.8984,-13.6765,0.476214,0
35.8788,-13.5616,0.476995,0
35.8564,-13.4471,0.477728,0
35.8313,-13.3331,0.478411,0
35.8034,-13.2197,0.479046,0
35.7728,-13.107,0.479642,0
35.7395,-12.9949,0.480169,0
30.1391,-19.4931,0.409681,0
30.2554,-19.5082,0.409827,0
30.372,-19.5211,0.41013,0
30.4884,-19.5348,0.411361,0
30.605,-19.5457,0.412571,0
30.722,-19.5537,0.413763,0
30.839,-19.5588,0.414915,0
30.9561,-19.561,0.416048,0
31.0733,-19.5604,0.417161,0
31.1904,-19.5569,0.418236,0
31.3074,-19.5505,0.41928,0
31.4241,-19.5412,0.420296,0
31.5406,-19.5291,0.421292,0
31.6567,-19.5141,0.422239,0
31.7724,-19.4963,0.423177,0
31.8877,-19.4756,0.424075,0
32.0023,-19.4522,0.424945,0
32.1162,-19.4259,0.425775,0
32.2293,-19.3959,0.426321,0
32.3412,-19.3623,0.426575,0
32.4522,-19.326,0.42681,0
32.5623,-19.2871,0.427034,0
32.6712,-19.2456,0.427249,0
32.7792,-19.2016,0.427454,0
32.8865,-19.1565,0.42804,0
32.9931,-19.1099,0.428909,0
33.0985,-19.0607,0.429749,0
33.2027,-19.0091,0.430579,0
33.3056,-18.955,0.43139,0
33.4072,-18.8985,0.432171,0
33.5073,-18.8396,0.432933,0
33.606,-18.7783,0.433675,0
33.7038,-18.7158,0.43472,0
33.8003,-18.6512,0.435833,0
33.8952,-18.5844,0.436946,0
33.9886,-18.5154,0.43805,0
34.0802,-18.4443,0.439144,0
34.1702,-18.371,0.440228,0
34.2585,-18.2957,0.441302,0
34.3451,-18.2183,0.442366,0
34.4298,-18.1389,0.443421,0
34.5126,-18.0576,0.444466,0
34.5934,-17.9743,0.445501,0
34.6723,-17.8892,0.446517,0
34.7491,-17.8023,0.447523,0
34.8241,-17.7136,0.448509,0
34.8968,-17.6232,0.449486,0
34.9673,-17.5311,0.450443,0
35.0358,-17.4374,0.4514,0
35.102,-17.3421,0.452327,0
35.166,-17.2453,0.453236,0
35.2277,-17.1471,0.454134,0
35.2871,-17.0474,0.455013,0
35.3447,-16.9466,0.456029,0
35.4,-16.8446,0.457054,0
35.4528,-16.7412,0.45805,0
35.5032,-16.6367,0.459017,0
35.5512,-16.5309,0.459964,0
35.5966,-16.4241,0.460872,0
35.6395,-16.3162,0.461761,0
35.6809,-16.2076,0.462894,0
35.7198,-16.0982,0.464085,0
35.7563,-15.9878,0.465237,0
35.7902,-15.8765,0.46637,0
35.8214,-15.7645,0.467474,0
35.849,-15.6514,0.468265,0
35.8738,-15.5378,0.469017,0
35.896,-15.4235,0.46973,0
35.9155,-15.3087,0.470394,0
35.9321,-15.1935,0.471029,0
35.9461,-15.0779,0.471605,0
35.9573,-14.9621,0.472161,0
35.9656,-14.8459,0.47265,0
35.9712,-14.7296,0.473118,0
35.9741,-14.6132,0.473519,0
35.9741,-14.4967,0.47389,0
35.9713,-14.3803,0.474222,0
35.9658,-14.2639,0.474495,0
35.9574,-14.1478,0.474739,0
35.9464,-14.0318,0.474925,0
35.9325,-13.9162,0.475071,0
35.9164,-13.8008,0.475325,0
35.8998,-13.6855,0.476155,0
35.8804,-13.5705,0.476946,0
35.8583,-13.456,0.477669,0
35.8334,-13.3419,0.478372,0
35.8057,-13.2285,0.479007,0
35.7753,-13.1157,0.479593,0
35.7422,-13.0036,0.48013,0
30.13,-19.4918,0.409671,0
30.2463,-19.5071,0.409818,0
30.3629,-19.5199,0.410032,0
30.4792,-19.5339,0.411263,0
30.5959,-19.545,0.412484,0
30.7128,-19.5532,0.413665,0
30.8299,-19.5585,0.414827,0
30.947,-19.561,0.41596,0
31.0641,-19.5606,0.417064,0
31.1813,-19.5573,0.418148,0
31.2983,-19.5511,0.419202,0
31.4151,-19.542,0.420228,0
31.5316,-19.5301,0.421214,0
31.6477,-19.5154,0.422181,0
31.7634,-19.4978,0.423109,0
31.8787,-19.4773,0.424007,0
31.9934,-19.4541,0.424866,0
32.1073,-19.428,0.425706,0
32.2205,-19.3985,0.426312,0
32.3325,-19.365,0.426556,0
32.4436,-19.3289,0.42679,0
32.5537,-19.2902,0.427015,0
32.6628,-19.2489,0.42723,0
32.7709,-19.2051,0.427425,0
32.8781,-19.16,0.427982,0
32.9848,-19.1136,0.428841,0
33.0904,-19.0646,0.429691,0
33.1946,-19.0132,0.430521,0
33.2977,-18.9593,0.431321,0
33.3994,-18.903,0.432112,0
33.4995,-18.8442,0.432874,0
33.5984,-18.7832,0.433616,0
33.6962,-18.7207,0.434622,0
33.7928,-18.6563,0.435745,0
33.8879,-18.5897,0.436859,0
33.9814,-18.5209,0.437962,0
34.0732,-18.4499,0.439066,0
34.1634,-18.3768,0.44014,0
34.2518,-18.3016,0.441224,0
34.3384,-18.2244,0.442288,0
34.4232,-18.1451,0.443343,0
34.5062,-18.064,0.444388,0
34.5872,-17.9809,0.445423,0
34.6662,-17.8959,0.446439,0
34.7433,-17.8091,0.447445,0
34.8183,-17.7206,0.448431,0
34.8911,-17.6303,0.449407,0
34.962,-17.5383,0.450374,0
35.0305,-17.4447,0.451312,0
35.097,-17.3496,0.452249,0
35.1611,-17.2529,0.453167,0
35.223,-17.1548,0.454056,0
35.2826,-17.0552,0.454945,0
35.3402,-16.9545,0.45596,0
35.3958,-16.8526,0.456976,0
35.4487,-16.7493,0.457972,0
35.4994,-16.6449,0.458948,0
35.5475,-16.5392,0.459886,0
35.5931,-16.4324,0.460804,0
35.6362,-16.3246,0.461693,0
35.6777,-16.2161,0.462806,0
35.7169,-16.1067,0.463987,0
35.7535,-15.9964,0.46515,0
35.7876,-15.8852,0.466292,0
35.8191,-15.7732,0.467396,0
35.8469,-15.6603,0.468206,0
35.872,-15.5466,0.468958,0
35.8944,-15.4324,0.469671,0
35.9141,-15.3177,0.470345,0
35.9309,-15.2025,0.47098,0
35.9451,-15.087,0.471575,0
35.9565,-14.9711,0.472113,0
35.9651,-14.855,0.47262,0
35.9709,-14.7387,0.473079,0
35.9739,-14.6222,0.473489,0
35.9742,-14.5058,0.473861,0
35.9716,-14.3893,0.474193,0
35.9663,-14.273,0.474476,0
35.9582,-14.1568,0.47472,0
35.9473,-14.0408,0.474915,0
35.9337,-13.9252,0.475062,0
35.9176,-13.8098,0.475257,0
35.9012,-13.6944,0.476097,0
35.882,-13.5794,0.476878,0
35.8602,-13.4649,0.47762,0
35.8354,-13.3508,0.478314,0
35.808,-13.2373,0.478958,0
35.7778,-13.1245,0.479554,0
35.7448,-13.0123,0.480091,0
32.526,-19.1489,0.426488,0
32.6319,-19.1086,0.426693,0
32.7366,-19.0657,0.426888,0
32.8405,-19.0208,0.427181,0
32.9439,-18.9754,0.428021,0
33.0462,-18.9275,0.428831,0
33.1473,-18.8772,0.429642,0
33.2473,-18.8245,0.430413,0
33.3458,-18.7695,0.431185,0
33.4436,-18.7132,0.432249,0
33.5401,-18.6547,0.433353,0
33.6352,-18.594,0.434446,0
33.7288,-18.5311,0.43554,0
33.821,-18.4661,0.436624,0
33.9116,-18.3989,0.437689,0
34.0006,-18.3296,0.438753,0
34.088,-18.2582,0.439808,0
34.1737,-18.1848,0.440853,0
34.2576,-18.1095,0.441888,0
34.3398,-18.0322,0.442904,0
34.4201,-17.953,0.443919,0
34.4984,-17.8719,0.444925,0
34.575,-17.7891,0.445911,0
34.6495,-17.7045,0.446888,0
34.7222,-17.6182,0.447845,0
34.7927,-17.5302,0.448792,0
34.8611,-17.4405,0.44973,0
34.9275,-17.3493,0.450638,0
34.9917,-17.2566,0.451546,0
35.0537,-17.1625,0.452435,0
35.1135,-17.0668,0.453304,0
35.1711,-16.9699,0.454154,0
35.2263,-16.8716,0.454993,0
35.2793,-16.772,0.455804,0
35.3303,-16.6714,0.456722,0
35.3791,-16.5697,0.457669,0
35.4255,-16.4669,0.458577,0
35.4694,-16.363,0.459456,0
35.5112,-16.2582,0.460433,0
35.5514,-16.1527,0.461614,0
35.5891,-16.0463,0.462767,0
35.6239,-15.9389,0.463792,0
35.6557,-15.8305,0.464652,0
35.6849,-15.7213,0.465443,0
35.7115,-15.6115,0.466214,0
35.7354,-15.501,0.466946,0
35.7567,-15.39,0.46763,0
35.7754,-15.2785,0.468275,0
35.7914,-15.1666,0.46889,0
35.8047,-15.0543,0.469446,0
35.8153,-14.9417,0.469974,0
35.8233,-14.8289,0.470462,0
35.8284,-14.716,0.470902,0
35.831,-14.6029,0.471292,0
35.8308,-14.4898,0.471644,0
35.8279,-14.3767,0.471966,0
35.8223,-14.2637,0.472239,0
35.8141,-14.1509,0.472454,0
35.803,-14.0383,0.47264,0
35.7894,-13.926,0.472777,0
35.7733,-13.8141,0.472943,0
35.7568,-13.7021,0.473743,0
35.7377,-13.5905,0.474495,0
35.7159,-13.4794,0.475208,0
35.6916,-13.3687,0.475863,0
35.6644,-13.2586,0.476487,0
35.6346,-13.1491,0.477054,0
35.6022,-13.0404,0.477571,0
30.1648,-19.3463,0.408294,0
30.2777,-19.3611,0.408431,0
30.3907,-19.3745,0.408919,0
30.5037,-19.3878,0.410111,0
30.6168,-19.3983,0.411282,0
30.7303,-19.4061,0.412435,0
30.8439,-19.4111,0.413558,0
30.9577,-19.4132,0.414661,0
31.0713,-19.4126,0.415736,0
31.1849,-19.4092,0.41678,0
31.2985,-19.403,0.417806,0
31.4118,-19.3941,0.418782,0
31.5248,-19.3823,0.419749,0
31.6375,-19.3678,0.420677,0
31.7498,-19.3506,0.421585,0
31.8616,-19.3305,0.422454,0
31.9728,-19.3078,0.423294,0
32.0834,-19.2824,0.424095,0
32.1934,-19.2542,0.424876,0
32.3026,-19.2234,0.425618,0
32.4108,-19.1897,0.426243,0
32.5178,-19.152,0.426468,0
32.6237,-19.1118,0.426673,0
32.7285,-19.0692,0.426878,0
32.8323,-19.0243,0.427112,0
32.9359,-18.979,0.427952,0
33.0384,-18.9313,0.428773,0
33.1396,-18.8812,0.429573,0
33.2395,-18.8287,0.430364,0
33.3382,-18.7739,0.431116,0
33.436,-18.7177,0.432171,0
33.5327,-18.6594,0.433275,0
33.6279,-18.5988,0.434368,0
33.7216,-18.5361,0.435452,0
33.8138,-18.4712,0.436527,0
33.9046,-18.4042,0.437601,0
33.9937,-18.335,0.438665,0
34.0812,-18.2638,0.43973,0
34.167,-18.1906,0.440775,0
34.2511,-18.1154,0.4418,0
34.3334,-18.0383,0.442835,0
34.4139,-17.9592,0.443841,0
34.4924,-17.8783,0.444847,0
34.5691,-17.7956,0.445833,0
34.6438,-17.7111,0.44681,0
34.7166,-17.6249,0.447767,0
34.7873,-17.5371,0.448724,0
34.8559,-17.4476,0.449652,0
34.9224,-17.3565,0.45057,0
34.9868,-17.2639,0.451478,0
35.0489,-17.1698,0.452366,0
35.109,-17.0743,0.453236,0
35.1667,-16.9775,0.454085,0
35.2221,-16.8793,0.454925,0
35.2752,-16.7798,0.455745,0
35.3264,-16.6793,0.456654,0
35.3753,-16.5777,0.457581,0
35.422,-16.475,0.458509,0
35.466,-16.3711,0.459398,0
35.508,-16.2664,0.460335,0
35.5484,-16.161,0.461517,0
35.5862,-16.0546,0.462669,0
35.6213,-15.9473,0.463724,0
35.6533,-15.8389,0.464583,0
35.6827,-15.7298,0.465384,0
35.7095,-15.6201,0.466155,0
35.7337,-15.5096,0.466888,0
35.7552,-15.3987,0.467581,0
35.7741,-15.2872,0.468236,0
35.7902,-15.1753,0.468841,0
35.8038,-15.0631,0.469417,0
35.8146,-14.9505,0.469935,0
35.8227,-14.8377,0.470423,0
35.8281,-14.7248,0.470872,0
35.8309,-14.6117,0.471263,0
35.8309,-14.4986,0.471624,0
35.8282,-14.3855,0.471937,0
35.8229,-14.2725,0.47221,0
35.8148,-14.1597,0.472445,0
35.8041,-14.0471,0.47263,0
35.7905,-13.9348,0.472767,0
35.7744,-13.8228,0.472864,0
35.7583,-13.7108,0.473675,0
35.7394,-13.5992,0.474437,0
35.7178,-13.488,0.47515,0
35.6935,-13.3773,0.475823,0
35.6666,-13.2671,0.476439,0
35.637,-13.1576,0.477015,0
35.6048,-13.0488,0.477532,0
30.156,-19.3451,0.408275,0
30.269,-19.3601,0.408421,0
30.3819,-19.3733,0.408821,0
30.4948,-19.3868,0.410013,0
30.608,-19.3976,0.411195,0
30.7215,-19.4056,0.412357,0
30.8351,-19.4108,0.41348,0
30.9487,-19.4132,0.414573,0
31.0625,-19.4128,0.415657,0
31.1761,-19.4096,0.416702,0
31.2897,-19.4036,0.417718,0
31.403,-19.3949,0.418704,0
31.516,-19.3833,0.419681,0
31.6287,-19.369,0.420609,0
31.7411,-19.352,0.421517,0
31.8529,-19.3322,0.422386,0
31.9641,-19.3097,0.423226,0
32.0748,-19.2844,0.424036,0
32.1848,-19.2565,0.424818,0
32.2941,-19.2259,0.42556,0
32.4024,-19.1925,0.426234,0
32.5095,-19.155,0.426448,0
32.6155,-19.115,0.426663,0
32.7205,-19.0726,0.426859,0
32.8243,-19.0277,0.427044,0
32.928,-18.9826,0.427894,0
33.0304,-18.9351,0.428714,0
33.1317,-18.8852,0.429505,0
33.2318,-18.8329,0.430296,0
33.3305,-18.7782,0.431058,0
33.4284,-18.7221,0.432083,0
33.5252,-18.664,0.433177,0
33.6205,-18.6036,0.43428,0
33.7144,-18.5411,0.435364,0
