64.1762,-50.4989,-1.82861,0
64.1958,-50.424,-1.8327,0
64.2138,-50.3486,-1.83657,0
64.2302,-50.2729,-1.84023,0
64.2448,-50.1969,-1.84367,0
64.2579,-50.1205,-1.84689,0
64.2692,-50.0439,-1.84989,0
64.2789,-49.9671,-1.85267,0
64.2869,-49.89,-1.85521,0
64.2933,-49.8128,-1.85754,0
64.298,-49.7355,-1.85965,0
64.3009,-49.6581,-1.86152,0
64.3023,-49.5807,-1.86317,0
64.3019,-49.5033,-1.86459,0
64.2998,-49.4258,-1.86577,0
64.2961,-49.3485,-1.86674,0
64.2906,-49.2712,-1.86746,0
64.2836,-49.194,-1.86797,0
64.2748,-49.1171,-1.86823,0
64.2635,-49.0404,-1.86846,0
64.2499,-48.9641,-1.86863,0
64.2346,-48.8882,-1.86857,0
64.2177,-48.8127,-1.86828,0
64.1991,-48.7375,-1.86778,0
64.1789,-48.6629,-1.86705,0
64.157,-48.5887,-1.86609,0
64.1336,-48.515,-1.86491,0
64.1085,-48.4419,-1.86351,0
64.0833,-48.3688,-1.86153,0
64.0573,-48.296,-1.85909,0
64.0297,-48.2237,-1.85643,0
64.0005,-48.1521,-1.85355,0
63.9697,-48.0811,-1.85046,0
63.9373,-48.0107,-1.84715,0
63.9034,-47.9411,-1.84362,0
63.8678,-47.8722,-1.83989,0
63.8308,-47.8041,-1.83595,0
63.7921,-47.7368,-1.83179,0
63.7521,-47.6704,-1.82744,0
63.7105,-47.6049,-1.82287,0
63.6673,-47.5403,-1.8181,0
63.6229,-47.4766,-1.81314,0
63.5769,-47.4139,-1.80796,0
63.5295,-47.3523,-1.80259,0
63.4829,-47.2899,-1.7963,0
63.4348,-47.2285,-1.78981,0
63.3854,-47.1681,-1.78312,0
63.3345,-47.1088,-1.77623,0
63.2822,-47.0506,-1.76914,0
63.2285,-46.9935,-1.76185,0
63.1736,-46.9375,-1.75438,0
63.1173,-46.8828,-1.74672,0
63.0597,-46.8293,-1.73888,0
63.0009,-46.777,-1.73086,0
62.9408,-46.7261,-1.72266,0
62.8794,-46.6765,-1.71428,0
62.8169,-46.6282,-1.70574,0
62.7533,-46.5813,-1.69703,0
62.6885,-46.5359,-1.68816,0
62.6226,-46.4918,-1.67913,0
62.5555,-46.4493,-1.66994,0
62.4876,-46.4083,-1.66061,0
62.418,-46.3701,-1.65154,0
63.0491,-52.4524,-1.58367,0
63.1091,-52.3975,-1.59478,0
63.1677,-52.3413,-1.60577,0
63.2248,-52.2838,-1.61663,0
63.2805,-52.225,-1.62736,0
63.3346,-52.1651,-1.63794,0
63.3873,-52.104,-1.64839,0
63.4384,-52.0418,-1.65867,0
63.4878,-51.9785,-1.66881,0
63.5357,-51.9143,-1.67878,0
63.5821,-51.849,-1.68858,0
63.6267,-51.7828,-1.69821,0
63.6698,-51.7157,-1.70767,0
63.7112,-51.6477,-1.71695,0
63.7509,-51.579,-1.72606,0
63.789,-51.5095,-1.73496,0
63.8254,-51.4392,-1.74369,0
63.8601,-51.3683,-1.75222,0
63.893,-51.2968,-1.76054,0
63.9243,-51.2246,-1.76868,0
63.9538,-51.152,-1.77661,0
63.9818,-51.0788,-1.78433,0
64.0079,-51.0051,-1.79185,0
64.0323,-50.931,-1.79915,0
64.0573,-50.8574,-1.80563,0
64.0848,-50.785,-1.81074,0
64.1107,-50.7119,-1.81566,0
64.135,-50.6383,-1.82036,0
64.1577,-50.5643,-1.82485,0
64.1787,-50.4897,-1.82912,0
64.1981,-50.4147,-1.83318,0
64.2159,-50.3393,-1.83703,0
64.2321,-50.2636,-1.84067,0
64.2466,-50.1875,-1.84407,0
64.2594,-50.1111,-1.84727,0
64.2705,-50.0344,-1.85024,0
64.28,-49.9576,-1.85299,0
64.2878,-49.8805,-1.85551,0
64.294,-49.8033,-1.85781,0
64.2984,-49.726,-1.85989,0
64.3012,-49.6486,-1.86173,0
64.3023,-49.5712,-1.86336,0
64.3016,-49.4937,-1.86474,0
64.2994,-49.4163,-1.8659,0
64.2955,-49.3389,-1.86683,0
64.2898,-49.2617,-1.86753,0
64.2826,-49.1846,-1.868,0
64.2735,-49.1076,-1.86824,0
64.262,-49.031,-1.86849,0
64.2481,-48.9548,-1.86863,0
64.2327,-48.8789,-1.86855,0
64.2155,-48.8034,-1.86823,0
64.1968,-48.7283,-1.8677,0
64.1763,-48.6537,-1.86694,0
64.1543,-48.5796,-1.86596,0
64.1306,-48.506,-1.86475,0
64.1053,-48.4329,-1.86332,0
64.0802,-48.3598,-1.86125,0
64.054,-48.2871,-1.85878,0
64.0262,-48.2149,-1.85609,0
63.9968,-48.1433,-1.85319,0
63.9658,-48.0724,-1.85007,0
63.9332,-48.0021,-1.84673,0
63.8991,-47.9326,-1.84318,0
63.8634,-47.8638,-1.83942,0
63.8261,-47.7958,-1.83544,0
63.7873,-47.7286,-1.83127,0
63.747,-47.6623,-1.82688,0
63.7052,-47.5969,-1.82229,0
63.662,-47.5324,-1.81749,0
63.6173,-47.4688,-1.8125,0
63.5712,-47.4063,-1.80731,0
63.5238,-47.3446,-1.80184,0
63.477,-47.2823,-1.79552,0
63.4288,-47.221,-1.789,0
63.3791,-47.1608,-1.78228,0
63.328,-47.1016,-1.77536,0
63.2757,-47.0435,-1.76825,0
63.2219,-46.9865,-1.76095,0
63.1667,-46.9307,-1.75345,0
63.1102,-46.8761,-1.74577,0
63.0525,-46.8228,-1.73791,0
62.9935,-46.7707,-1.72986,0
62.9332,-46.7199,-1.72164,0
62.8718,-46.6704,-1.71324,0
62.8091,-46.6223,-1.70467,0
62.7453,-46.5756,-1.69595,0
62.6804,-46.5304,-1.68706,0
62.6144,-46.4865,-1.67801,0
62.5473,-46.4442,-1.6688,0
62.4791,-46.4034,-1.65945,0
62.4093,-46.3655,-1.65043,0
63.0566,-52.4457,-1.58505,0
63.1164,-52.3907,-1.59615,0
63.1748,-52.3343,-1.60712,0
63.2318,-52.2766,-1.61796,0
63.2873,-52.2177,-1.62867,0
63.3412,-52.1576,-1.63924,0
63.3937,-52.0964,-1.64966,0
63.4445,-52.0341,-1.65992,0
63.4938,-51.9707,-1.67004,0
63.5415,-51.9063,-1.67999,0
63.5877,-51.8409,-1.68977,0
63.6322,-51.7746,-1.69939,0
63.675,-51.7074,-1.70883,0
63.7162,-51.6393,-1.71809,0
63.7556,-51.5705,-1.72716,0
63.7936,-51.5008,-1.73605,0
63.8297,-51.4305,-1.74475,0
63.8642,-51.3595,-1.75326,0
63.897,-51.2879,-1.76156,0
63.928,-51.2157,-1.76967,0
63.5707,-47.5283,-1.80571,0
63.5259,-47.4669,-1.80069,0
63.4796,-47.4064,-1.79545,0
63.434,-47.3454,-1.78933,0
63.3871,-47.2852,-1.78299,0
63.3387,-47.2261,-1.77646,0
63.289,-47.1679,-1.76972,0
63.238,-47.1109,-1.76279,0
63.1855,-47.055,-1.75569,0
63.1319,-47.0002,-1.74839,0
63.077,-46.9465,-1.74091,0
63.0207,-46.8941,-1.73324,0
62.9631,-46.8429,-1.7254,0
62.9045,-46.7929,-1.71739,0
62.8445,-46.7443,-1.70922,0
62.7835,-46.697,-1.70087,0
62.7212,-46.6511,-1.69236,0
62.658,-46.6065,-1.68368,0
62.5936,-46.5634,-1.67487,0
62.5281,-46.5217,-1.66589,0
62.4616,-46.4817,-1.65684,0
62.3933,-46.4445,-1.64811,0
62.9936,-52.3934,-1.5793,0
63.0525,-52.34,-1.59018,0
63.1101,-52.2854,-1.60094,0
63.1662,-52.2294,-1.61158,0
63.2209,-52.1723,-1.6221,0
63.2741,-52.1139,-1.63247,0
63.3259,-52.0545,-1.6427,0
63.3761,-51.9939,-1.65278,0
63.4248,-51.9323,-1.66272,0
63.472,-51.8696,-1.6725,0
63.5176,-51.8061,-1.68212,0
63.5616,-51.7415,-1.69157,0
63.6041,-51.6761,-1.70086,0
63.6448,-51.6099,-1.70996,0
63.684,-51.5428,-1.7189,0
63.7216,-51.475,-1.72766,0
63.7575,-51.4065,-1.73623,0
63.7919,-51.3373,-1.7446,0
63.8244,-51.2674,-1.75279,0
63.8554,-51.197,-1.76079,0
63.8847,-51.1261,-1.76859,0
63.9123,-51.0546,-1.77619,0
63.9383,-50.9827,-1.78358,0
63.9624,-50.9103,-1.79076,0
63.9888,-50.839,-1.79668,0
64.016,-50.7681,-1.80171,0
64.0416,-50.6967,-1.80654,0
64.0655,-50.6247,-1.81117,0
64.088,-50.5522,-1.8156,0
64.1088,-50.4792,-1.81982,0
64.128,-50.4059,-1.82382,0
64.1457,-50.3321,-1.82762,0
64.1616,-50.2579,-1.83121,0
64.1761,-50.1834,-1.83457,0
64.1889,-50.1087,-1.83773,0
64.1999,-50.0336,-1.84067,0
64.2094,-49.9584,-1.84339,0
64.2173,-49.883,-1.84589,0
64.2236,-49.8074,-1.84817,0
64.2281,-49.7317,-1.85023,0
64.2311,-49.6559,-1.85207,0
64.2323,-49.58,-1.85367,0
64.232,-49.5042,-1.85506,0
64.23,-49.4284,-1.85623,0
64.2262,-49.3526,-1.85716,0
64.221,-49.2769,-1.85788,0
64.2141,-49.2014,-1.85837,0
64.2051,-49.126,-1.85872,0
64.1934,-49.0511,-1.8591,0
64.1802,-48.9764,-1.85927,0
64.1652,-48.9021,-1.85922,0
64.1487,-48.8281,-1.85894,0
64.1305,-48.7545,-1.85845,0
64.1107,-48.6814,-1.85773,0
64.0894,-48.6087,-1.8568,0
64.0663,-48.5366,-1.85565,0
64.0419,-48.465,-1.85428,0
64.0163,-48.3938,-1.85254,0
63.9909,-48.3225,-1.85014,0
63.9638,-48.2518,-1.84753,0
63.9352,-48.1816,-1.84471,0
63.9051,-48.1121,-1.84168,0
63.8734,-48.0433,-1.83844,0
63.84,-47.9752,-1.83498,0
63.8052,-47.9078,-1.83133,0
63.7689,-47.8411,-1.82746,0
63.7312,-47.7753,-1.82339,0
63.6919,-47.7103,-1.81912,0
63.6511,-47.6462,-1.81465,0
63.6088,-47.5829,-1.80998,0
63.5652,-47.5207,-1.8051,0
63.5202,-47.4594,-1.80005,0
63.4741,-47.3989,-1.79473,0
63.4284,-47.3379,-1.78857,0
63.3812,-47.2779,-1.7822,0
63.3327,-47.2189,-1.77564,0
63.2828,-47.1609,-1.76888,0
63.2316,-47.104,-1.76194,0
63.1791,-47.0482,-1.75479,0
63.1252,-46.9935,-1.74748,0
63.0701,-46.94,-1.73997,0
63.0137,-46.8877,-1.73229,0
62.956,-46.8367,-1.72443,0
62.8971,-46.7869,-1.7164,0
62.8371,-46.7384,-1.70819,0
62.7759,-46.6913,-1.69983,0
62.7135,-46.6455,-1.6913,0
62.65,-46.6011,-1.68261,0
62.5855,-46.5581,-1.67377,0
62.52,-46.5166,-1.66478,0
62.4532,-46.477,-1.65577,0
62.3848,-46.44,-1.64703,0
63.0009,-52.3869,-1.58064,0
63.0597,-52.3334,-1.59152,0
63.117,-52.2785,-1.60226,0
63.173,-52.2225,-1.61288,0
63.2276,-52.1651,-1.62338,0
63.2805,-52.1067,-1.63373,0
63.3321,-52.0471,-1.64395,0
63.3822,-51.9864,-1.65401,0
63.4307,-51.9246,-1.66393,0
63.4777,-51.8619,-1.67369,0
63.523,-51.7982,-1.68329,0
63.567,-51.7335,-1.69273,0
63.6091,-51.668,-1.70199,0
63.6497,-51.6017,-1.71108,0
63.6887,-51.5345,-1.71999,0
63.7261,-51.4666,-1.72872,0
63.7618,-51.398,-1.73727,0
63.7959,-51.3287,-1.74563,0
63.8284,-51.2588,-1.7538,0
63.8591,-51.1883,-1.76176,0
63.8882,-51.1173,-1.76953,0
63.9155,-51.0458,-1.77711,0
63.9412,-50.9738,-1.78448,0
63.9653,-50.9014,-1.79163,0
63.9923,-50.8303,-1.79731,0
64.0192,-50.7594,-1.80232,0
64.0445,-50.6878,-1.80713,0
64.0684,-50.6158,-1.81173,0
64.0906,-50.5432,-1.81612,0
64.1113,-50.4702,-1.82032,0
64.1303,-50.3968,-1.82431,0
64.1477,-50.323,-1.82807,0
64.1635,-50.2488,-1.83163,0
64.1777,-50.1743,-1.83497,0
64.1903,-50.0995,-1.8381,0
64.2012,-50.0244,-1.84101,0
64.2105,-49.9491,-1.84371,0
64.2182,-49.8737,-1.84618,0
64.2242,-49.7981,-1.84843,0
64.2286,-49.7223,-1.85047,0
64.2313,-49.6465,-1.85227,0
64.2323,-49.5707,-1.85386,0
64.2319,-49.4949,-1.85522,0
64.2296,-49.419,-1.85636,0
64.2258,-49.3433,-1.85727,0
64.2202,-49.2676,-1.85795,0
64.213,-49.1921,-1.85841,0
64.2038,-49.1168,-1.85878,0
64.1919,-49.0418,-1.85914,0
64.1784,-48.9672,-1.85928,0
64.1633,-48.8929,-1.8592,0
64.1465,-48.819,-1.8589,0
64.1282,-48.7455,-1.85838,0
64.1082,-48.6724,-1.85763,0
64.0866,-48.5998,-1.85667,0
64.0634,-48.5278,-1.85549,0
64.0387,-48.4562,-1.85409,0
64.0133,-48.385,-1.85226,0
63.9877,-48.3138,-1.84983,0
63.9604,-48.2431,-1.84719,0
63.9316,-48.1731,-1.84435,0
63.9012,-48.1036,-1.8413,0
63.8694,-48.0349,-1.83803,0
63.8359,-47.9668,-1.83455,0
63.8009,-47.8995,-1.83086,0
63.7644,-47.833,-1.82697,0
63.7264,-47.7672,-1.82288,0
63.6869,-47.7023,-1.81858,0
63.6459,-47.6383,-1.81408,0
63.6036,-47.5752,-1.80939,0
63.5598,-47.5131,-1.8045,0
63.5146,-47.4519,-1.79942,0
63.4684,-47.3914,-1.79398,0
63.4227,-47.3305,-1.78779,0
63.3753,-47.2706,-1.7814,0
63.3266,-47.2117,-1.77482,0
63.2766,-47.1538,-1.76803,0
63.2252,-47.097,-1.76107,0
63.1725,-47.0414,-1.7539,0
63.1184,-46.9868,-1.74657,0
63.0632,-46.9335,-1.73904,0
63.0066,-46.8814,-1.73133,0
62.9488,-46.8305,-1.72344,0
62.8898,-46.7808,-1.7154,0
62.8296,-46.7325,-1.70716,0
62.7683,-46.6856,-1.69879,0
62.7058,-46.64,-1.69024,0
62.6422,-46.5957,-1.68153,0
62.5775,-46.553,-1.67267,0
62.5118,-46.5116,-1.66366,0
62.4448,-46.4724,-1.6547,0
62.3763,-46.4356,-1.64595,0
63.0083,-52.3804,-1.58198,0
63.0668,-52.3267,-1.59284,0
63.1241,-52.2717,-1.60357,0
63.1798,-52.2155,-1.61418,0
63.2341,-52.158,-1.62466,0
63.287,-52.0994,-1.635,0
63.3384,-52.0397,-1.64519,0
63.3882,-51.9788,-1.65525,0
63.4366,-51.917,-1.66514,0
63.4833,-51.8541,-1.67488,0
63.5285,-51.7903,-1.68446,0
63.5722,-51.7255,-1.69387,0
63.6142,-51.6599,-1.70311,0
63.6546,-51.5934,-1.71218,0
63.6934,-51.5262,-1.72108,0
63.7306,-51.4582,-1.72979,0
63.7661,-51.3895,-1.7383,0
63.8,-51.3201,-1.74664,0
63.8322,-51.2502,-1.75478,0
63.8628,-51.1796,-1.76273,0
63.5152,-47.5706,-1.79798,0
63.4712,-47.5105,-1.79304,0
63.426,-47.4513,-1.78788,0
63.3813,-47.3915,-1.78186,0
63.3353,-47.3326,-1.77564,0
63.288,-47.2748,-1.76923,0
63.2392,-47.218,-1.76262,0
63.1891,-47.1622,-1.75584,0
63.1378,-47.1075,-1.74887,0
63.0852,-47.0539,-1.74172,0
63.0313,-47.0015,-1.73439,0
62.9761,-46.9502,-1.72688,0
62.9198,-46.9002,-1.7192,0
62.8623,-46.8514,-1.71135,0
62.8036,-46.8038,-1.70333,0
62.7437,-46.7576,-1.69515,0
62.6828,-46.7127,-1.68681,0
62.6209,-46.6692,-1.67832,0
62.5577,-46.6271,-1.66968,0
62.4937,-46.5863,-1.6609,0
62.428,-46.548,-1.65229,0
62.3612,-46.5117,-1.64375,0
62.9475,-52.3303,-1.57641,0
63.0052,-52.2782,-1.58706,0
63.0616,-52.2249,-1.5976,0
63.1165,-52.1703,-1.608,0
63.1702,-52.1145,-1.61829,0
63.2223,-52.0576,-1.62844,0
63.273,-51.9995,-1.63846,0
63.3222,-51.9404,-1.64834,0
63.37,-51.8802,-1.65806,0
63.4162,-51.8191,-1.66763,0
63.4609,-51.757,-1.67706,0
63.5041,-51.694,-1.68632,0
63.5458,-51.6301,-1.69541,0
63.5858,-51.5653,-1.70433,0
63.6243,-51.4998,-1.7131,0
63.6612,-51.4336,-1.72167,0
63.6965,-51.3666,-1.73007,0
63.7302,-51.299,-1.73829,0
63.7622,-51.2307,-1.74631,0
63.7927,-51.1619,-1.75415,0
63.8215,-51.0925,-1.7618,0
63.8486,-51.0226,-1.76924,0
63.8741,-50.9523,-1.7765,0
63.898,-50.8815,-1.78353,0
63.9262,-50.8127,-1.78866,0
63.9528,-50.7433,-1.79359,0
63.9778,-50.6733,-1.79833,0
64.0013,-50.6027,-1.80287,0
64.0234,-50.5317,-1.8072,0
64.0438,-50.4603,-1.81133,0
64.0627,-50.3884,-1.81527,0
64.0799,-50.3161,-1.81899,0
64.0956,-50.2435,-1.8225,0
64.1098,-50.1705,-1.82581,0
64.1223,-50.0973,-1.82889,0
64.1332,-50.0238,-1.83178,0
64.1425,-49.9501,-1.83445,0
64.1502,-49.8762,-1.83689,0
64.1563,-49.8021,-1.83912,0
64.1609,-49.7279,-1.84114,0
64.1637,-49.6537,-1.84294,0
64.1649,-49.5794,-1.84452,0
64.1646,-49.5051,-1.84589,0
64.1626,-49.4308,-1.84703,0
64.159,-49.3566,-1.84794,0
64.1538,-49.2824,-1.84864,0
64.1469,-49.2084,-1.84911,0
64.1373,-49.1347,-1.8497,0
64.1259,-49.0613,-1.85009,0
64.1129,-48.9882,-1.85026,0
64.0983,-48.9154,-1.8502,0
64.0821,-48.8429,-1.84994,0
64.0643,-48.7709,-1.84945,0
64.0449,-48.6993,-1.84876,0
64.0241,-48.6281,-1.84784,0
64.0016,-48.5574,-1.84672,0
63.9776,-48.4873,-1.84538,0
63.952,-48.4177,-1.84382,0
63.9269,-48.348,-1.84153,0
63.9004,-48.2788,-1.83896,0
63.8723,-48.2101,-1.83619,0
63.8427,-48.1421,-1.83322,0
63.8116,-48.0747,-1.83004,0
63.779,-48.008,-1.82666,0
63.7449,-47.942,-1.82307,0
63.7094,-47.8768,-1.81928,0
63.6723,-47.8124,-1.81529,0
63.6338,-47.7487,-1.81111,0
63.5938,-47.686,-1.80673,0
63.5525,-47.6241,-1.80215,0
63.5098,-47.5631,-1.79737,0
63.4657,-47.5031,-1.79242,0
63.4206,-47.4439,-1.78715,0
63.3757,-47.3842,-1.7811,0
63.3296,-47.3255,-1.77487,0
63.282,-47.2677,-1.76842,0
63.2331,-47.211,-1.7618,0
63.183,-47.1554,-1.755,0
63.1313,-47.1008,-1.748,0
63.0786,-47.0474,-1.74083,0
63.0245,-46.9951,-1.73347,0
62.9693,-46.944,-1.72594,0
62.9128,-46.8941,-1.71824,0
62.8551,-46.8455,-1.71037,0
62.7963,-46.7981,-1.70233,0
62.7363,-46.752,-1.69413,0
62.6753,-46.7073,-1.68577,0
62.6131,-46.6639,-1.67727,0
62.5499,-46.622,-1.66861,0
62.4858,-46.5814,-1.65981,0
62.4199,-46.5434,-1.65125,0
62.353,-46.5073,-1.64269,0
62.9546,-52.324,-1.57773,0
63.0122,-52.2717,-1.58837,0
63.0684,-52.2182,-1.59888,0
63.1232,-52.1635,-1.60928,0
63.1766,-52.1076,-1.61955,0
63.2286,-52.0505,-1.62969,0
63.2791,-51.9923,-1.63968,0
63.3281,-51.9331,-1.64954,0
63.3757,-51.8728,-1.65925,0
63.4218,-51.8115,-1.66881,0
63.4663,-51.7493,-1.6782,0
63.5093,-51.6861,-1.68744,0
63.5508,-51.6221,-1.69653,0
63.5906,-51.5573,-1.70542,0
63.6289,-51.4917,-1.71416,0
63.6656,-51.4254,-1.72272,0
63.7007,-51.3583,-1.73109,0
63.7341,-51.2906,-1.73928,0
63.766,-51.2223,-1.74728,0
63.7962,-51.1534,-1.75509,0
63.8248,-51.0839,-1.76272,0
63.8519,-51.014,-1.77015,0
63.8772,-50.9436,-1.77737,0
63.9016,-50.8731,-1.78417,0
63.9296,-50.8042,-1.78928,0
63.9559,-50.7347,-1.79419,0
63.9809,-50.6646,-1.7989,0
64.0041,-50.594,-1.80341,0
64.0259,-50.523,-1.80773,0
64.0462,-50.4514,-1.81183,0
64.0648,-50.3795,-1.81574,0
64.082,-50.3072,-1.81943,0
64.0975,-50.2345,-1.82292,0
64.1114,-50.1615,-1.8262,0
64.1237,-50.0882,-1.82926,0
64.1345,-50.0147,-1.83212,0
64.1436,-49.941,-1.83475,0
64.151,-49.867,-1.83718,0
64.157,-49.793,-1.83939,0
64.1612,-49.7188,-1.84137,0
64.1639,-49.6446,-1.84314,0
64.165,-49.5703,-1.84469,0
64.1645,-49.4959,-1.84604,0
64.1623,-49.4217,-1.84715,0
64.1584,-49.3475,-1.84803,0
64.153,-49.2733,-1.84871,0
64.1459,-49.1993,-1.84919,0
64.1359,-49.1257,-1.84977,0
64.1244,-49.0523,-1.85011,0
64.1112,-48.9792,-1.85026,0
64.0963,-48.9064,-1.85018,0
64.08,-48.834,-1.84989,0
64.062,-48.762,-1.84938,0
64.0424,-48.6905,-1.84865,0
64.0213,-48.6194,-1.84772,0
63.9987,-48.5488,-1.84656,0
63.9745,-48.4787,-1.8452,0
63.9488,-48.4092,-1.8436,0
63.9237,-48.3395,-1.84122,0
63.897,-48.2703,-1.83863,0
63.8687,-48.2017,-1.83584,0
63.8391,-48.1338,-1.83284,0
63.8077,-48.0664,-1.82964,0
63.7749,-47.9998,-1.82623,0
63.7406,-47.9339,-1.82261,0
63.7048,-47.8688,-1.8188,0
63.6677,-47.8045,-1.81479,0
63.629,-47.741,-1.81058,0
63.5889,-47.6783,-1.80617,0
63.5473,-47.6165,-1.80157,0
63.5045,-47.5557,-1.79678,0
63.4602,-47.4958,-1.79179,0
63.4151,-47.4365,-1.78642,0
63.3702,-47.3769,-1.78035,0
63.3237,-47.3183,-1.77408,0
63.276,-47.2607,-1.76762,0
63.227,-47.2041,-1.76098,0
63.1766,-47.1486,-1.75414,0
63.1249,-47.0942,-1.74713,0
63.072,-47.0409,-1.73993,0
63.0178,-46.9887,-1.73255,0
62.9624,-46.9378,-1.725,0
62.9058,-46.888,-1.71728,0
62.848,-46.8396,-1.70938,0
62.789,-46.7923,-1.70133,0
62.7289,-46.7464,-1.69311,0
62.6677,-46.7019,-1.68474,0
62.6054,-46.6587,-1.67621,0
62.542,-46.6169,-1.66753,0
62.4777,-46.5765,-1.65871,0
62.4117,-46.5389,-1.6502,0
62.3447,-46.503,-1.64163,0
62.9618,-52.3176,-1.57904,0
63.0191,-52.2652,-1.58966,0
63.0752,-52.2116,-1.60017,0
63.1298,-52.1567,-1.61055,0
63.1831,-52.1006,-1.6208,0
63.2349,-52.0434,-1.63092,0
63.2852,-51.9851,-1.64091,0
63.3341,-51.9257,-1.65074,0
63.3816,-51.8653,-1.66043,0
63.4273,-51.8039,-1.66997,0
63.4717,-51.7415,-1.67935,0
63.5145,-51.6783,-1.68858,0
63.5558,-51.6142,-1.69762,0
63.5955,-51.5493,-1.70651,0
63.6335,-51.4836,-1.71523,0
63.67,-51.4171,-1.72376,0
63.7049,-51.35,-1.7321,0
63.7381,-51.2822,-1.74027,0
63.7698,-51.2138,-1.74826,0
63.7999,-51.1448,-1.75605,0
63.4616,-47.6114,-1.79051,0
63.4184,-47.5525,-1.78567,0
63.3743,-47.4944,-1.78055,0
63.3305,-47.4359,-1.77465,0
63.2854,-47.3784,-1.76855,0
63.239,-47.3218,-1.76226,0
63.1912,-47.2662,-1.75579,0
63.1421,-47.2116,-1.74914,0
63.0917,-47.1581,-1.7423,0
63.0402,-47.1057,-1.73529,0
62.9873,-47.0544,-1.7281,0
62.9332,-47.0043,-1.72074,0
62.878,-46.9554,-1.7132,0
62.8216,-46.9077,-1.70551,0
62.7641,-46.8612,-1.69766,0
62.7055,-46.816,-1.68965,0
62.6458,-46.7722,-1.68148,0
62.5851,-46.7296,-1.67316,0
62.5233,-46.6884,-1.66469,0
62.4603,-46.6489,-1.65616,0
62.3959,-46.6119,-1.64792,0
62.3305,-46.5764,-1.63954,0
62.903,-52.2696,-1.57364,0
62.9596,-52.2188,-1.58406,0
63.0148,-52.1667,-1.59437,0
63.0687,-52.1134,-1.60457,0
63.1213,-52.0589,-1.61464,0
63.1723,-52.0034,-1.62457,0
63.222,-51.9467,-1.63438,0
63.2704,-51.8889,-1.64404,0
63.3172,-51.8302,-1.65358,0
63.3625,-51.7704,-1.66295,0
63.4064,-51.7097,-1.67219,0
63.4487,-51.6482,-1.68125,0
63.4897,-51.5857,-1.69017,0
63.529,-51.5224,-1.69892,0
63.5668,-51.4584,-1.70749,0
63.603,-51.3937,-1.7159,0
63.6377,-51.3282,-1.72413,0
63.6708,-51.2621,-1.73219,0
63.7023,-51.1953,-1.74006,0
63.7322,-51.128,-1.74774,0
63.7605,-51.0602,-1.75524,0
63.7873,-50.9918,-1.76256,0
63.8123,-50.923,-1.76967,0
63.8381,-50.8547,-1.77589,0
63.8657,-50.7873,-1.78092,0
63.8918,-50.7192,-1.78576,0
63.9164,-50.6507,-1.7904,0
63.9395,-50.5816,-1.79485,0
63.961,-50.512,-1.7991,0
63.9811,-50.4419,-1.80316,0
63.9995,-50.3715,-1.807,0
64.0165,-50.3007,-1.81065,0
64.0319,-50.2295,-1.81409,0
64.0457,-50.158,-1.81733,0
64.058,-50.0863,-1.82036,0
64.0687,-50.0142,-1.82319,0
64.0779,-49.942,-1.8258,0
64.0855,-49.8696,-1.8282,0
64.0914,-49.797,-1.83039,0
64.0958,-49.7243,-1.83237,0
64.0986,-49.6516,-1.83413,0
64.0998,-49.5788,-1.83569,0
64.0994,-49.506,-1.83702,0
64.0976,-49.4332,-1.83814,0
64.0941,-49.3604,-1.83904,0
64.0889,-49.2878,-1.83972,0
64.0813,-49.2153,-1.84042,0
64.0718,-49.1432,-1.84101,0
64.0607,-49.0712,-1.84138,0
64.048,-48.9996,-1.84154,0
64.0337,-48.9282,-1.8415,0
64.0179,-48.8573,-1.84125,0
64.0005,-48.7867,-1.84077,0
63.9816,-48.7165,-1.84009,0
63.961,-48.6468,-1.8392,0
63.939,-48.5775,-1.8381,0
63.9155,-48.5088,-1.83679,0
63.8905,-48.4407,-1.83527,0
63.8652,-48.3726,-1.83321,0
63.8392,-48.3048,-1.8307,0
63.8116,-48.2376,-1.82799,0
63.7827,-48.171,-1.82507,0
63.7522,-48.105,-1.82195,0
63.7202,-48.0397,-1.81863,0
63.6867,-47.975,-1.81511,0
63.6519,-47.9112,-1.8114,0
63.6155,-47.8481,-1.80749,0
63.5779,-47.7858,-1.80339,0
63.5387,-47.7243,-1.79908,0
63.4982,-47.6638,-1.7946,0
63.4563,-47.6041,-1.78992,0
63.413,-47.5453,-1.78507,0
63.369,-47.4872,-1.77983,0
63.3251,-47.4288,-1.77391,0
63.2798,-47.3714,-1.76778,0
63.2331,-47.3149,-1.76148,0
63.1852,-47.2594,-1.75498,0
63.1359,-47.205,-1.74831,0
63.0855,-47.1516,-1.74145,0
63.0337,-47.0993,-1.73442,0
62.9807,-47.0482,-1.7272,0
62.9265,-46.9982,-1.71982,0
62.8712,-46.9494,-1.71228,0
62.8146,-46.9019,-1.70456,0
62.757,-46.8556,-1.69668,0
62.6982,-46.8106,-1.68865,0
62.6384,-46.7668,-1.68046,0
62.5775,-46.7245,-1.67213,0
62.5156,-46.6835,-1.66364,0
62.4525,-46.6442,-1.65515,0
62.3879,-46.6074,-1.64689,0
62.3223,-46.5721,-1.63851,0
62.9101,-52.2634,-1.57493,0
62.9665,-52.2124,-1.58534,0
63.0215,-52.1602,-1.59563,0
63.0752,-52.1068,-1.6058,0
63.1276,-52.0522,-1.61586,0
63.1786,-51.9964,-1.62579,0
63.2281,-51.9396,-1.63558,0
63.2762,-51.8817,-1.64523,0
63.3229,-51.8229,-1.65473,0
63.368,-51.763,-1.6641,0
63.4118,-51.7022,-1.67331,0
63.4539,-51.6405,-1.68236,0
63.4945,-51.578,-1.69125,0
63.5337,-51.5146,-1.69998,0
63.5713,-51.4505,-1.70854,0
63.6073,-51.3856,-1.71693,0
63.6418,-51.3201,-1.72514,0
63.6748,-51.2539,-1.73317,0
63.706,-51.1871,-1.74102,0
63.7358,-51.1197,-1.74868,0
63.7638,-51.0518,-1.75616,0
63.7904,-50.9834,-1.76344,0
63.8154,-50.9145,-1.77053,0
63.8416,-50.8465,-1.77652,0
63.8691,-50.7789,-1.78153,0
63.8949,-50.7108,-1.78634,0
63.9193,-50.6422,-1.79096,0
63.9422,-50.573,-1.79539,0
63.9636,-50.5034,-1.79961,0
63.9834,-50.4333,-1.80363,0
64.0017,-50.3628,-1.80747,0
64.0185,-50.2919,-1.81109,0
64.0337,-50.2207,-1.8145,0
64.0473,-50.1492,-1.81772,0
64.0594,-50.0774,-1.82072,0
64.0699,-50.0054,-1.82352,0
64.0789,-49.9331,-1.82611,0
64.0863,-49.8607,-1.82848,0
64.0919,-49.7881,-1.83064,0
64.0962,-49.7154,-1.83259,0
64.0988,-49.6426,-1.83434,0
64.0999,-49.5698,-1.83586,0
64.0993,-49.497,-1.83716,0
64.0972,-49.4242,-1.83825,0
64.0935,-49.3515,-1.83913,0
64.0882,-49.2788,-1.83979,0
64.0803,-49.2064,-1.8405,0
64.0705,-49.1343,-1.84106,0
64.0592,-49.0624,-1.84142,0
64.0463,-48.9908,-1.84155,0
64.0318,-48.9195,-1.84149,0
64.0158,-48.8485,-1.84119,0
63.9982,-48.778,-1.8407,0
63.9791,-48.7079,-1.83999,0
63.9584,-48.6382,-1.83908,0
63.9362,-48.569,-1.83795,0
63.9125,-48.5004,-1.83661,0
63.8873,-48.4323,-1.83507,0
63.862,-48.3643,-1.83291,0
63.8359,-48.2965,-1.83038,0
63.8082,-48.2294,-1.82763,0
63.779,-48.1628,-1.82469,0
63.7484,-48.0969,-1.82155,0
63.7162,-48.0317,-1.8182,0
63.6825,-47.9671,-1.81466,0
63.6474,-47.9034,-1.81092,0
63.6109,-47.8404,-1.80699,0
63.5731,-47.7782,-1.80286,0
63.5337,-47.7168,-1.79854,0
63.4931,-47.6564,-1.79403,0
63.451,-47.5968,-1.78933,0
63.4077,-47.5382,-1.78445,0
63.3637,-47.4799,-1.77912,0
63.3195,-47.4217,-1.77316,0
63.2741,-47.3643,-1.76702,0
63.2273,-47.308,-1.76069,0
63.1791,-47.2527,-1.75417,0
63.1298,-47.1983,-1.74747,0
63.0791,-47.1451,-1.74059,0
63.0273,-47.093,-1.73353,0
62.9741,-47.042,-1.7263,0
62.9198,-46.9922,-1.71889,0
62.8642,-46.9435,-1.71133,0
62.8076,-46.8961,-1.7036,0
62.7498,-46.85,-1.6957,0
62.6909,-46.8051,-1.68765,0
62.6309,-46.7615,-1.67945,0
62.57,-46.7193,-1.67109,0
62.5079,-46.6785,-1.66258,0
62.4446,-46.6396,-1.65414,0
62.3798,-46.603,-1.64587,0
62.3142,-46.5679,-1.63747,0
62.9171,-52.2572,-1.57622,0
62.9734,-52.2061,-1.58661,0
63.0282,-52.1537,-1.59689,0
63.0817,-52.1001,-1.60706,0
63.1339,-52.0454,-1.61709,0
63.1848,-51.9895,-1.627,0
63.2341,-51.9325,-1.63677,0
63.282,-51.8745,-1.64641,0
63.3285,-51.8155,-1.6559,0
63.3735,-51.7556,-1.66524,0
63.417,-51.6946,-1.67443,0
63.4591,-51.6329,-1.68346,0
63.4995,-51.5702,-1.69234,0
63.5384,-51.5068,-1.70105,0
63.5759,-51.4426,-1.70958,0
63.6116,-51.3776,-1.71795,0
63.6459,-51.312,-1.72613,0
63.6787,-51.2457,-1.73414,0
63.7098,-51.1788,-1.74197,0
63.7393,-51.1114,-1.74961,0
63.4098,-47.6507,-1.78331,0
63.3676,-47.5931,-1.77857,0
63.3245,-47.5361,-1.77349,0
63.2815,-47.4788,-1.76769,0
63.2372,-47.4225,-1.76171,0
63.1917,-47.3671,-1.75554,0
63.1448,-47.3127,-1.74919,0
63.0967,-47.2593,-1.74266,0
63.0473,-47.207,-1.73596,0
62.9967,-47.1557,-1.72908,0
62.9449,-47.1055,-1.72203,0
62.8919,-47.0565,-1.71482,0
62.8377,-47.0086,-1.70743,0
62.7825,-46.962,-1.69989,0
62.7261,-46.9165,-1.69219,0
62.6687,-46.8724,-1.68433,0
62.6102,-46.8295,-1.67633,0
62.5506,-46.7879,-1.66818,0
62.4901,-46.7476,-1.65987,0
62.428,-46.7096,-1.65176,0
62.3648,-46.6735,-1.64369,0
62.3007,-46.6388,-1.6355,0
62.8603,-52.2112,-1.57097,0
62.9157,-52.1615,-1.58117,0
62.9698,-52.1107,-1.59127,0
63.0227,-52.0586,-1.60125,0
63.0742,-52.0055,-1.61111,0
63.1243,-51.9511,-1.62085,0
63.173,-51.8958,-1.63045,0
63.2204,-51.8393,-1.63993,0
63.2663,-51.7819,-1.64926,0
63.3109,-51.7235,-1.65845,0
63.3539,-51.6642,-1.66749,0
63.3955,-51.604,-1.67637,0
63.4356,-51.543,-1.68511,0
63.4742,-51.4811,-1.69369,0
63.5112,-51.4185,-1.7021,0
63.5469,-51.3552,-1.71035,0
63.5809,-51.2912,-1.71842,0
63.6134,-51.2265,-1.72632,0
63.6445,-51.1612,-1.73404,0
63.6739,-51.0954,-1.74158,0
63.7017,-51.029,-1.74893,0
63.728,-50.9621,-1.75611,0
63.7528,-50.8948,-1.76309,0
63.7803,-50.8288,-1.76851,0
63.8073,-50.7627,-1.77345,0
63.8329,-50.696,-1.7782,0
63.857,-50.6288,-1.78275,0
63.8797,-50.5611,-1.7871,0
63.9008,-50.4929,-1.79127,0
63.9205,-50.4243,-1.79525,0
63.9386,-50.3552,-1.79903,0
63.9552,-50.2858,-1.8026,0
63.9703,-50.216,-1.80598,0
63.9839,-50.146,-1.80915,0
63.9959,-50.0756,-1.81212,0
64.0064,-50.005,-1.81489,0
64.0154,-49.9342,-1.81745,0
64.0228,-49.8632,-1.81981,0
64.0287,-49.7921,-1.82195,0
64.033,-49.7209,-1.8239,0
64.0358,-49.6495,-1.82562,0
64.0369,-49.5782,-1.82715,0
64.0366,-49.5068,-1.82845,0
64.0347,-49.4354,-1.82955,0
64.0313,-49.3641,-1.83043,0
64.0257,-49.293,-1.83125,0
64.018,-49.222,-1.83203,0
64.0086,-49.1513,-1.83261,0
63.9977,-49.0808,-1.83299,0
63.9853,-49.0106,-1.83314,0
63.9713,-48.9406,-1.8331,0
63.9559,-48.8711,-1.83285,0
63.9387,-48.8019,-1.83239,0
63.9202,-48.7331,-1.83173,0
63.9002,-48.6648,-1.83086,0
63.8786,-48.597,-1.82977,0
63.8555,-48.5296,-1.8285,0
63.831,-48.4628,-1.82701,0
63.8055,-48.3964,-1.82518,0
63.7801,-48.33,-1.82272,0
63.753,-48.2641,-1.82006,0
63.7247,-48.1989,-1.81719,0
63.6948,-48.1342,-1.81414,0
63.6634,-48.0702,-1.81088,0
63.6306,-48.0069,-1.80742,0
63.5964,-47.9444,-1.80379,0
63.5609,-47.8826,-1.79995,0
63.5238,-47.8216,-1.79593,0
63.4854,-47.7614,-1.79172,0
63.4457,-47.7021,-1.78731,0
63.4047,-47.6436,-1.78273,0
63.3623,-47.5861,-1.77797,0
63.3192,-47.529,-1.77278,0
63.2761,-47.4719,-1.76696,0
63.2317,-47.4156,-1.76095,0
63.1859,-47.3604,-1.75477,0
63.1389,-47.3061,-1.7484,0
63.0906,-47.2528,-1.74185,0
63.0411,-47.2006,-1.73512,0
62.9904,-47.1494,-1.72822,0
62.9384,-47.0994,-1.72115,0
62.8852,-47.0505,-1.71392,0
62.831,-47.0028,-1.70652,0
62.7755,-46.9563,-1.69896,0
62.7191,-46.911,-1.69123,0
62.6615,-46.867,-1.68336,0
62.6028,-46.8243,-1.67533,0
62.5432,-46.7828,-1.66716,0
62.4825,-46.7428,-1.65884,0
62.4202,-46.7051,-1.65078,0
62.357,-46.6691,-1.64269,0
62.2928,-46.6346,-1.63448,0
62.8673,-52.2051,-1.57223,0
62.9224,-52.1553,-1.58243,0
62.9764,-52.1043,-1.5925,0
63.0291,-52.0522,-1.60247,0
63.0804,-51.9988,-1.61232,0
63.1304,-51.9444,-1.62203,0
63.1789,-51.8889,-1.63162,0
63.2262,-51.8323,-1.64108,0
63.2719,-51.7748,-1.65039,0
63.3162,-51.7163,-1.65957,0
63.3591,-51.6568,-1.6686,0
63.4005,-51.5965,-1.67746,0
63.4404,-51.5354,-1.68617,0
63.4789,-51.4735,-1.69473,0
63.5158,-51.4108,-1.70313,0
63.5512,-51.3473,-1.71134,0
63.585,-51.2832,-1.7194,0
63.6173,-51.2185,-1.72728,0
63.6481,-51.1531,-1.73498,0
63.6774,-51.0872,-1.74249,0
63.7051,-51.0208,-1.74983,0
63.7312,-50.9538,-1.75697,0
63.7557,-50.8864,-1.76393,0
63.7837,-50.8207,-1.76913,0
63.8105,-50.7545,-1.77404,0
63.8359,-50.6878,-1.77876,0
63.8599,-50.6205,-1.78328,0
63.8823,-50.5527,-1.78763,0
63.9033,-50.4845,-1.79177,0
63.9227,-50.4158,-1.79572,0
63.9408,-50.3467,-1.79947,0
63.9572,-50.2772,-1.80303,0
63.972,-50.2074,-1.80638,0
63.9855,-50.1373,-1.80953,0
63.9973,-50.0669,-1.81248,0
64.0077,-49.9963,-1.81522,0
64.0164,-49.9255,-1.81776,0
64.0236,-49.8545,-1.82009,0
64.0293,-49.7833,-1.8222,0
64.0334,-49.7121,-1.82412,0
64.0359,-49.6408,-1.82583,0
64.037,-49.5694,-1.82732,0
64.0365,-49.498,-1.8286,0
64.0344,-49.4267,-1.82966,0
64.0308,-49.3554,-1.83053,0
64.0249,-49.2842,-1.83134,0
64.0169,-49.2133,-1.83212,0
64.0074,-49.1426,-1.83266,0
63.9963,-49.0721,-1.83301,0
63.9837,-49.0019,-1.83315,0
63.9695,-48.9321,-1.83308,0
63.9538,-48.8625,-1.8328,0
63.9366,-48.7934,-1.83232,0
63.9178,-48.7247,-1.83163,0
63.8977,-48.6564,-1.83074,0
63.8759,-48.5886,-1.82963,0
63.8526,-48.5213,-1.82833,0
63.828,-48.4546,-1.82681,0
63.8025,-48.3882,-1.82489,0
63.7768,-48.3218,-1.8224,0
63.7497,-48.2561,-1.81971,0
63.721,-48.1909,-1.81683,0
63.6909,-48.1263,-1.81375,0
63.6595,-48.0624,-1.81047,0
63.6265,-47.9992,-1.80699,0
63.5921,-47.9367,-1.80333,0
63.5563,-47.875,-1.79947,0
63.5192,-47.8141,-1.79542,0
63.4806,-47.754,-1.79119,0
63.4407,-47.6948,-1.78676,0
63.3995,-47.6365,-1.78216,0
63.357,-47.5791,-1.77737,0
63.3141,-47.5219,-1.77208,0
63.2707,-47.4649,-1.76624,0
63.2262,-47.4088,-1.76021,0
63.1802,-47.3536,-1.754,0
63.133,-47.2995,-1.7476,0
63.0846,-47.2463,-1.74103,0
63.0349,-47.1942,-1.73428,0
62.9841,-47.1432,-1.72736,0
62.932,-47.0934,-1.72027,0
62.8787,-47.0446,-1.71301,0
62.8243,-46.997,-1.70559,0
62.7687,-46.9507,-1.69801,0
62.7121,-46.9055,-1.69027,0
62.6543,-46.8617,-1.68238,0
62.5955,-46.8191,-1.67434,0
62.5357,-46.7778,-1.66615,0
62.475,-46.7379,-1.65781,0
62.4125,-46.7006,-1.64979,0
62.3491,-46.6648,-1.64169,0
62.2848,-46.6305,-1.63346,0
62.8741,-52.1991,-1.57349,0
62.9291,-52.1491,-1.58367,0
62.983,-52.098,-1.59374,0
63.0355,-52.0457,-1.60368,0
63.0866,-51.9922,-1.61352,0
63.1364,-51.9376,-1.62322,0
63.1848,-51.8819,-1.6328,0
63.2319,-51.8253,-1.64224,0
63.2775,-51.7676,-1.65154,0
63.3216,-51.709,-1.66069,0
63.3643,-51.6495,-1.66969,0
63.4055,-51.5891,-1.67855,0
63.4452,-51.5278,-1.68724,0
63.4834,-51.4658,-1.69577,0
63.5202,-51.403,-1.70415,0
63.5555,-51.3395,-1.71235,0
63.5891,-51.2753,-1.72038,0
63.6213,-51.2105,-1.72823,0
63.6518,-51.145,-1.73591,0
63.6809,-51.0791,-1.74341,0
63.3598,-47.6888,-1.77634,0
63.3184,-47.6323,-1.77169,0
63.2763,-47.5763,-1.76666,0
63.2342,-47.5203,-1.76098,0
63.1907,-47.4651,-1.7551,0
63.146,-47.4109,-1.74905,0
63.1,-47.3576,-1.74282,0
63.0528,-47.3054,-1.73642,0
63.0044,-47.2541,-1.72984,0
62.9547,-47.2039,-1.72309,0
62.9039,-47.1548,-1.71618,0
62.852,-47.1069,-1.7091,0
62.7989,-47.06,-1.70186,0
62.7447,-47.0144,-1.69446,0
62.6894,-46.9699,-1.68691,0
62.633,-46.9267,-1.67921,0
62.5757,-46.8848,-1.67136,0
62.5173,-46.8441,-1.66337,0
62.4578,-46.805,-1.65533,0
62.3968,-46.7682,-1.64753,0
62.3348,-46.7328,-1.63962,0
62.2721,-46.6989,-1.63159,0
62.8191,-52.1549,-1.5684,0
62.8735,-52.1064,-1.57839,0
62.9265,-52.0567,-1.58828,0
62.9783,-52.0059,-1.59806,0
63.0288,-51.9539,-1.60771,0
63.078,-51.9008,-1.61725,0
63.1258,-51.8467,-1.62666,0
63.1723,-51.7915,-1.63594,0
63.2173,-51.7354,-1.6451,0
63.261,-51.6783,-1.6541,0
63.3033,-51.6203,-1.66296,0
63.3441,-51.5614,-1.67169,0
63.3835,-51.5018,-1.68024,0
63.4214,-51.4413,-1.68865,0
63.4578,-51.38,-1.6969,0
63.4928,-51.3181,-1.70498,0
63.5263,-51.2554,-1.7129,0
63.5583,-51.1922,-1.72065,0
63.5887,-51.1283,-1.72822,0
63.6176,-51.0638,-1.73562,0
63.6451,-50.9989,-1.74284,0
63.6709,-50.9334,-1.74988,0
63.6964,-50.868,-1.75636,0
63.7244,-50.8038,-1.76138,0
63.7509,-50.739,-1.76622,0
63.776,-50.6736,-1.77087,0
63.7996,-50.6077,-1.77534,0
63.8219,-50.5413,-1.77962,0
63.8426,-50.4744,-1.78371,0
63.8619,-50.4072,-1.7876,0
63.8797,-50.3395,-1.79131,0
63.8959,-50.2714,-1.79482,0
63.9107,-50.203,-1.79813,0
63.9241,-50.1343,-1.80124,0
63.9359,-50.0653,-1.80416,0
63.9462,-49.9961,-1.80687,0
63.955,-49.9267,-1.80939,0
63.9623,-49.8571,-1.81169,0
63.968,-49.7874,-1.8138,0
63.9723,-49.7175,-1.81571,0
63.975,-49.6476,-1.8174,0
63.9762,-49.5776,-1.81889,0
63.9759,-49.5076,-1.82017,0
63.974,-49.4376,-1.82125,0
63.9704,-49.3678,-1.82217,0
63.9643,-49.298,-1.82315,0
63.9567,-49.2285,-1.82392,0
63.9476,-49.1591,-1.8245,0
63.9369,-49.09,-1.82487,0
63.9248,-49.0212,-1.82503,0
63.911,-48.9526,-1.82499,0
63.8959,-48.8845,-1.82474,0
63.8791,-48.8166,-1.82429,0
63.861,-48.7492,-1.82364,0
63.8414,-48.6822,-1.82279,0
63.8202,-48.6157,-1.82174,0
63.7977,-48.5497,-1.82048,0
63.7737,-48.4842,-1.81903,0
63.7483,-48.4193,-1.81737,0
63.723,-48.3543,-1.81502,0
63.6966,-48.2897,-1.8124,0
63.6687,-48.2258,-1.80959,0
63.6393,-48.1624,-1.8066,0
63.6085,-48.0997,-1.8034,0
63.5764,-48.0377,-1.80002,0
63.5429,-47.9764,-1.79644,0
63.508,-47.9159,-1.79268,0
63.4716,-47.8561,-1.78873,0
63.434,-47.7971,-1.7846,0
63.3951,-47.739,-1.78029,0
63.3548,-47.6818,-1.77578,0
63.3133,-47.6254,-1.77111,0
63.2712,-47.5694,-1.76597,0
63.2289,-47.5134,-1.76026,0
63.1853,-47.4584,-1.75437,0
63.1404,-47.4043,-1.74829,0
63.0943,-47.3511,-1.74204,0
63.047,-47.299,-1.73562,0
62.9983,-47.2479,-1.72902,0
62.9485,-47.1978,-1.72225,0
62.8976,-47.1489,-1.71532,0
62.8455,-47.101,-1.70822,0
62.7923,-47.0544,-1.70096,0
62.738,-47.0088,-1.69355,0
62.6825,-46.9646,-1.68597,0
62.6261,-46.9215,-1.67825,0
62.5685,-46.8797,-1.67039,0
62.51,-46.8392,-1.66237,0
62.4503,-46.8004,-1.65438,0
62.3891,-46.7638,-1.64657,0
62.3272,-46.7286,-1.63864,0
62.2643,-46.6948,-1.6306,0
62.8259,-52.149,-1.56964,0
62.8801,-52.1003,-1.57961,0
62.933,-52.0505,-1.58948,0
62.9846,-51.9995,-1.59925,0
63.0349,-51.9474,-1.60889,0
63.0839,-51.8942,-1.61841,0
63.1316,-51.8399,-1.62781,0
63.1779,-51.7847,-1.63708,0
63.2228,-51.7284,-1.64621,0
63.2663,-51.6712,-1.6552,0
63.3084,-51.6131,-1.66405,0
63.3491,-51.5542,-1.67274,0
63.3882,-51.4944,-1.68129,0
63.4259,-51.4338,-1.68967,0
63.4622,-51.3725,-1.6979,0
63.497,-51.3104,-1.70597,0
63.5303,-51.2477,-1.71386,0
63.5621,-51.1843,-1.72158,0
63.5923,-51.1204,-1.72915,0
63.6211,-51.0559,-1.73653,0
63.6483,-50.9908,-1.74372,0
63.674,-50.9253,-1.75073,0
63.6999,-50.8601,-1.75699,0
63.7277,-50.7958,-1.76198,0
63.7541,-50.7309,-1.76681,0
63.779,-50.6655,-1.77143,0
63.8025,-50.5996,-1.77588,0
63.8245,-50.5331,-1.78013,0
63.8451,-50.4662,-1.7842,0
63.8641,-50.3988,-1.78807,0
63.8817,-50.3311,-1.79175,0
63.8978,-50.263,-1.79524,0
63.9125,-50.1946,-1.79852,0
63.9257,-50.1258,-1.80161,0
63.9373,-50.0568,-1.8045,0
63.9473,-49.9876,-1.80719,0
63.9559,-49.9181,-1.80968,0
63.963,-49.8485,-1.81196,0
63.9687,-49.7788,-1.81404,0
63.9727,-49.7089,-1.81592,0
63.9752,-49.639,-1.81759,0
63.9762,-49.569,-1.81906,0
63.9757,-49.499,-1.82031,0
63.9736,-49.429,-1.82136,0
63.9697,-49.3592,-1.8223,0
63.9634,-49.2895,-1.82326,0
63.9557,-49.2199,-1.82401,0
63.9463,-49.1506,-1.82455,0
63.9355,-49.0815,-1.82489,0
63.9232,-49.0127,-1.82503,0
63.9093,-48.9442,-1.82497,0
63.8939,-48.8761,-1.8247,0
63.877,-48.8083,-1.82423,0
63.8587,-48.7409,-1.82356,0
63.8388,-48.674,-1.82267,0
63.8176,-48.6076,-1.82159,0
63.7948,-48.5416,-1.82031,0
63.7705,-48.4762,-1.81883,0
63.745,-48.4113,-1.81715,0
63.7198,-48.3463,-1.81471,0
63.6932,-48.2818,-1.81207,0
63.6651,-48.2179,-1.80923,0
63.6356,-48.1547,-1.8062,0
63.6047,-48.0921,-1.80299,0
63.5723,-48.0301,-1.79958,0
63.5387,-47.9689,-1.79599,0
63.5035,-47.9085,-1.7922,0
63.4671,-47.8488,-1.78823,0
63.4293,-47.7899,-1.78407,0
63.3902,-47.7319,-1.77974,0
63.3498,-47.6748,-1.77522,0
63.3081,-47.6185,-1.77053,0
63.2661,-47.5624,-1.76528,0
63.2236,-47.5066,-1.75955,0
63.1798,-47.4517,-1.75363,0
63.1348,-47.3977,-1.74753,0
63.0885,-47.3447,-1.74126,0
63.0409,-47.2926,-1.73481,0
62.9923,-47.2417,-1.7282,0
62.9423,-47.1917,-1.72141,0
62.8912,-47.1429,-1.71445,0
62.839,-47.0952,-1.70733,0
62.7856,-47.0487,-1.70006,0
62.7312,-47.0033,-1.69262,0
62.6756,-46.9592,-1.68503,0
62.619,-46.9163,-1.67729,0
62.5614,-46.8746,-1.6694,0
62.5028,-46.8343,-1.66138,0
62.4428,-46.7958,-1.65342,0
62.3816,-46.7594,-1.6456,0
62.3195,-46.7243,-1.63765,0
62.2566,-46.6908,-1.6296,0
62.8327,-52.143,-1.57087,0
62.8866,-52.0943,-1.58084,0
62.9394,-52.0443,-1.5907,0
62.9909,-51.9932,-1.60044,0
63.041,-51.9409,-1.61007,0
63.0899,-51.8876,-1.61958,0
63.1374,-51.8332,-1.62897,0
63.1834,-51.7778,-1.63821,0
63.2283,-51.7214,-1.64732,0
63.2716,-51.6641,-1.6563,0
63.3134,-51.6059,-1.66512,0
63.3539,-51.5468,-1.6738,0
63.393,-51.4869,-1.68233,0
63.4305,-51.4263,-1.6907,0
63.4666,-51.3648,-1.69891,0
63.5012,-51.3027,-1.70695,0
63.5343,-51.2399,-1.71483,0
63.5659,-51.1765,-1.72253,0
63.5959,-51.1125,-1.73006,0
63.6245,-51.0479,-1.73741,0
63.3116,-47.7255,-1.76963,0
63.271,-47.6702,-1.76506,0
63.2298,-47.6152,-1.76007,0
63.1884,-47.5603,-1.75448,0
63.1458,-47.5063,-1.74872,0
63.1019,-47.4532,-1.74278,0
63.0567,-47.401,-1.73667,0
63.0105,-47.3498,-1.73038,0
62.963,-47.2997,-1.72393,0
62.9142,-47.2505,-1.71731,0
62.8644,-47.2025,-1.71052,0
62.8134,-47.1555,-1.70358,0
62.7613,-47.1097,-1.69648,0
62.7082,-47.065,-1.68923,0
62.6539,-47.0215,-1.68181,0
62.5987,-46.9792,-1.67426,0
62.5423,-46.9382,-1.66656,0
62.4852,-46.8984,-1.65872,0
62.4264,-46.8607,-1.65109,0
62.3666,-46.8247,-1.64344,0
62.3059,-46.7901,-1.6357,0
62.2445,-46.7569,-1.62783,0
62.7795,-52.1006,-1.56592,0
62.8327,-52.0532,-1.57571,0
62.8848,-52.0047,-1.58539,0
62.9355,-51.955,-1.59497,0
62.9851,-51.9041,-1.60444,0
63.0334,-51.8523,-1.61379,0
63.0802,-51.7993,-1.62301,0
63.1259,-51.7454,-1.63211,0
63.1701,-51.6905,-1.64108,0
63.213,-51.6347,-1.64991,0
63.2544,-51.578,-1.6586,0
63.2945,-51.5204,-1.66715,0
63.3332,-51.462,-1.67554,0
63.3705,-51.4028,-1.68379,0
63.4062,-51.3429,-1.69187,0
63.4405,-51.2823,-1.69981,0
63.4735,-51.221,-1.70758,0
63.5048,-51.159,-1.71518,0
63.5349,-51.0965,-1.72261,0
63.5633,-51.0334,-1.72987,0
63.5903,-50.9698,-1.73696,0
63.6158,-50.9057,-1.74387,0
63.6428,-50.8425,-1.74956,0
63.6702,-50.7796,-1.75448,0
63.6962,-50.716,-1.75923,0
63.7209,-50.6519,-1.7638,0
63.7441,-50.5873,-1.76818,0
63.7659,-50.5222,-1.77237,0
63.7862,-50.4566,-1.77639,0
63.8052,-50.3906,-1.78021,0
63.8226,-50.3242,-1.78385,0
63.8387,-50.2575,-1.78729,0
63.8532,-50.1904,-1.79054,0
63.8662,-50.123,-1.7936,0
63.8779,-50.0554,-1.79645,0
63.888,-49.9875,-1.79912,0
63.8966,-49.9194,-1.80158,0
63.9037,-49.8512,-1.80385,0
63.9094,-49.7828,-1.80591,0
63.9135,-49.7142,-1.80778,0
63.9162,-49.6457,-1.80945,0
63.9173,-49.577,-1.8109,0
63.9171,-49.5084,-1.81216,0
63.9152,-49.4398,-1.81322,0
63.9108,-49.3713,-1.81437,0
63.9049,-49.3029,-1.81533,0
63.8975,-49.2347,-1.81609,0
63.8886,-49.1667,-1.81665,0
63.8781,-49.099,-1.81701,0
63.8662,-49.0315,-1.81717,0
63.8527,-48.9642,-1.81714,0
63.8379,-48.8974,-1.81691,0
63.8216,-48.8309,-1.81646,0
63.8037,-48.7648,-1.81582,0
63.7845,-48.6991,-1.81499,0
63.7638,-48.6338,-1.81396,0
63.7417,-48.5691,-1.81273,0
63.7182,-48.5049,-1.81131,0
63.6932,-48.4412,-1.80968,0
63.6678,-48.3777,-1.80757,0
63.6419,-48.3145,-1.805,0
63.6145,-48.2518,-1.80224,0
63.5857,-48.1897,-1.7993,0
63.5555,-48.1283,-1.79616,0
63.5241,-48.0675,-1.79285,0
63.4911,-48.0074,-1.78934,0
63.4569,-47.9481,-1.78564,0
63.4212,-47.8895,-1.78177,0
63.3843,-47.8317,-1.77772,0
63.3462,-47.7747,-1.77348,0
63.3066,-47.7186,-1.76907,0
63.2659,-47.6634,-1.76449,0
63.2248,-47.6084,-1.75939,0
63.1832,-47.5536,-1.75378,0
63.1404,-47.4997,-1.74799,0
63.0964,-47.4467,-1.74203,0
63.0512,-47.3947,-1.73591,0
63.0046,-47.3436,-1.72959,0
62.957,-47.2936,-1.72313,0
62.9081,-47.2446,-1.71648,0
62.8581,-47.1967,-1.70967,0
62.807,-47.1498,-1.70271,0
62.7548,-47.1041,-1.69559,0
62.7016,-47.0596,-1.68832,0
62.6472,-47.0162,-1.68089,0
62.5917,-46.9741,-1.67332,0
62.5355,-46.9332,-1.66561,0
62.478,-46.8936,-1.65775,0
62.4191,-46.8562,-1.65015,0
62.3591,-46.8204,-1.6425,0
62.2984,-46.786,-1.63473,0
62.2368,-46.753,-1.62685,0
62.7861,-52.0948,-1.56713,0
62.8392,-52.0473,-1.57691,0
62.8911,-51.9986,-1.58658,0
62.9417,-51.9488,-1.59614,0
62.9911,-51.8978,-1.6056,0
63.0391,-51.8458,-1.61493,0
63.0859,-51.7928,-1.62414,0
63.1313,-51.7387,-1.63322,0
63.1754,-51.6837,-1.64217,0
63.2181,-51.6277,-1.65099,0
63.2595,-51.5709,-1.65966,0
63.2994,-51.5132,-1.66819,0
63.3379,-51.4547,-1.67657,0
63.3749,-51.3955,-1.68479,0
63.4105,-51.3355,-1.69286,0
63.4447,-51.2747,-1.70078,0
63.4774,-51.2134,-1.70852,0
63.5087,-51.1514,-1.7161,0
63.5384,-51.0888,-1.72352,0
63.5667,-51.0256,-1.73075,0
63.5934,-50.962,-1.73781,0
63.6188,-50.8978,-1.7447,0
63.6462,-50.8348,-1.75018,0
63.6735,-50.7718,-1.75508,0
63.6994,-50.7082,-1.7598,0
63.7238,-50.644,-1.76435,0
63.7469,-50.5793,-1.76871,0
63.7684,-50.5141,-1.77288,0
63.7887,-50.4485,-1.77686,0
63.8073,-50.3825,-1.78067,0
63.8247,-50.316,-1.78428,0
63.8405,-50.2492,-1.7877,0
63.8548,-50.1821,-1.79092,0
63.8677,-50.1147,-1.79396,0
63.8791,-50.047,-1.79679,0
63.8891,-49.9791,-1.79943,0
63.8976,-49.911,-1.80187,0
63.9045,-49.8427,-1.80411,0
63.91,-49.7743,-1.80615,0
63.914,-49.7058,-1.80799,0
63.9165,-49.6372,-1.80964,0
63.9174,-49.5686,-1.81107,0
63.917,-49.4999,-1.8123,0
63.9148,-49.4313,-1.81336,0
63.9102,-49.3629,-1.81449,0
63.9041,-49.2945,-1.81543,0
63.8965,-49.2263,-1.81617,0
63.8873,-49.1584,-1.81671,0
63.8767,-49.0906,-1.81704,0
63.8646,-49.0232,-1.81717,0
63.851,-48.956,-1.81712,0
63.8359,-48.8892,-1.81685,0
63.8195,-48.8227,-1.8164,0
63.8015,-48.7566,-1.81574,0
63.782,-48.691,-1.81488,0
63.7612,-48.6258,-1.81382,0
63.7389,-48.5612,-1.81257,0
63.7152,-48.497,-1.81112,0
63.6901,-48.4334,-1.80946,0
63.6647,-48.3699,-1.80726,0
63.6386,-48.3067,-1.80467,0
63.611,-48.2441,-1.80189,0
63.5821,-48.1821,-1.79892,0
63.5518,-48.1207,-1.79576,0
63.52,-48.06,-1.79242,0
63.4869,-48.0001,-1.7889,0
63.4526,-47.9408,-1.78518,0
63.4168,-47.8823,-1.78128,0
63.3797,-47.8246,-1.7772,0
63.3413,-47.7678,-1.77295,0
63.3017,-47.7118,-1.76851,0
63.2609,-47.6567,-1.76391,0
63.2198,-47.6016,-1.7587,0
63.178,-47.5469,-1.75307,0
63.1351,-47.4931,-1.74727,0
63.0909,-47.4402,-1.74129,0
63.0455,-47.3883,-1.73513,0
62.9988,-47.3374,-1.72881,0
62.951,-47.2875,-1.72232,0
62.902,-47.2386,-1.71565,0
62.852,-47.1908,-1.70883,0
62.8007,-47.1441,-1.70185,0
62.7483,-47.0986,-1.6947,0
62.6949,-47.0542,-1.68741,0
62.6404,-47.011,-1.67997,0
62.5849,-46.969,-1.67238,0
62.5284,-46.9282,-1.66465,0
62.4709,-46.8888,-1.65677,0
62.4118,-46.8517,-1.64922,0
62.3518,-46.8161,-1.64154,0
62.2909,-46.7818,-1.63376,0
62.2291,-46.749,-1.62587,0
62.7927,-52.089,-1.56834,0
62.8457,-52.0414,-1.5781,0
62.8974,-51.9925,-1.58776,0
62.9479,-51.9426,-1.59732,0
62.9971,-51.8915,-1.60675,0
63.045,-51.8393,-1.61607,0
63.0916,-51.7861,-1.62527,0
63.1369,-51.732,-1.63433,0
63.1808,-51.6768,-1.64326,0
63.2233,-51.6208,-1.65205,0
63.2645,-51.5639,-1.66071,0
63.3041,-51.5061,-1.66922,0
63.3425,-51.4475,-1.67758,0
63.3794,-51.3881,-1.68579,0
63.4148,-51.328,-1.69384,0
63.4487,-51.2672,-1.70174,0
63.4813,-51.2058,-1.70946,0
63.5124,-51.1437,-1.71702,0
63.542,-51.081,-1.72441,0
63.5701,-51.0178,-1.73164,0
63.2649,-47.761,-1.76312,0
63.2251,-47.7068,-1.75865,0
63.1848,-47.6528,-1.75369,0
63.1442,-47.599,-1.7482,0
63.1023,-47.5461,-1.74255,0
63.0592,-47.4941,-1.73672,0
63.0149,-47.443,-1.73071,0
62.9695,-47.3929,-1.72454,0
62.9228,-47.3437,-1.71821,0
62.875,-47.2956,-1.71171,0
62.8261,-47.2486,-1.70506,0
62.7761,-47.2026,-1.69824,0
62.725,-47.1577,-1.69128,0
62.6728,-47.1139,-1.68415,0
62.6197,-47.0714,-1.67689,0
62.5655,-47.03,-1.66948,0
62.5102,-46.9898,-1.66193,0
62.4538,-46.9511,-1.65437,0
62.3961,-46.9146,-1.64699,0
62.3375,-46.8794,-1.63949,0
62.278,-46.8455,-1.6319,0
62.2177,-46.813,-1.62419,0
62.7412,-52.0482,-1.56353,0
62.7934,-52.0019,-1.57313,0
62.8445,-51.9544,-1.58261,0
62.8943,-51.9058,-1.592,0
62.9429,-51.8561,-1.60129,0
62.9902,-51.8054,-1.61045,0
63.0362,-51.7536,-1.61949,0
63.081,-51.7009,-1.62841,0
63.1245,-51.6472,-1.6372,0
63.1665,-51.5926,-1.64586,0
63.2072,-51.5371,-1.65438,0
63.2466,-51.4807,-1.66276,0
63.2846,-51.4236,-1.671,0
63.3212,-51.3657,-1.67909,0
63.3563,-51.307,-1.68703,0
63.3902,-51.2477,-1.69481,0
63.4225,-51.1876,-1.70243,0
63.4534,-51.127,-1.70989,0
63.4828,-51.0658,-1.71718,0
63.5109,-51.004,-1.72431,0
63.5373,-50.9417,-1.73128,0
63.5627,-50.8791,-1.73797,0
63.591,-50.8179,-1.74298,0
63.6179,-50.7561,-1.7478,0
63.6434,-50.6938,-1.75246,0
63.6676,-50.6309,-1.75694,0
63.6904,-50.5675,-1.76124,0
63.7118,-50.5037,-1.76537,0
63.7317,-50.4393,-1.7693,0
63.7503,-50.3746,-1.77305,0
63.7675,-50.3095,-1.77662,0
63.7832,-50.244,-1.78,0
63.7974,-50.1782,-1.78319,0
63.8103,-50.1121,-1.78619,0
63.8217,-50.0458,-1.789,0
63.8316,-49.9792,-1.7916,0
63.8401,-49.9124,-1.79403,0
63.8471,-49.8454,-1.79625,0
63.8526,-49.7783,-1.79828,0
63.8566,-49.7111,-1.80011,0
63.8593,-49.6438,-1.80174,0
63.8605,-49.5765,-1.80318,0
63.8602,-49.5092,-1.80441,0
63.8576,-49.4419,-1.80567,0
63.8533,-49.3747,-1.80682,0
63.8475,-49.3076,-1.80776,0
63.8402,-49.2408,-1.8085,0
63.8314,-49.1741,-1.80906,0
63.8212,-49.1076,-1.80942,0
63.8095,-49.0414,-1.80958,0
63.7964,-48.9755,-1.80954,0
63.7818,-48.9099,-1.80932,0
63.7659,-48.8446,-1.80889,0
63.7484,-48.7798,-1.80826,0
63.7295,-48.7154,-1.80745,0
63.7092,-48.6514,-1.80644,0
63.6875,-48.5879,-1.80524,0
63.6645,-48.5249,-1.80383,0
63.64,-48.4625,-1.80224,0
63.6145,-48.4004,-1.80037,0
63.589,-48.3384,-1.79784,0
63.5622,-48.277,-1.79514,0
63.5339,-48.2161,-1.79224,0
63.5043,-48.1558,-1.78917,0
63.4734,-48.0963,-1.78591,0
63.441,-48.0374,-1.78247,0
63.4075,-47.9792,-1.77885,0
63.3725,-47.9218,-1.77504,0
63.3363,-47.8651,-1.77107,0
63.2988,-47.8093,-1.76692,0
63.2601,-47.7543,-1.76258,0
63.2201,-47.7002,-1.75808,0
63.1798,-47.6461,-1.75302,0
63.1391,-47.5924,-1.74752,0
63.097,-47.5396,-1.74184,0
63.0538,-47.4877,-1.73598,0
63.0094,-47.4368,-1.72997,0
62.9637,-47.3868,-1.72377,0
62.917,-47.3377,-1.71742,0
62.8691,-47.2898,-1.7109,0
62.82,-47.2428,-1.70423,0
62.7698,-47.197,-1.69739,0
62.7187,-47.1522,-1.6904,0
62.6663,-47.1086,-1.68327,0
62.613,-47.0662,-1.67599,0
62.5587,-47.025,-1.66856,0
62.5034,-46.9849,-1.66099,0
62.4469,-46.9466,-1.65346,0
62.3889,-46.9102,-1.64608,0
62.3302,-46.8751,-1.63857,0
62.2706,-46.8414,-1.63095,0
62.2102,-46.8091,-1.62323,0
62.7477,-52.0426,-1.56472,0
62.7998,-51.9961,-1.5743,0
62.8507,-51.9485,-1.58378,0
62.9004,-51.8998,-1.59315,0
62.9487,-51.85,-1.60241,0
62.9959,-51.7991,-1.61156,0
63.0418,-51.7472,-1.62059,0
63.0864,-51.6943,-1.6295,0
63.1296,-51.6405,-1.63827,0
63.1716,-51.5858,-1.64692,0
63.2122,-51.5302,-1.65542,0
63.2513,-51.4737,-1.66378,0
63.2891,-51.4165,-1.672,0
63.3256,-51.3585,-1.68007,0
63.3605,-51.2997,-1.68799,0
63.3942,-51.2403,-1.69576,0
63.4263,-51.1802,-1.70336,0
63.4571,-51.1195,-1.7108,0
63.4863,-51.0582,-1.71807,0
63.5141,-50.9964,-1.72518,0
63.5405,-50.934,-1.73212,0
63.5662,-50.8716,-1.7386,0
63.5944,-50.8103,-1.74359,0
63.6211,-50.7485,-1.74839,0
63.6465,-50.6861,-1.75303,0
63.6705,-50.6231,-1.75748,0
63.693,-50.5597,-1.76176,0
63.7143,-50.4958,-1.76586,0
63.7341,-50.4314,-1.76978,0
63.7525,-50.3666,-1.7735,0
