73.4194,-50.7285,-3.15288,0
73.447,-50.6289,-3.16381,0
73.4723,-50.529,-3.17435,0
73.4951,-50.4289,-3.18451,0
73.5155,-50.3287,-3.19426,0
73.5335,-50.2284,-3.20363,0
73.5492,-50.128,-3.2126,0
73.5625,-50.0278,-3.22118,0
73.5735,-49.9275,-3.22936,0
73.5823,-49.8275,-3.23716,0
73.5887,-49.7276,-3.24456,0
73.5939,-49.6282,-3.25141,0
73.6024,-49.53,-3.25707,0
73.609,-49.4319,-3.26234,0
73.6134,-49.3339,-3.26721,0
73.6159,-49.2361,-3.2717,0
73.6162,-49.1385,-3.27579,0
73.6146,-49.041,-3.27948,0
73.611,-48.9439,-3.28279,0
73.6055,-48.847,-3.28571,0
73.5978,-48.7505,-3.28825,0
73.5883,-48.6544,-3.29039,0
73.5769,-48.5586,-3.29216,0
73.5635,-48.4633,-3.29353,0
73.5532,-48.368,-3.29384,0
73.547,-48.2723,-3.29296,0
73.5387,-48.1767,-3.29169,0
73.5284,-48.0812,-3.29005,0
73.5162,-47.9858,-3.28803,0
73.502,-47.8905,-3.28563,0
73.4858,-47.7955,-3.28285,0
73.4675,-47.7008,-3.27969,0
73.4473,-47.6063,-3.27616,0
73.4252,-47.5121,-3.27225,0
73.4009,-47.4184,-3.26797,0
73.3736,-47.3254,-3.26348,0
73.3432,-47.2334,-3.25878,0
73.3109,-47.1419,-3.25371,0
73.2766,-47.0511,-3.24828,0
73.2403,-46.961,-3.24249,0
73.202,-46.8716,-3.23632,0
73.1619,-46.783,-3.2298,0
73.1198,-46.6951,-3.22292,0
73.0759,-46.6082,-3.21568,0
73.03,-46.5221,-3.20809,0
72.9823,-46.4369,-3.20013,0
72.9327,-46.3527,-3.19184,0
72.8812,-46.2695,-3.18319,0
72.828,-46.1873,-3.17419,0
72.7727,-46.1063,-3.16485,0
72.7159,-46.0263,-3.15517,0
72.6572,-45.9476,-3.14516,0
72.6051,-45.8627,-3.13293,0
72.5516,-45.7782,-3.12016,0
72.4959,-45.6946,-3.10704,0
72.4379,-45.6121,-3.09355,0
72.3779,-45.5307,-3.07971,0
72.3137,-45.4527,-3.06609,0
72.2458,-45.3779,-3.05255,0
72.176,-45.3046,-3.03872,0
72.1041,-45.233,-3.02465,0
72.0302,-45.1632,-3.0103,0
71.9544,-45.0952,-2.99571,0
71.8767,-45.0291,-2.98088,0
71.7971,-44.9649,-2.96582,0
71.7158,-44.9028,-2.95054,0
71.6326,-44.8427,-2.93503,0
71.5478,-44.7848,-2.91934,0
71.4613,-44.729,-2.90345,0
71.3733,-44.6755,-2.88739,0
72.4657,-52.8825,-2.77459,0
72.5396,-52.7886,-2.79677,0
72.6105,-52.6931,-2.81861,0
72.6784,-52.5961,-2.84012,0
72.7433,-52.4977,-2.86126,0
72.8052,-52.398,-2.88204,0
72.8641,-52.2972,-2.90243,0
72.9199,-52.1954,-2.92242,0
72.9729,-52.0927,-2.942,0
73.0227,-51.9891,-2.96117,0
73.0697,-51.8849,-2.97991,0
73.1136,-51.7801,-2.99822,0
73.1547,-51.6747,-3.0161,0
73.1929,-51.569,-3.03352,0
73.2281,-51.463,-3.05049,0
73.2605,-51.3568,-3.06702,0
73.2902,-51.2505,-3.08308,0
73.3171,-51.1441,-3.09868,0
73.3412,-51.0378,-3.11383,0
73.3627,-50.9317,-3.12849,0
73.3888,-50.8294,-3.14138,0
73.419,-50.7302,-3.15269,0
73.4466,-50.6306,-3.16362,0
73.4718,-50.5307,-3.17418,0
73.4947,-50.4306,-3.18433,0
73.5151,-50.3304,-3.1941,0
73.5332,-50.2301,-3.20347,0
73.549,-50.1297,-3.21245,0
73.5623,-50.0294,-3.22104,0
73.5734,-49.9292,-3.22923,0
73.5821,-49.8292,-3.23702,0
73.5886,-49.7293,-3.24443,0
73.5938,-49.6298,-3.25132,0
73.6023,-49.5317,-3.25698,0
73.6088,-49.4336,-3.26225,0
73.6134,-49.3356,-3.26714,0
73.6159,-49.2378,-3.27162,0
73.6162,-49.1401,-3.27571,0
73.6146,-49.0427,-3.27943,0
73.6111,-48.9455,-3.28274,0
73.6055,-48.8487,-3.28567,0
73.598,-48.7521,-3.2882,0
73.5884,-48.656,-3.29035,0
73.5771,-48.5602,-3.29213,0
73.5638,-48.4649,-3.29352,0
73.5534,-48.3696,-3.29385,0
73.5471,-48.2739,-3.29297,0
73.5388,-48.1783,-3.29171,0
73.5286,-48.0828,-3.29008,0
73.5164,-47.9874,-3.28807,0
73.5022,-47.8921,-3.28567,0
73.4861,-47.7971,-3.2829,0
73.4679,-47.7023,-3.27976,0
73.4477,-47.6079,-3.27623,0
73.4255,-47.5137,-3.27232,0
73.4014,-47.4199,-3.26804,0
73.3741,-47.327,-3.26356,0
73.3438,-47.2349,-3.25886,0
73.3115,-47.1435,-3.2538,0
73.2772,-47.0527,-3.24837,0
73.2409,-46.9625,-3.24259,0
73.2027,-46.8731,-3.23643,0
73.1627,-46.7845,-3.22992,0
73.1205,-46.6966,-3.22304,0
73.0766,-46.6096,-3.2158,0
73.0309,-46.5235,-3.20821,0
72.9831,-46.4383,-3.20027,0
72.9335,-46.3541,-3.19198,0
72.8821,-46.2709,-3.18333,0
72.8288,-46.1887,-3.17434,0
72.7738,-46.1076,-3.16501,0
72.7169,-46.0277,-3.15533,0
72.6582,-45.9489,-3.14532,0
72.6059,-45.8642,-3.13313,0
72.5524,-45.7796,-3.12038,0
72.4967,-45.696,-3.10726,0
72.4389,-45.6135,-3.09379,0
72.379,-45.5321,-3.07995,0
72.3148,-45.454,-3.06631,0
72.247,-45.3791,-3.05278,0
72.1772,-45.3058,-3.03897,0
72.1053,-45.2342,-3.02488,0
72.0315,-45.1644,-3.01055,0
71.9558,-45.0963,-2.99597,0
71.878,-45.0302,-2.98113,0
71.7985,-44.966,-2.96608,0
71.7172,-44.9038,-2.95079,0
71.6341,-44.8437,-2.9353,0
71.5492,-44.7857,-2.91961,0
71.4628,-44.73,-2.90373,0
71.3748,-44.6764,-2.88766,0
72.3713,-52.7461,-2.77301,0
72.4433,-52.6559,-2.79448,0
72.5124,-52.5641,-2.81563,0
72.5787,-52.4709,-2.83647,0
72.642,-52.3763,-2.85696,0
72.7025,-52.2805,-2.8771,0
72.7602,-52.1835,-2.89688,0
72.8148,-52.0855,-2.91627,0
72.8667,-51.9866,-2.93528,0
72.9157,-51.8868,-2.9539,0
72.9618,-51.7864,-2.97212,0
73.0052,-51.6853,-2.98991,0
73.0455,-51.5838,-3.00729,0
73.0832,-51.4818,-3.02425,0
73.1181,-51.3795,-3.04077,0
73.1503,-51.2769,-3.05688,0
73.1798,-51.1742,-3.07253,0
73.2065,-51.0714,-3.08773,0
73.2306,-50.9687,-3.10251,0
73.2542,-50.8671,-3.11643,0
73.2862,-50.7711,-3.12786,0
73.3159,-50.6746,-3.13892,0
73.343,-50.5778,-3.14961,0
73.368,-50.4807,-3.15993,0
73.3905,-50.3834,-3.16986,0
73.4108,-50.286,-3.17942,0
73.4287,-50.1884,-3.18859,0
73.4443,-50.0908,-3.19738,0
73.4577,-49.9932,-3.2058,0
73.4688,-49.8957,-3.21382,0
73.4777,-49.7983,-3.22147,0
73.4876,-49.7019,-3.22822,0
73.4981,-49.606,-3.23417,0
73.5067,-49.5102,-3.23973,0
73.5132,-49.4144,-3.2449,0
73.5178,-49.3187,-3.2497,0
73.5203,-49.2232,-3.25411,0
73.5209,-49.1278,-3.25813,0
73.5195,-49.0327,-3.26177,0
73.5161,-48.9378,-3.26504,0
73.5108,-48.8432,-3.26791,0
73.5036,-48.7489,-3.27042,0
73.4944,-48.6549,-3.27255,0
73.4834,-48.5614,-3.2743,0
73.4704,-48.4683,-3.27566,0
73.4597,-48.3752,-3.27607,0
73.4534,-48.2818,-3.27518,0
73.4452,-48.1883,-3.27392,0
73.4351,-48.095,-3.2723,0
73.423,-48.0018,-3.27029,0
73.409,-47.9088,-3.26794,0
73.393,-47.816,-3.2652,0
73.3751,-47.7235,-3.26209,0
73.3552,-47.6313,-3.25861,0
73.3334,-47.5393,-3.25476,0
73.3095,-47.4478,-3.25056,0
73.2816,-47.3574,-3.24632,0
73.2519,-47.2676,-3.24171,0
73.2202,-47.1784,-3.23674,0
73.1866,-47.0897,-3.23142,0
73.1511,-47.0018,-3.22573,0
73.1136,-46.9146,-3.2197,0
73.0744,-46.8281,-3.21331,0
73.0332,-46.7424,-3.20657,0
72.9902,-46.6576,-3.19948,0
72.9452,-46.5736,-3.19204,0
72.8984,-46.4905,-3.18425,0
72.8499,-46.4084,-3.17613,0
72.7995,-46.3273,-3.16765,0
72.7474,-46.2471,-3.15885,0
72.6934,-46.1681,-3.14971,0
72.6378,-46.0902,-3.14024,0
72.5803,-46.0134,-3.13044,0
72.5216,-45.9375,-3.12021,0
72.4691,-45.8555,-3.10774,0
72.4145,-45.7745,-3.09491,0
72.3578,-45.6945,-3.08174,0
72.296,-45.6188,-3.06902,0
72.2319,-45.5448,-3.05611,0
72.1658,-45.4723,-3.04293,0
72.0977,-45.4014,-3.02947,0
72.0276,-45.3322,-3.01576,0
71.9557,-45.2646,-3.0018,0
71.8818,-45.1989,-2.98761,0
71.8061,-45.1349,-2.97318,0
71.7287,-45.0729,-2.95852,0
71.6495,-45.0128,-2.94367,0
71.5685,-44.9548,-2.9286,0
71.4859,-44.8988,-2.91333,0
71.4019,-44.8449,-2.8979,0
71.3162,-44.7933,-2.88229,0
72.3701,-52.7476,-2.77264,0
72.442,-52.6574,-2.79412,0
72.5112,-52.5657,-2.81528,0
72.5776,-52.4725,-2.83612,0
72.6409,-52.3779,-2.85662,0
72.7015,-52.2821,-2.87676,0
72.7592,-52.1851,-2.89654,0
72.8139,-52.0871,-2.91595,0
72.8659,-51.9882,-2.93496,0
72.9148,-51.8885,-2.95359,0
72.961,-51.7881,-2.97182,0
73.0044,-51.687,-2.98962,0
73.0449,-51.5855,-3.00701,0
73.0827,-51.4835,-3.02397,0
73.1176,-51.3812,-3.0405,0
73.1498,-51.2787,-3.0566,0
73.1793,-51.176,-3.07226,0
73.2061,-51.0732,-3.08749,0
73.2302,-50.9704,-3.10226,0
73.2537,-50.8687,-3.11623,0
73.2857,-50.7727,-3.12767,0
73.3153,-50.6762,-3.13874,0
73.3426,-50.5794,-3.14944,0
73.3676,-50.4824,-3.15975,0
73.3902,-50.3851,-3.1697,0
73.4105,-50.2876,-3.17925,0
73.4284,-50.1901,-3.18844,0
73.4441,-50.0925,-3.19724,0
73.4575,-49.9949,-3.20566,0
73.4687,-49.8974,-3.21369,0
73.4776,-49.8,-3.22134,0
73.4874,-49.7035,-3.22812,0
73.498,-49.6076,-3.23407,0
73.5066,-49.5118,-3.23964,0
73.5131,-49.416,-3.24482,0
73.5177,-49.3203,-3.24962,0
73.5203,-49.2248,-3.25403,0
73.5209,-49.1295,-3.25806,0
73.5195,-49.0343,-3.26172,0
73.5162,-48.9394,-3.26499,0
73.5109,-48.8448,-3.26787,0
73.5037,-48.7505,-3.27038,0
73.4945,-48.6565,-3.27251,0
73.4835,-48.563,-3.27427,0
73.4706,-48.4699,-3.27564,0
73.4598,-48.3768,-3.27609,0
73.4536,-48.2833,-3.2752,0
73.4454,-48.1899,-3.27395,0
73.4352,-48.0966,-3.27233,0
73.4233,-48.0034,-3.27034,0
73.4092,-47.9104,-3.26798,0
73.3934,-47.8176,-3.26525,0
73.3754,-47.7251,-3.26214,0
73.3555,-47.6328,-3.25867,0
73.3337,-47.5409,-3.25483,0
73.3099,-47.4494,-3.25063,0
73.2822,-47.359,-3.24639,0
73.2524,-47.2691,-3.24179,0
73.2208,-47.1799,-3.23683,0
73.1872,-47.0912,-3.23151,0
73.1517,-47.0033,-3.22583,0
73.1143,-46.916,-3.2198,0
73.075,-46.8295,-3.21342,0
73.0338,-46.7439,-3.20669,0
72.9909,-46.659,-3.1996,0
72.9459,-46.575,-3.19216,0
72.8993,-46.4919,-3.18439,0
72.8507,-46.4098,-3.17627,0
72.8004,-46.3286,-3.16781,0
72.7483,-46.2485,-3.15901,0
72.6945,-46.1694,-3.14987,0
72.6387,-46.0915,-3.1404,0
72.5813,-46.0147,-3.1306,0
72.5224,-45.9389,-3.12043,0
72.47,-45.8569,-3.10796,0
72.4155,-45.7758,-3.09513,0
72.3588,-45.6959,-3.08195,0
72.2972,-45.6201,-3.06924,0
72.233,-45.546,-3.05633,0
72.167,-45.4735,-3.04315,0
72.0988,-45.4026,-3.0297,0
72.0288,-45.3333,-3.016,0
71.9569,-45.2658,-3.00204,0
71.883,-45.2,-2.98784,0
71.8074,-45.136,-2.97342,0
71.7299,-45.0739,-2.95878,0
71.6508,-45.0138,-2.94392,0
71.5699,-44.9557,-2.92886,0
71.4874,-44.8997,-2.9136,0
71.4034,-44.8458,-2.89817,0
71.3177,-44.7941,-2.88255,0
72.3688,-52.7491,-2.77228,0
72.4409,-52.659,-2.79376,0
72.5102,-52.5673,-2.81492,0
72.5765,-52.4741,-2.83577,0
72.6399,-52.3795,-2.85628,0
72.7005,-52.2837,-2.87643,0
72.7582,-52.1868,-2.89621,0
72.813,-52.0888,-2.91563,0
72.865,-51.9899,-2.93465,0
72.9141,-51.8902,-2.95328,0
72.9602,-51.7898,-2.9715,0
73.0037,-51.6888,-2.98932,0
73.0442,-51.5872,-3.00672,0
73.082,-51.4852,-3.02368,0
73.117,-51.3829,-3.04023,0
73.1493,-51.2804,-3.05633,0
73.1788,-51.1777,-3.072,0
73.2057,-51.0749,-3.08723,0
73.2298,-50.9722,-3.10201,0
73.2531,-50.8703,-3.11604,0
73.2852,-50.7743,-3.12748,0
73.3148,-50.6779,-3.13856,0
73.3422,-50.5811,-3.14926,0
73.3672,-50.484,-3.15958,0
73.3898,-50.3867,-3.16953,0
73.4102,-50.2893,-3.1791,0
73.4282,-50.1917,-3.18829,0
73.4438,-50.0941,-3.19709,0
73.4573,-49.9965,-3.20551,0
73.4684,-49.899,-3.21355,0
73.4774,-49.8016,-3.22122,0
73.4872,-49.7051,-3.22802,0
73.4978,-49.6092,-3.23397,0
73.5064,-49.5134,-3.23955,0
73.513,-49.4176,-3.24473,0
73.5177,-49.322,-3.24954,0
73.5202,-49.2264,-3.25396,0
73.5209,-49.1311,-3.258,0
73.5195,-49.0359,-3.26166,0
73.5163,-48.941,-3.26493,0
73.5109,-48.8464,-3.26782,0
73.5038,-48.7521,-3.27035,0
73.4948,-48.6581,-3.27248,0
73.4837,-48.5646,-3.27424,0
73.4709,-48.4714,-3.27563,0
73.4598,-48.3784,-3.2761,0
73.4537,-48.2849,-3.27522,0
73.4455,-48.1915,-3.27397,0
73.4355,-48.0982,-3.27236,0
73.4235,-48.005,-3.27037,0
73.4095,-47.912,-3.26802,0
73.3936,-47.8192,-3.26529,0
73.3758,-47.7266,-3.26219,0
73.3559,-47.6344,-3.25873,0
73.3342,-47.5424,-3.25489,0
73.3104,-47.4509,-3.2507,0
73.2827,-47.3605,-3.24647,0
73.253,-47.2706,-3.24187,0
73.2212,-47.1814,-3.23691,0
73.1877,-47.0927,-3.2316,0
73.1523,-47.0048,-3.22593,0
73.115,-46.9175,-3.21991,0
73.0757,-46.831,-3.21352,0
73.0346,-46.7453,-3.2068,0
72.9916,-46.6604,-3.19972,0
72.9468,-46.5764,-3.1923,0
72.9001,-46.4933,-3.18452,0
72.8516,-46.4111,-3.17641,0
72.8012,-46.33,-3.16795,0
72.7491,-46.2498,-3.15916,0
72.6953,-46.1708,-3.15003,0
72.6397,-46.0928,-3.14057,0
72.5823,-46.016,-3.13077,0
72.5234,-45.9403,-3.12063,0
72.4709,-45.8583,-3.10817,0
72.4164,-45.7772,-3.09535,0
72.3598,-45.6972,-3.08219,0
72.2982,-45.6213,-3.06945,0
72.2341,-45.5473,-3.05655,0
72.168,-45.4747,-3.04338,0
72.1,-45.4038,-3.02993,0
72.03,-45.3345,-3.01623,0
71.9581,-45.2669,-3.00229,0
71.8844,-45.2011,-2.9881,0
71.8087,-45.1371,-2.97367,0
71.7313,-45.075,-2.95903,0
71.6521,-45.0148,-2.94417,0
71.5713,-44.9567,-2.92911,0
71.4888,-44.9006,-2.91386,0
71.4048,-44.8467,-2.89843,0
71.3191,-44.795,-2.88282,0
72.2738,-52.6126,-2.7731,0
72.35,-52.5336,-2.79171,0
72.4178,-52.4457,-2.81214,0
72.4826,-52.356,-2.83235,0
72.5445,-52.265,-2.85224,0
72.6038,-52.1728,-2.87178,0
72.6602,-52.0794,-2.89099,0
72.7139,-51.985,-2.90985,0
72.7648,-51.8897,-2.92833,0
72.813,-51.7935,-2.94643,0
72.8584,-51.6966,-2.96416,0
72.9011,-51.5991,-2.98148,0
72.941,-51.5011,-2.9984,0
72.9783,-51.4026,-3.01493,0
73.0129,-51.3037,-3.03105,0
73.0448,-51.2046,-3.04674,0
73.0742,-51.1053,-3.06202,0
73.1009,-51.0059,-3.07687,0
73.1251,-50.9065,-3.0913,0
73.1559,-50.812,-3.10344,0
73.1874,-50.7186,-3.11463,0
73.2167,-50.6249,-3.12545,0
73.2436,-50.5308,-3.13591,0
73.2682,-50.4363,-3.14601,0
73.2905,-50.3417,-3.15574,0
73.3106,-50.2469,-3.16511,0
73.3285,-50.1519,-3.1741,0
73.3441,-50.057,-3.18273,0
73.3575,-49.962,-3.19098,0
73.3687,-49.867,-3.19887,0
73.3832,-49.7735,-3.20547,0
73.3958,-49.6799,-3.2117,0
73.4063,-49.5863,-3.21754,0
73.4148,-49.4927,-3.22301,0
73.4215,-49.3992,-3.22811,0
73.4261,-49.3057,-3.23283,0
73.4287,-49.2124,-3.23717,0
73.4295,-49.1192,-3.24114,0
73.4283,-49.0263,-3.24473,0
73.4252,-48.9335,-3.24796,0
73.4201,-48.8411,-3.2508,0
73.4133,-48.7489,-3.25328,0
73.4044,-48.6571,-3.2554,0
73.3938,-48.5656,-3.25713,0
73.3812,-48.4746,-3.2585,0
73.3701,-48.3837,-3.25904,0
73.3638,-48.2923,-3.25816,0
73.3558,-48.201,-3.25691,0
73.3458,-48.1098,-3.2553,0
73.3339,-48.0188,-3.25333,0
73.3202,-47.9279,-3.25101,0
73.3044,-47.8373,-3.24831,0
73.2868,-47.7468,-3.24526,0
73.2673,-47.6567,-3.24184,0
73.2459,-47.5669,-3.23806,0
73.2213,-47.4779,-3.23411,0
73.1941,-47.3896,-3.22994,0
73.165,-47.3019,-3.22543,0
73.1339,-47.2147,-3.22056,0
73.1009,-47.1282,-3.21535,0
73.0662,-47.0423,-3.20979,0
73.0295,-46.9572,-3.20388,0
72.9911,-46.8727,-3.19762,0
72.9508,-46.7891,-3.19102,0
72.9086,-46.7063,-3.18408,0
72.8648,-46.6243,-3.17679,0
72.819,-46.5432,-3.16918,0
72.7715,-46.4631,-3.16121,0
72.7222,-46.3839,-3.15294,0
72.6712,-46.3057,-3.14432,0
72.6184,-46.2286,-3.13537,0
72.564,-46.1526,-3.12611,0
72.5078,-46.0777,-3.11652,0
72.45,-46.004,-3.10661,0
72.3916,-45.9305,-3.09612,0
72.3372,-45.8527,-3.0838,0
72.2786,-45.7782,-3.07176,0
72.218,-45.7051,-3.05945,0
72.1555,-45.6334,-3.04686,0
72.0909,-45.5631,-3.03402,0
72.0245,-45.4944,-3.02091,0
71.9562,-45.4274,-3.00756,0
71.8861,-45.3619,-2.99397,0
71.8141,-45.2982,-2.98015,0
71.7404,-45.2363,-2.96612,0
71.665,-45.1763,-2.95185,0
71.5879,-45.1181,-2.9374,0
71.5091,-45.0619,-2.92274,0
71.4288,-45.0077,-2.9079,0
71.347,-44.9556,-2.89289,0
71.2636,-44.9057,-2.87771,0
72.2726,-52.6139,-2.77278,0
72.3488,-52.535,-2.79138,0
72.4166,-52.4472,-2.81179,0
72.4814,-52.3576,-2.83201,0
72.5434,-52.2666,-2.85189,0
72.6027,-52.1743,-2.87146,0
72.6593,-52.081,-2.89067,0
72.713,-51.9866,-2.90953,0
72.764,-51.8913,-2.92801,0
72.8122,-51.7951,-2.94612,0
72.8577,-51.6983,-2.96385,0
72.9004,-51.6008,-2.98119,0
72.9405,-51.5028,-2.99812,0
72.9777,-51.4043,-3.01466,0
73.0123,-51.3054,-3.03078,0
73.0443,-51.2063,-3.04648,0
73.0737,-51.107,-3.06176,0
73.1005,-51.0076,-3.07662,0
73.1247,-50.9082,-3.09105,0
73.1554,-50.8136,-3.10325,0
73.187,-50.7202,-3.11445,0
73.2162,-50.6265,-3.12527,0
73.2431,-50.5323,-3.13574,0
73.2678,-50.4379,-3.14585,0
73.2902,-50.3433,-3.15558,0
73.3103,-50.2485,-3.16495,0
73.3282,-50.1536,-3.17396,0
73.3439,-50.0586,-3.18258,0
73.3573,-49.9636,-3.19084,0
73.3685,-49.8686,-3.19874,0
73.383,-49.7751,-3.20536,0
73.3955,-49.6815,-3.2116,0
73.4062,-49.5879,-3.21744,0
73.4148,-49.4943,-3.22293,0
73.4213,-49.4008,-3.22802,0
73.426,-49.3073,-3.23275,0
73.4287,-49.214,-3.2371,0
73.4295,-49.1208,-3.24107,0
73.4284,-49.0278,-3.24468,0
73.4252,-48.9351,-3.2479,0
73.4202,-48.8426,-3.25076,0
73.4134,-48.7504,-3.25325,0
73.4046,-48.6586,-3.25536,0
73.394,-48.5672,-3.2571,0
73.3815,-48.4761,-3.25848,0
73.3702,-48.3852,-3.25904,0
73.364,-48.2939,-3.25817,0
73.3559,-48.2026,-3.25694,0
73.346,-48.1114,-3.25533,0
73.3341,-48.0203,-3.25337,0
73.3204,-47.9295,-3.25105,0
73.3047,-47.8388,-3.24836,0
73.2871,-47.7484,-3.24531,0
73.2677,-47.6583,-3.2419,0
73.2462,-47.5685,-3.23813,0
73.2218,-47.4794,-3.23417,0
73.1946,-47.3911,-3.23002,0
73.1654,-47.3034,-3.2255,0
73.1345,-47.2162,-3.22065,0
73.1016,-47.1297,-3.21544,0
73.0668,-47.0438,-3.20988,0
73.0302,-46.9586,-3.20398,0
72.9918,-46.8742,-3.19772,0
72.9515,-46.7905,-3.19113,0
72.9094,-46.7077,-3.18419,0
72.8655,-46.6257,-3.17692,0
72.8198,-46.5446,-3.1693,0
72.7723,-46.4644,-3.16135,0
72.723,-46.3852,-3.15307,0
72.672,-46.307,-3.14447,0
72.6193,-46.2299,-3.13552,0
72.5649,-46.1539,-3.12627,0
72.5088,-46.079,-3.11668,0
72.4509,-46.0052,-3.10677,0
72.3923,-45.9318,-3.09632,0
72.3382,-45.854,-3.084,0
72.2797,-45.7795,-3.07197,0
72.2191,-45.7063,-3.05965,0
72.1566,-45.6346,-3.04707,0
72.0921,-45.5643,-3.03424,0
72.0257,-45.4956,-3.02114,0
71.9574,-45.4285,-3.00779,0
71.8873,-45.363,-2.99421,0
71.8154,-45.2993,-2.98039,0
71.7417,-45.2374,-2.96635,0
71.6663,-45.1773,-2.9521,0
71.5892,-45.1191,-2.93764,0
71.5105,-45.0629,-2.92299,0
71.4302,-45.0086,-2.90816,0
71.3484,-44.9565,-2.89315,0
71.2651,-44.9065,-2.87797,0
72.2712,-52.6152,-2.77247,0
72.3475,-52.5363,-2.79108,0
72.4155,-52.4487,-2.81144,0
72.4804,-52.3591,-2.83166,0
72.5425,-52.2681,-2.85156,0
72.6017,-52.1759,-2.87112,0
72.6583,-52.0826,-2.89035,0
72.7121,-51.9882,-2.90921,0
72.7632,-51.8929,-2.92771,0
72.8114,-51.7968,-2.94582,0
72.8569,-51.6999,-2.96356,0
72.8997,-51.6024,-2.98091,0
72.9398,-51.5044,-2.99784,0
72.9771,-51.4059,-3.01438,0
73.0118,-51.3071,-3.03051,0
73.0438,-51.208,-3.04622,0
73.0732,-51.1087,-3.06151,0
73.1001,-51.0093,-3.07637,0
73.1243,-50.9099,-3.09081,0
73.1548,-50.8151,-3.10305,0
73.1865,-50.7218,-3.11425,0
73.2157,-50.628,-3.12509,0
73.2427,-50.5339,-3.13557,0
73.2674,-50.4395,-3.14568,0
73.2898,-50.3449,-3.15543,0
73.31,-50.2501,-3.1648,0
73.328,-50.1552,-3.17381,0
73.3437,-50.0602,-3.18245,0
73.3571,-49.9652,-3.19071,0
73.3684,-49.8702,-3.19861,0
73.3828,-49.7767,-3.20526,0
73.3954,-49.6831,-3.21149,0
73.4059,-49.5895,-3.21736,0
73.4146,-49.4959,-3.22283,0
73.4212,-49.4024,-3.22794,0
73.4259,-49.3089,-3.23268,0
73.4287,-49.2156,-3.23703,0
73.4295,-49.1224,-3.24101,0
73.4284,-49.0294,-3.24462,0
73.4253,-48.9367,-3.24786,0
73.4203,-48.8442,-3.25071,0
73.4134,-48.752,-3.25321,0
73.4048,-48.6602,-3.25533,0
73.3941,-48.5687,-3.25708,0
73.3817,-48.4776,-3.25846,0
73.3702,-48.3868,-3.25906,0
73.3641,-48.2954,-3.25819,0
73.3561,-48.2041,-3.25695,0
73.3462,-48.1129,-3.25536,0
73.3343,-48.0219,-3.25341,0
73.3205,-47.931,-3.2511,0
73.305,-47.8403,-3.24841,0
73.2874,-47.7499,-3.24537,0
73.268,-47.6598,-3.24195,0
73.2466,-47.57,-3.2382,0
73.2223,-47.4809,-3.23424,0
73.1951,-47.3926,-3.23009,0
73.1659,-47.3049,-3.22558,0
73.1349,-47.2177,-3.22073,0
73.1022,-47.1311,-3.21553,0
73.0674,-47.0452,-3.20998,0
73.0309,-46.9601,-3.20407,0
72.9924,-46.8756,-3.19783,0
72.9522,-46.7919,-3.19125,0
72.9102,-46.7091,-3.18431,0
72.8662,-46.627,-3.17705,0
72.8205,-46.5459,-3.16944,0
72.7731,-46.4658,-3.1615,0
72.7239,-46.3866,-3.15322,0
72.6729,-46.3084,-3.14462,0
72.6202,-46.2312,-3.13569,0
72.5658,-46.1552,-3.12642,0
72.5097,-46.0802,-3.11685,0
72.452,-46.0065,-3.10695,0
72.3933,-45.9332,-3.09653,0
72.3391,-45.8552,-3.0842,0
72.2806,-45.7807,-3.07216,0
72.2201,-45.7075,-3.05986,0
72.1576,-45.6358,-3.04729,0
72.0932,-45.5655,-3.03445,0
72.0269,-45.4967,-3.02136,0
71.9586,-45.4296,-3.00802,0
71.8885,-45.3641,-2.99444,0
71.8166,-45.3004,-2.98063,0
71.743,-45.2384,-2.96659,0
71.6676,-45.1783,-2.95235,0
71.5905,-45.1201,-2.93788,0
71.5118,-45.0638,-2.92324,0
71.4316,-45.0095,-2.90841,0
71.3497,-44.9574,-2.89341,0
71.2664,-44.9073,-2.87823,0
72.1808,-52.4854,-2.77372,0
72.2548,-52.4095,-2.79172,0
72.3263,-52.3314,-2.80957,0
72.3918,-52.2476,-2.82845,0
72.4524,-52.1599,-2.84777,0
72.5104,-52.071,-2.86676,0
72.5657,-51.981,-2.88543,0
72.6184,-51.8899,-2.90376,0
72.6685,-51.798,-2.92174,0
72.7159,-51.7052,-2.93936,0
72.7605,-51.6116,-2.95662,0
72.8026,-51.5175,-2.97349,0
72.842,-51.4227,-2.98999,0
72.8789,-51.3275,-3.0061,0
72.9131,-51.232,-3.02181,0
72.9448,-51.1361,-3.03713,0
72.974,-51.04,-3.05205,0
73.0007,-50.9438,-3.06655,0
73.029,-50.8498,-3.07976,0
73.0622,-50.7594,-3.09106,0
73.0933,-50.6687,-3.102,0
73.122,-50.5774,-3.1126,0
73.1487,-50.4859,-3.12285,0
73.173,-50.394,-3.13274,0
73.1952,-50.3019,-3.14228,0
73.2151,-50.2096,-3.15146,0
73.2328,-50.1171,-3.16027,0
73.2484,-50.0246,-3.16874,0
73.2644,-49.9328,-3.17638,0
73.2808,-49.8416,-3.18323,0
73.2952,-49.7503,-3.18973,0
73.3076,-49.6589,-3.19584,0
73.3182,-49.5675,-3.20159,0
73.3267,-49.476,-3.20697,0
73.3334,-49.3846,-3.21199,0
73.338,-49.2933,-3.21663,0
73.3408,-49.2021,-3.22091,0
73.3417,-49.111,-3.22484,0
73.3407,-49.0201,-3.22838,0
73.3378,-48.9294,-3.23155,0
73.3331,-48.839,-3.23438,0
73.3266,-48.7489,-3.23684,0
73.3181,-48.6591,-3.23892,0
73.3078,-48.5697,-3.24065,0
73.2957,-48.4806,-3.24202,0
73.284,-48.3918,-3.24269,0
73.2779,-48.3025,-3.24181,0
73.2699,-48.2132,-3.24058,0
73.2601,-48.1241,-3.23899,0
73.2484,-48.0351,-3.23705,0
73.2348,-47.9462,-3.23476,0
73.2193,-47.8576,-3.23212,0
73.202,-47.7693,-3.22911,0
73.1828,-47.6812,-3.22575,0
73.1616,-47.5935,-3.22206,0
73.1368,-47.5067,-3.21832,0
73.1101,-47.4205,-3.21425,0
73.0815,-47.3348,-3.20982,0
73.0511,-47.2496,-3.20505,0
73.0189,-47.1651,-3.19994,0
72.9848,-47.0812,-3.19449,0
72.949,-46.998,-3.1887,0
72.9112,-46.9156,-3.18257,0
72.8718,-46.8339,-3.17611,0
72.8305,-46.753,-3.16931,0
72.7875,-46.6729,-3.16218,0
72.7428,-46.5937,-3.15472,0
72.6963,-46.5155,-3.14694,0
72.648,-46.4382,-3.13882,0
72.5981,-46.3619,-3.13039,0
72.5465,-46.2866,-3.12164,0
72.4932,-46.2124,-3.11256,0
72.4382,-46.1393,-3.10318,0
72.3816,-46.0674,-3.09348,0
72.322,-45.998,-3.08387,0
72.2602,-45.9303,-3.07408,0
72.203,-45.8581,-3.06235,0
72.1439,-45.7871,-3.05033,0
72.0828,-45.7175,-3.03806,0
72.0198,-45.6494,-3.02555,0
71.9551,-45.5828,-3.01278,0
71.8884,-45.5178,-2.99978,0
71.8201,-45.4543,-2.98654,0
71.7499,-45.3926,-2.97308,0
71.678,-45.3326,-2.95941,0
71.6045,-45.2744,-2.94552,0
71.5294,-45.2181,-2.93145,0
71.4527,-45.1636,-2.91718,0
71.3745,-45.1112,-2.90275,0
71.2948,-45.0607,-2.88814,0
71.2137,-45.0123,-2.87338,0
72.1796,-52.4867,-2.77342,0
72.2537,-52.4108,-2.79141,0
72.3252,-52.3328,-2.80927,0
72.3907,-52.249,-2.82812,0
72.4514,-52.1614,-2.84744,0
72.5095,-52.0725,-2.86645,0
72.5648,-51.9825,-2.88511,0
72.6176,-51.8915,-2.90345,0
72.6677,-51.7995,-2.92144,0
72.715,-51.7068,-2.93906,0
72.7598,-51.6132,-2.95633,0
72.8019,-51.5191,-2.9732,0
72.8413,-51.4244,-2.98971,0
72.8783,-51.3292,-3.00583,0
72.9126,-51.2336,-3.02155,0
72.9444,-51.1377,-3.03688,0
72.9735,-51.0416,-3.0518,0
73.0002,-50.9454,-3.06632,0
73.0284,-50.8513,-3.07957,0
73.0616,-50.761,-3.09087,0
73.0927,-50.6702,-3.10182,0
73.1216,-50.579,-3.11242,0
73.1482,-50.4874,-3.12267,0
73.1727,-50.3955,-3.13258,0
73.1948,-50.3034,-3.14212,0
73.2148,-50.2111,-3.15131,0
73.2326,-50.1187,-3.16013,0
73.2482,-50.0262,-3.1686,0
73.2641,-49.9344,-3.17626,0
73.2805,-49.8432,-3.18312,0
73.2949,-49.7519,-3.18961,0
73.3075,-49.6605,-3.19574,0
73.318,-49.569,-3.2015,0
73.3266,-49.4776,-3.20689,0
73.3333,-49.3862,-3.21192,0
73.338,-49.2948,-3.21656,0
73.3408,-49.2036,-3.22085,0
73.3417,-49.1125,-3.22477,0
73.3408,-49.0216,-3.22832,0
73.3379,-48.931,-3.23151,0
73.3332,-48.8406,-3.23433,0
73.3266,-48.7504,-3.23679,0
73.3183,-48.6606,-3.23889,0
73.308,-48.5712,-3.24063,0
73.2959,-48.4821,-3.242,0
73.2841,-48.3933,-3.24269,0
73.278,-48.304,-3.24182,0
73.2701,-48.2147,-3.24061,0
73.2602,-48.1256,-3.23903,0
73.2486,-48.0366,-3.23709,0
73.235,-47.9477,-3.2348,0
73.2196,-47.8591,-3.23216,0
73.2023,-47.7708,-3.22915,0
73.1832,-47.6827,-3.22581,0
73.162,-47.595,-3.22212,0
73.1372,-47.5082,-3.21839,0
73.1105,-47.4219,-3.21431,0
73.082,-47.3362,-3.2099,0
73.0516,-47.2511,-3.20513,0
73.0195,-47.1665,-3.20003,0
72.9855,-47.0826,-3.19459,0
72.9495,-46.9994,-3.1888,0
72.9119,-46.917,-3.18268,0
72.8725,-46.8352,-3.17622,0
72.8312,-46.7543,-3.16944,0
72.7883,-46.6743,-3.1623,0
72.7436,-46.5951,-3.15485,0
72.697,-46.5168,-3.14708,0
72.6489,-46.4395,-3.13897,0
72.599,-46.3632,-3.13053,0
72.5474,-46.2879,-3.12178,0
72.4941,-46.2137,-3.11272,0
72.4392,-46.1406,-3.10333,0
72.3827,-46.0686,-3.09365,0
72.323,-45.9992,-3.08403,0
72.2612,-45.9316,-3.07428,0
72.2041,-45.8593,-3.06255,0
72.1448,-45.7883,-3.05054,0
72.0838,-45.7187,-3.03828,0
72.0209,-45.6506,-3.02575,0
71.9562,-45.5839,-3.013,0
71.8895,-45.5189,-3,0
71.8213,-45.4554,-2.98676,0
71.7511,-45.3936,-2.97331,0
71.6793,-45.3336,-2.95964,0
71.6059,-45.2754,-2.94576,0
71.5308,-45.219,-2.93169,0
71.4541,-45.1646,-2.91742,0
71.3758,-45.112,-2.90299,0
71.2962,-45.0616,-2.88838,0
71.2151,-45.0131,-2.87362,0
72.1784,-52.4879,-2.77312,0
72.2523,-52.4121,-2.79111,0
72.3239,-52.3341,-2.80897,0
72.3897,-52.2505,-2.82779,0
72.4504,-52.1629,-2.84712,0
72.5085,-52.074,-2.86612,0
72.5639,-51.984,-2.88481,0
72.6167,-51.893,-2.90315,0
72.6668,-51.8011,-2.92114,0
72.7142,-51.7083,-2.93877,0
72.7591,-51.6148,-2.95604,0
72.8012,-51.5207,-2.97292,0
72.8408,-51.426,-2.98944,0
72.8777,-51.3308,-3.00556,0
72.912,-51.2352,-3.02129,0
72.9438,-51.1393,-3.03662,0
72.973,-51.0433,-3.05154,0
72.9998,-50.947,-3.06607,0
73.0278,-50.8528,-3.07938,0
73.0612,-50.7625,-3.09068,0
73.0923,-50.6717,-3.10164,0
73.1212,-50.5805,-3.11224,0
73.1478,-50.489,-3.12251,0
73.1722,-50.3971,-3.13241,0
73.1945,-50.305,-3.14196,0
73.2145,-50.2127,-3.15115,0
73.2323,-50.1202,-3.15998,0
73.2479,-50.0277,-3.16845,0
73.2638,-49.9359,-3.17614,0
73.2802,-49.8447,-3.18301,0
73.2947,-49.7534,-3.18951,0
73.3073,-49.662,-3.19565,0
73.3178,-49.5705,-3.20141,0
73.3265,-49.4791,-3.2068,0
73.3331,-49.3877,-3.21183,0
73.3379,-49.2964,-3.21649,0
73.3408,-49.2051,-3.22078,0
73.3417,-49.1141,-3.2247,0
73.3408,-49.0232,-3.22826,0
73.338,-48.9325,-3.23146,0
73.3334,-48.8421,-3.23428,0
73.3268,-48.752,-3.23675,0
73.3184,-48.6621,-3.23885,0
73.3082,-48.5727,-3.2406,0
73.2962,-48.4836,-3.24198,0
73.2841,-48.3948,-3.24271,0
73.2781,-48.3055,-3.24185,0
73.2702,-48.2163,-3.24062,0
73.2604,-48.1271,-3.23905,0
73.2488,-48.0381,-3.23713,0
73.2352,-47.9493,-3.23484,0
73.2198,-47.8606,-3.23221,0
73.2027,-47.7722,-3.22921,0
73.1835,-47.6842,-3.22586,0
73.1625,-47.5964,-3.22218,0
73.1377,-47.5097,-3.21846,0
73.111,-47.4234,-3.21439,0
73.0826,-47.3377,-3.20997,0
73.0522,-47.2525,-3.20522,0
73.02,-47.1679,-3.20012,0
72.986,-47.0841,-3.19467,0
72.9502,-47.0008,-3.18891,0
72.9126,-46.9183,-3.18279,0
72.8732,-46.8366,-3.17633,0
72.832,-46.7557,-3.16955,0
72.7891,-46.6756,-3.16243,0
72.7443,-46.5964,-3.15498,0
72.6979,-46.5181,-3.1472,0
72.6497,-46.4408,-3.13911,0
72.5998,-46.3645,-3.13068,0
72.5483,-46.2892,-3.12194,0
72.495,-46.2149,-3.11288,0
72.4401,-46.1418,-3.1035,0
72.3836,-46.0698,-3.09381,0
72.324,-46.0003,-3.08418,0
72.2622,-45.9328,-3.07447,0
72.205,-45.8605,-3.06275,0
72.1459,-45.7895,-3.05075,0
72.0849,-45.7199,-3.03849,0
72.022,-45.6517,-3.02597,0
71.9573,-45.5851,-3.0132,0
71.8908,-45.5199,-3.00022,0
71.8223,-45.4565,-2.98699,0
71.7523,-45.3947,-2.97354,0
71.6805,-45.3346,-2.95987,0
71.607,-45.2764,-2.946,0
71.532,-45.2199,-2.93193,0
71.4554,-45.1655,-2.91766,0
71.3772,-45.1129,-2.90324,0
71.2976,-45.0624,-2.88863,0
71.2164,-45.0139,-2.87387,0
72.0934,-52.3658,-2.77431,0
72.1654,-52.2927,-2.79173,0
72.2348,-52.2175,-2.80902,0
72.3018,-52.1405,-2.82617,0
72.3652,-52.0604,-2.84354,0
72.4221,-51.9747,-2.862,0
72.4763,-51.8878,-2.88017,0
72.528,-51.7999,-2.898,0
72.5771,-51.7111,-2.9155,0
72.6237,-51.6215,-2.93266,0
72.6677,-51.5311,-2.94947,0
72.7091,-51.44,-2.96592,0
72.7481,-51.3484,-2.98199,0
72.7845,-51.2563,-2.99771,0
72.8184,-51.1638,-3.01305,0
72.8498,-51.071,-3.028,0
72.8787,-50.9779,-3.04257,0
72.9053,-50.8846,-3.05675,0
72.94,-50.7972,-3.06819,0
72.9728,-50.7093,-3.07924,0
73.0034,-50.6209,-3.08995,0
73.0317,-50.5321,-3.10033,0
73.058,-50.443,-3.11036,0
73.0821,-50.3535,-3.12006,0
73.104,-50.2638,-3.12941,0
73.1238,-50.1739,-3.13841,0
73.142,-50.084,-3.14694,0
73.1621,-49.9953,-3.1544,0
73.1802,-49.9064,-3.16149,0
73.1964,-49.8173,-3.16823,0
73.2106,-49.728,-3.17461,0
73.223,-49.6387,-3.18062,0
73.2335,-49.5493,-3.18628,0
73.242,-49.46,-3.19157,0
73.2487,-49.3706,-3.19652,0
73.2535,-49.2813,-3.20109,0
73.2564,-49.1921,-3.2053,0
73.2574,-49.1031,-3.20916,0
73.2566,-49.0142,-3.21266,0
73.2539,-48.9255,-3.21581,0
73.2495,-48.8371,-3.21859,0
73.2431,-48.7489,-3.22102,0
73.2351,-48.6611,-3.22309,0
73.2252,-48.5736,-3.22481,0
73.2134,-48.4864,-3.22617,0
73.2013,-48.3996,-3.22697,0
73.1953,-48.3122,-3.2261,0
73.1873,-48.2249,-3.22489,0
73.1777,-48.1378,-3.22332,0
73.1662,-48.0507,-3.2214,0
73.1528,-47.9638,-3.21915,0
73.1376,-47.8772,-3.21654,0
73.1206,-47.7908,-3.21358,0
73.1018,-47.7047,-3.21028,0
73.08,-47.6192,-3.20683,0
73.0556,-47.5344,-3.20317,0
73.0294,-47.4501,-3.19917,0
73.0014,-47.3663,-3.19484,0
72.9716,-47.2831,-3.19016,0
72.9401,-47.2005,-3.18515,0
72.9067,-47.1185,-3.17981,0
72.8716,-47.0372,-3.17414,0
72.8347,-46.9566,-3.16814,0
72.796,-46.8768,-3.1618,0
72.7556,-46.7978,-3.15514,0
72.7135,-46.7196,-3.14815,0
72.6697,-46.6422,-3.14086,0
72.6241,-46.5658,-3.13322,0
72.577,-46.4903,-3.12528,0
72.528,-46.4158,-3.11702,0
72.4775,-46.3423,-3.10845,0
72.4253,-46.2698,-3.09956,0
72.3715,-46.1985,-3.09038,0
72.3143,-46.1298,-3.08138,0
72.2544,-46.0634,-3.07237,0
72.1932,-45.9984,-3.0631,0
72.131,-45.9341,-3.05339,0
72.0733,-45.8652,-3.04167,0
72.0137,-45.7977,-3.0297,0
71.9522,-45.7316,-3.01748,0
71.889,-45.6669,-3.00505,0
71.824,-45.6038,-2.99236,0
71.7573,-45.5423,-2.97946,0
71.6888,-45.4824,-2.96635,0
71.6188,-45.4242,-2.95303,0
71.5471,-45.3677,-2.9395,0
71.4738,-45.3131,-2.9258,0
71.3991,-45.2603,-2.91191,0
71.3229,-45.2095,-2.89785,0
71.2452,-45.1606,-2.88362,0
71.1662,-45.1137,-2.86924,0
72.0922,-52.367,-2.77403,0
72.1641,-52.2939,-2.79144,0
72.2337,-52.2188,-2.80873,0
72.3007,-52.1418,-2.82589,0
72.3642,-52.0619,-2.84322,0
72.4211,-51.9761,-2.8617,0
72.4754,-51.8893,-2.87986,0
72.5272,-51.8014,-2.8977,0
72.5763,-51.7126,-2.91521,0
72.623,-51.623,-2.93237,0
72.667,-51.5326,-2.94918,0
72.7084,-51.4416,-2.96564,0
72.7474,-51.35,-2.98173,0
72.7839,-51.2579,-2.99745,0
72.8178,-51.1654,-3.01279,0
72.8493,-51.0725,-3.02775,0
72.8783,-50.9795,-3.04233,0
72.9049,-50.8862,-3.05651,0
72.9395,-50.7986,-3.068,0
72.9723,-50.7108,-3.07905,0
73.0029,-50.6224,-3.08977,0
73.0312,-50.5336,-3.10016,0
73.0576,-50.4445,-3.1102,0
73.0816,-50.355,-3.11989,0
73.1037,-50.2653,-3.12925,0
73.1234,-50.1754,-3.13825,0
73.1416,-50.0855,-3.14681,0
73.1617,-49.9968,-3.15428,0
73.1799,-49.9079,-3.16137,0
73.1962,-49.8188,-3.16812,0
73.2104,-49.7295,-3.17449,0
73.2229,-49.6402,-3.18052,0
73.2334,-49.5509,-3.18618,0
73.242,-49.4615,-3.19149,0
73.2486,-49.3721,-3.19643,0
73.2534,-49.2828,-3.20102,0
73.2563,-49.1936,-3.20524,0
73.2574,-49.1046,-3.2091,0
73.2566,-49.0157,-3.21261,0
73.254,-48.927,-3.21575,0
73.2495,-48.8386,-3.21855,0
73.2433,-48.7504,-3.22098,0
73.2352,-48.6626,-3.22305,0
73.2254,-48.575,-3.22478,0
73.2137,-48.4879,-3.22615,0
73.2014,-48.4011,-3.22699,0
73.1953,-48.3137,-3.22612,0
73.1875,-48.2264,-3.22491,0
73.1779,-48.1392,-3.22335,0
73.1664,-48.0522,-3.22144,0
73.153,-47.9653,-3.21919,0
73.1379,-47.8787,-3.21659,0
73.1209,-47.7923,-3.21364,0
73.1021,-47.7061,-3.21035,0
73.0804,-47.6207,-3.20689,0
73.056,-47.5359,-3.20323,0
73.0299,-47.4515,-3.19924,0
73.002,-47.3677,-3.19491,0
72.9722,-47.2845,-3.19025,0
72.9406,-47.2019,-3.18524,0
72.9073,-47.1199,-3.1799,0
72.8722,-47.0386,-3.17424,0
72.8353,-46.958,-3.16823,0
72.7967,-46.8782,-3.16192,0
72.7563,-46.7991,-3.15526,0
72.7142,-46.7209,-3.14828,0
72.6705,-46.6435,-3.14098,0
72.6249,-46.5671,-3.13336,0
72.5777,-46.4916,-3.12542,0
72.5288,-46.417,-3.11716,0
72.4784,-46.3435,-3.1086,0
72.4262,-46.271,-3.09972,0
72.3725,-46.1996,-3.09054,0
72.3152,-46.131,-3.08154,0
72.2555,-46.0645,-3.07252,0
72.1942,-45.9994,-3.06327,0
72.132,-45.9353,-3.05357,0
72.0743,-45.8663,-3.04186,0
72.0146,-45.7988,-3.0299,0
71.9533,-45.7327,-3.0177,0
71.89,-45.668,-3.00525,0
71.825,-45.6048,-2.99258,0
71.7584,-45.5433,-2.97968,0
71.69,-45.4834,-2.96657,0
71.6199,-45.4252,-2.95325,0
71.5483,-45.3687,-2.93973,0
71.4751,-45.314,-2.92603,0
71.4004,-45.2612,-2.91214,0
71.3241,-45.2103,-2.89808,0
71.2466,-45.1614,-2.88386,0
71.1676,-45.1144,-2.86948,0
72.0909,-52.3682,-2.77373,0
72.163,-52.2952,-2.79114,0
72.2325,-52.2201,-2.80844,0
72.2996,-52.1431,-2.8256,0
72.3633,-52.0633,-2.8429,0
72.4202,-51.9776,-2.86138,0
72.4745,-51.8908,-2.87956,0
72.5262,-51.8029,-2.8974,0
72.5755,-51.7141,-2.91491,0
72.6222,-51.6245,-2.93208,0
72.6663,-51.5342,-2.9489,0
72.7077,-51.4431,-2.96536,0
72.7468,-51.3515,-2.98146,0
72.7833,-51.2594,-2.99719,0
72.8173,-51.1669,-3.01254,0
72.8488,-51.0741,-3.02751,0
72.8779,-50.981,-3.04208,0
72.9044,-50.8878,-3.05627,0
72.9388,-50.8001,-3.06781,0
72.9717,-50.7123,-3.07887,0
73.0023,-50.6239,-3.0896,0
73.0309,-50.5351,-3.09998,0
73.0571,-50.446,-3.11003,0
73.0812,-50.3566,-3.11973,0
73.1033,-50.2668,-3.12909,0
73.1231,-50.1769,-3.13811,0
73.1413,-50.087,-3.14668,0
73.1614,-49.9983,-3.15415,0
73.1796,-49.9094,-3.16126,0
73.1959,-49.8203,-3.16801,0
73.2102,-49.7311,-3.1744,0
73.2227,-49.6417,-3.18042,0
73.2332,-49.5524,-3.18609,0
73.2418,-49.463,-3.1914,0
73.2485,-49.3736,-3.19635,0
73.2534,-49.2843,-3.20094,0
73.2563,-49.1951,-3.20517,0
73.2574,-49.1061,-3.20903,0
73.2566,-49.0172,-3.21255,0
73.2541,-48.9285,-3.2157,0
73.2496,-48.8401,-3.2185,0
73.2434,-48.7519,-3.22094,0
73.2354,-48.664,-3.22302,0
73.2255,-48.5765,-3.22476,0
73.2139,-48.4894,-3.22613,0
73.2015,-48.4026,-3.22699,0
73.1955,-48.3152,-3.22614,0
73.1877,-48.2279,-3.22493,0
73.178,-48.1407,-3.22338,0
73.1666,-48.0537,-3.22148,0
73.1533,-47.9668,-3.21924,0
73.1381,-47.8801,-3.21663,0
73.1212,-47.7937,-3.21369,0
73.1024,-47.7076,-3.2104,0
73.0808,-47.6221,-3.20695,0
73.0565,-47.5373,-3.2033,0
73.0304,-47.453,-3.19931,0
73.0024,-47.3691,-3.19499,0
72.9727,-47.2859,-3.19032,0
72.9412,-47.2033,-3.18533,0
72.9079,-47.1213,-3.18,0
72.8728,-47.04,-3.17433,0
72.8359,-46.9594,-3.16834,0
72.7973,-46.8795,-3.16202,0
72.757,-46.8004,-3.15537,0
72.715,-46.7222,-3.1484,0
72.6712,-46.6448,-3.1411,0
72.6257,-46.5684,-3.13349,0
72.5785,-46.4928,-3.12556,0
72.5297,-46.4183,-3.11731,0
72.4792,-46.3447,-3.10875,0
72.4271,-46.2722,-3.09988,0
72.3734,-46.2009,-3.0907,0
72.3162,-46.1321,-3.08169,0
72.2565,-46.0656,-3.07267,0
72.1953,-46.0005,-3.06342,0
72.133,-45.9364,-3.05377,0
72.0752,-45.8675,-3.04207,0
72.0157,-45.7999,-3.03011,0
71.9543,-45.7338,-3.01791,0
71.8912,-45.6691,-3.00547,0
71.8262,-45.6059,-2.99279,0
71.7595,-45.5443,-2.9799,0
71.6911,-45.4844,-2.96679,0
71.6212,-45.4261,-2.95348,0
71.5495,-45.3696,-2.93996,0
71.4764,-45.3149,-2.92626,0
71.4016,-45.2621,-2.91237,0
71.3255,-45.2112,-2.89832,0
71.248,-45.1622,-2.8841,0
71.1689,-45.1152,-2.86974,0
72.0109,-52.2531,-2.77487,0
72.0809,-52.1826,-2.79174,0
72.1486,-52.1102,-2.8085,0
72.2138,-52.0359,-2.82512,0
72.2766,-51.9598,-2.84161,0
72.337,-51.8821,-2.85792,0
72.3915,-51.7995,-2.87518,0
72.4422,-51.7145,-2.89254,0
72.4905,-51.6287,-2.90958,0
72.5362,-51.542,-2.92629,0
72.5796,-51.4546,-2.94268,0
72.6204,-51.3665,-2.95872,0
72.6588,-51.2778,-2.97441,0
72.6948,-51.1886,-2.98974,0
72.7284,-51.099,-3.00472,0
72.7595,-51.009,-3.01932,0
72.7882,-50.9188,-3.03355,0
72.8206,-50.8319,-3.04598,0
72.855,-50.7469,-3.05712,0
72.8873,-50.6614,-3.06794,0
72.9174,-50.5753,-3.07843,0
72.9454,-50.4888,-3.0886,0
72.9713,-50.402,-3.09843,0
72.9951,-50.3148,-3.10792,0
73.0168,-50.2274,-3.1171,0
73.0398,-50.141,-3.12522,0
73.0616,-50.0546,-3.13289,0
73.0814,-49.9679,-3.14021,0
73.0993,-49.881,-3.14719,0
73.1154,-49.7939,-3.15381,0
73.1294,-49.7066,-3.16007,0
73.1417,-49.6193,-3.16599,0
73.1521,-49.5319,-3.17155,0
73.1607,-49.4445,-3.17677,0
73.1673,-49.3571,-3.18163,0
73.1722,-49.2698,-3.18614,0
73.1752,-49.1826,-3.19029,0
73.1763,-49.0954,-3.1941,0
73.1758,-49.0085,-3.19755,0
73.1733,-48.9217,-3.20065,0
73.1691,-48.8352,-3.20341,0
73.163,-48.7489,-3.20581,0
73.1552,-48.663,-3.20786,0
73.1456,-48.5773,-3.20957,0
73.1344,-48.492,-3.21093,0
73.1218,-48.4071,-3.21186,0
73.1158,-48.3216,-3.211,0
73.108,-48.2362,-3.20979,0
73.0984,-48.1509,-3.20825,0
73.0872,-48.0658,-3.20637,0
73.074,-47.9808,-3.20414,0
73.0591,-47.896,-3.20157,0
73.0423,-47.8115,-3.19867,0
73.0235,-47.7273,-3.19547,0
73.0015,-47.6439,-3.1922,0
72.9776,-47.561,-3.18862,0
72.952,-47.4786,-3.18468,0
72.9245,-47.3967,-3.18044,0
72.8953,-47.3153,-3.17586,0
72.8644,-47.2345,-3.17094,0
72.8317,-47.1544,-3.16571,0
72.7973,-47.0749,-3.16015,0
72.7611,-46.9961,-3.15426,0
72.7232,-46.9181,-3.14806,0
72.6837,-46.8408,-3.14154,0
72.6424,-46.7644,-3.13468,0
72.5994,-46.6888,-3.12753,0
72.5548,-46.6141,-3.12007,0
72.5087,-46.5403,-3.11228,0
72.4607,-46.4675,-3.10418,0
72.4112,-46.3957,-3.09578,0
72.3601,-46.3249,-3.08709,0
72.3052,-46.2571,-3.07871,0
72.2482,-46.1909,-3.07016,0
72.1898,-46.1261,-3.06135,0
72.1299,-46.0626,-3.05229,0
72.0686,-46.0004,-3.04299,0
72.0059,-45.9396,-3.0334,0
71.9477,-45.874,-3.02172,0
71.8877,-45.8098,-3.00982,0
71.8259,-45.747,-2.99767,0
71.7625,-45.6857,-2.9853,0
71.6973,-45.626,-2.97273,0
71.6306,-45.5679,-2.95994,0
71.5623,-45.5114,-2.94695,0
71.4923,-45.4566,-2.93378,0
71.4209,-45.4036,-2.92041,0
71.348,-45.3524,-2.90688,0
71.2738,-45.303,-2.89318,0
71.1981,-45.2556,-2.87932,0
71.1211,-45.2101,-2.86532,0
72.0098,-52.2542,-2.77459,0
72.0798,-52.1838,-2.79146,0
72.1475,-52.1114,-2.80821,0
72.2128,-52.0371,-2.82484,0
72.2757,-51.9611,-2.84133,0
72.3361,-51.8834,-2.85765,0
72.3906,-51.8009,-2.87488,0
72.4414,-51.716,-2.89224,0
72.4897,-51.6301,-2.90929,0
72.5355,-51.5435,-2.92602,0
72.5788,-51.456,-2.9424,0
72.6197,-51.3679,-2.95845,0
72.6581,-51.2793,-2.97415,0
72.6942,-51.1901,-2.98948,0
72.7277,-51.1005,-3.00446,0
72.759,-51.0106,-3.01907,0
72.7877,-50.9203,-3.03332,0
72.82,-50.8333,-3.0458,0
72.8545,-50.7483,-3.05695,0
72.8867,-50.6628,-3.06776,0
72.9169,-50.5768,-3.07826,0
72.9449,-50.4903,-3.08842,0
72.9709,-50.4035,-3.09826,0
72.9947,-50.3163,-3.10777,0
73.0164,-50.2289,-3.11694,0
73.0395,-50.1425,-3.12509,0
73.0612,-50.0561,-3.13277,0
73.081,-49.9694,-3.14009,0
73.099,-49.8824,-3.14707,0
73.1151,-49.7953,-3.1537,0
73.1292,-49.7081,-3.15997,0
73.1415,-49.6208,-3.1659,0
73.152,-49.5334,-3.17147,0
73.1605,-49.446,-3.17669,0
73.1672,-49.3586,-3.18155,0
73.1721,-49.2713,-3.18607,0
73.1752,-49.184,-3.19023,0
73.1763,-49.0969,-3.19404,0
73.1758,-49.0099,-3.1975,0
73.1734,-48.9232,-3.2006,0
73.1691,-48.8366,-3.20337,0
73.1631,-48.7504,-3.20577,0
73.1553,-48.6644,-3.20783,0
73.1458,-48.5788,-3.20954,0
73.1345,-48.4935,-3.21091,0
73.1219,-48.4086,-3.21187,0
73.1159,-48.3231,-3.21101,0
73.1082,-48.2377,-3.20981,0
73.0986,-48.1524,-3.20828,0
73.0873,-48.0672,-3.2064,0
73.0742,-47.9822,-3.20418,0
73.0593,-47.8974,-3.20161,0
73.0426,-47.8129,-3.19872,0
73.0239,-47.7287,-3.19551,0
73.0019,-47.6454,-3.19226,0
72.978,-47.5624,-3.18867,0
72.9524,-47.48,-3.18476,0
72.925,-47.398,-3.1805,0
72.8959,-47.3167,-3.17593,0
72.8649,-47.2359,-3.17103,0
72.8323,-47.1557,-3.1658,0
72.7979,-47.0762,-3.16025,0
72.7617,-46.9975,-3.15436,0
72.7239,-46.9194,-3.14816,0
72.6843,-46.8421,-3.14164,0
72.643,-46.7657,-3.13481,0
72.6002,-46.6901,-3.12766,0
72.5556,-46.6154,-3.12019,0
72.5094,-46.5416,-3.11242,0
72.4615,-46.4688,-3.10432,0
72.412,-46.3969,-3.09593,0
72.361,-46.3261,-3.08723,0
72.3061,-46.2583,-3.07884,0
72.2492,-46.192,-3.0703,0
72.1909,-46.1271,-3.0615,0
72.131,-46.0636,-3.05245,0
72.0697,-46.0015,-3.04315,0
72.007,-45.9407,-3.03359,0
71.9487,-45.8751,-3.02193,0
71.8887,-45.8109,-3.01001,0
71.827,-45.7481,-2.99788,0
71.7636,-45.6868,-2.98552,0
71.6985,-45.627,-2.97294,0
71.6318,-45.5688,-2.96016,0
71.5634,-45.5123,-2.94717,0
71.4936,-45.4575,-2.934,0
71.4222,-45.4045,-2.92064,0
71.3494,-45.3533,-2.90711,0
71.275,-45.3039,-2.89341,0
71.1994,-45.2564,-2.87955,0
71.1224,-45.2109,-2.86555,0
72.0085,-52.2554,-2.7743,0
72.0787,-52.185,-2.79117,0
72.1463,-52.1126,-2.80794,0
72.2116,-52.0384,-2.82456,0
72.2746,-51.9624,-2.84105,0
72.3351,-51.8847,-2.85738,0
72.3898,-51.8023,-2.87458,0
72.4405,-51.7174,-2.89195,0
72.4889,-51.6316,-2.90901,0
72.5347,-51.5449,-2.92573,0
72.5781,-51.4575,-2.94213,0
72.6191,-51.3695,-2.95819,0
72.6576,-51.2808,-2.97389,0
72.6936,-51.1916,-2.98923,0
72.7272,-51.102,-3.00422,0
72.7584,-51.0121,-3.01883,0
72.7873,-50.9219,-3.03308,0
72.8195,-50.8348,-3.0456,0
72.8539,-50.7498,-3.05674,0
72.8862,-50.6643,-3.06757,0
72.9165,-50.5782,-3.07808,0
72.9445,-50.4918,-3.08826,0
72.9705,-50.4049,-3.0981,0
72.9944,-50.3178,-3.10761,0
73.0161,-50.2304,-3.11678,0
73.0391,-50.144,-3.12495,0
73.0609,-50.0575,-3.13263,0
73.0808,-49.9708,-3.13997,0
73.0987,-49.8839,-3.14695,0
73.1148,-49.7968,-3.15359,0
73.129,-49.7096,-3.15987,0
73.1413,-49.6223,-3.1658,0
73.1519,-49.5349,-3.17137,0
73.1605,-49.4475,-3.1766,0
73.1672,-49.3601,-3.18148,0
73.172,-49.2728,-3.18599,0
73.1752,-49.1855,-3.19016,0
73.1763,-49.0984,-3.19397,0
73.1758,-49.0114,-3.19744,0
73.1734,-48.9246,-3.20055,0
73.1692,-48.8381,-3.20331,0
73.1632,-48.7518,-3.20573,0
73.1555,-48.6659,-3.20779,0
73.1459,-48.5802,-3.20951,0
73.1348,-48.4949,-3.21089,0
73.1219,-48.41,-3.21188,0
73.116,-48.3245,-3.21103,0
73.1084,-48.2391,-3.20984,0
73.0988,-48.1538,-3.20831,0
73.0875,-48.0686,-3.20644,0
73.0744,-47.9836,-3.20423,0
73.0595,-47.8989,-3.20167,0
73.0429,-47.8143,-3.19877,0
73.0243,-47.7301,-3.19556,0
73.0023,-47.6468,-3.19232,0
72.9784,-47.5638,-3.18874,0
72.9529,-47.4814,-3.18482,0
72.9255,-47.3994,-3.18058,0
72.8963,-47.318,-3.17601,0
72.8655,-47.2372,-3.17112,0
72.8328,-47.1571,-3.16589,0
72.7984,-47.0776,-3.16034,0
72.7623,-46.9988,-3.15446,0
72.7246,-46.9207,-3.14827,0
72.685,-46.8434,-3.14176,0
72.6438,-46.767,-3.13492,0
72.6009,-46.6914,-3.12778,0
72.5563,-46.6166,-3.12032,0
72.5102,-46.5428,-3.11255,0
72.4623,-46.47,-3.10446,0
72.413,-46.3981,-3.09607,0
72.362,-46.3273,-3.08739,0
72.307,-46.2594,-3.07899,0
72.2502,-46.1931,-3.07046,0
72.1918,-46.1282,-3.06165,0
72.132,-46.0647,-3.05261,0
72.0706,-46.0025,-3.04332,0
72.008,-45.9418,-3.03377,0
71.9497,-45.8762,-3.02213,0
71.8898,-45.8119,-3.01023,0
71.828,-45.7491,-2.99808,0
71.7646,-45.6878,-2.98573,0
71.6995,-45.628,-2.97315,0
71.6329,-45.5698,-2.96037,0
71.5646,-45.5133,-2.94739,0
71.4948,-45.4584,-2.93422,0
71.4234,-45.4054,-2.92087,0
71.3505,-45.3541,-2.90733,0
71.2762,-45.3047,-2.89363,0
71.2006,-45.2572,-2.8798,0
71.1237,-45.2116,-2.8658,0
71.9332,-52.1467,-2.7754,0
72.0013,-52.0787,-2.79176,0
72.0671,-52.0088,-2.808,0
72.1308,-51.9371,-2.82413,0
72.1919,-51.8636,-2.84012,0
72.2509,-51.7886,-2.85596,0
72.3073,-51.712,-2.87163,0
72.3607,-51.6334,-2.88734,0
72.4081,-51.5504,-2.90395,0
72.4531,-51.4665,-2.92025,0
72.4958,-51.3818,-2.93622,0
72.536,-51.2965,-2.95187,0
72.5738,-51.2106,-2.96718,0
72.6094,-51.1241,-2.98216,0
72.6426,-51.0373,-2.99677,0
72.6734,-50.95,-3.01105,0
72.7041,-50.8638,-3.02443,0
72.7399,-50.7816,-3.03564,0
72.7738,-50.6988,-3.04654,0
72.8055,-50.6155,-3.05713,0
72.8352,-50.5317,-3.06741,0
72.8628,-50.4474,-3.07737,0
72.8884,-50.3627,-3.087,0
72.9145,-50.2789,-3.09575,0
72.9396,-50.195,-3.10397,0
72.9628,-50.1108,-3.11185,0
72.9842,-50.0263,-3.11938,0
73.0038,-49.9415,-3.12658,0
73.0215,-49.8565,-3.13342,0
73.0374,-49.7714,-3.13994,0
73.0513,-49.6861,-3.14611,0
73.0636,-49.6006,-3.15193,0
73.0739,-49.5152,-3.1574,0
73.0824,-49.4297,-3.16252,0
73.0891,-49.3442,-3.16731,0
73.0939,-49.2587,-3.17175,0
73.097,-49.1734,-3.17585,0
73.0984,-49.0881,-3.17961,0
73.0979,-49.003,-3.183,0
73.0956,-48.9181,-3.18607,0
73.0916,-48.8334,-3.18879,0
73.0858,-48.7489,-3.19116,0
73.0784,-48.6648,-3.1932,0
73.0691,-48.5809,-3.1949,0
73.0581,-48.4974,-3.19625,0
73.0455,-48.4143,-3.19727,0
73.0393,-48.3307,-3.19646,0
73.0316,-48.2471,-3.19527,0
73.0223,-48.1636,-3.19375,0
73.0111,-48.0802,-3.19189,0
72.9981,-47.9971,-3.1897,0
72.9834,-47.9141,-3.18717,0
72.9669,-47.8314,-3.18431,0
72.9476,-47.7493,-3.18132,0
72.9259,-47.6677,-3.17813,0
72.9026,-47.5866,-3.17461,0
72.8774,-47.506,-3.17075,0
72.8505,-47.4258,-3.16659,0
72.8219,-47.3462,-3.1621,0
72.7916,-47.2672,-3.15728,0
72.7595,-47.1888,-3.15215,0
72.7258,-47.1111,-3.14669,0
72.6903,-47.0341,-3.14092,0
72.6533,-46.9578,-3.13485,0
72.6144,-46.8822,-3.12845,0
72.574,-46.8075,-3.12174,0
72.532,-46.7336,-3.11472,0
72.4882,-46.6606,-3.1074,0
72.4429,-46.5884,-3.09978,0
72.396,-46.5173,-3.09185,0
72.3473,-46.4473,-3.08369,0
72.2947,-46.3801,-3.07585,0
72.2405,-46.3142,-3.06776,0
72.185,-46.2495,-3.0594,0
72.1278,-46.1861,-3.05078,0
72.0693,-46.1241,-3.04193,0
72.0094,-46.0634,-3.03284,0
71.948,-46.0042,-3.02351,0
71.8853,-45.9463,-3.01396,0
71.8262,-45.8845,-3.00248,0
71.7659,-45.8234,-2.99064,0
71.7038,-45.7639,-2.97857,0
71.6403,-45.7059,-2.9663,0
71.5752,-45.6494,-2.95382,0
71.5084,-45.5945,-2.94116,0
71.4402,-45.5413,-2.92831,0
71.3705,-45.4899,-2.91527,0
71.2995,-45.4401,-2.90209,0
71.227,-45.3922,-2.88873,0
71.1531,-45.3462,-2.87523,0
71.078,-45.302,-2.86158,0
71.932,-52.1478,-2.77512,0
72.0002,-52.0798,-2.79148,0
72.0661,-52.01,-2.80773,0
72.1297,-51.9383,-2.82386,0
72.191,-51.8649,-2.83985,0
72.2498,-51.7899,-2.85569,0
72.3064,-51.7133,-2.87137,0
72.3598,-51.6348,-2.88705,0
72.4073,-51.5518,-2.90367,0
72.4524,-51.4679,-2.91997,0
72.4951,-51.3832,-2.93596,0
72.5353,-51.2979,-2.95161,0
72.5733,-51.212,-2.96693,0
72.6087,-51.1256,-2.9819,0
72.642,-51.0387,-2.99654,0
72.6729,-50.9515,-3.01082,0
72.7034,-50.8652,-3.02423,0
72.7394,-50.783,-3.03545,0
72.7732,-50.7002,-3.04636,0
72.8049,-50.6169,-3.05695,0
72.8347,-50.5331,-3.06724,0
72.8623,-50.4488,-3.0772,0
72.8879,-50.3642,-3.08684,0
72.914,-50.2803,-3.09561,0
72.9391,-50.1964,-3.10383,0
72.9624,-50.1122,-3.11172,0
72.9839,-50.0277,-3.11925,0
73.0034,-49.9429,-3.12646,0
73.0212,-49.858,-3.13332,0
73.0371,-49.7728,-3.13983,0
73.0511,-49.6875,-3.146,0
73.0634,-49.6021,-3.15183,0
73.0737,-49.5166,-3.15732,0
73.0823,-49.4311,-3.16244,0
73.089,-49.3456,-3.16724,0
73.0939,-49.2602,-3.17168,0
73.097,-49.1748,-3.17578,0
73.0983,-49.0895,-3.17954,0
73.0979,-49.0044,-3.18295,0
73.0957,-48.9195,-3.18602,0
73.0916,-48.8348,-3.18874,0
73.0859,-48.7504,-3.19112,0
73.0785,-48.6662,-3.19318,0
73.0693,-48.5823,-3.19487,0
73.0584,-48.4988,-3.19623,0
73.0457,-48.4157,-3.19725,0
73.0395,-48.3321,-3.19647,0
73.0318,-48.2485,-3.19529,0
73.0224,-48.165,-3.19377,0
73.0112,-48.0816,-3.19192,0
72.9984,-47.9985,-3.18973,0
72.9837,-47.9155,-3.18721,0
72.9673,-47.8328,-3.18436,0
72.948,-47.7507,-3.18138,0
72.9263,-47.6691,-3.17819,0
72.903,-47.588,-3.17467,0
72.8779,-47.5073,-3.17083,0
72.851,-47.4272,-3.16666,0
