49.1547,-42.9628,-0.11319,0
49.2236,-42.9176,-0.118288,0
49.2915,-42.871,-0.123278,0
49.3583,-42.823,-0.128161,0
49.4238,-42.7736,-0.132936,0
49.4883,-42.7229,-0.137585,0
49.5516,-42.6708,-0.142136,0
49.6138,-42.6174,-0.146569,0
49.6746,-42.5628,-0.150886,0
49.7343,-42.5069,-0.155085,0
49.7927,-42.4498,-0.159157,0
49.8497,-42.3915,-0.163112,0
49.9055,-42.332,-0.16694,0
49.9599,-42.2714,-0.170651,0
50.013,-42.2097,-0.174235,0
50.0646,-42.1469,-0.177682,0
50.115,-42.0831,-0.181012,0
50.1627,-42.0173,-0.184675,0
50.2088,-41.9505,-0.18821,0
50.2535,-41.8829,-0.191598,0
50.2968,-41.8144,-0.194831,0
50.3386,-41.7451,-0.197917,0
50.3789,-41.6751,-0.200856,0
50.4177,-41.6042,-0.203639,0
50.455,-41.5327,-0.206286,0
50.4908,-41.4605,-0.208766,0
50.5251,-41.3876,-0.211081,0
50.5578,-41.314,-0.213268,0
50.589,-41.2398,-0.21529,0
50.6186,-41.1651,-0.217145,0
50.6467,-41.0898,-0.218864,0
50.6732,-41.014,-0.220417,0
50.6991,-40.938,-0.22152,0
50.7237,-40.8616,-0.222399,0
50.7466,-40.7846,-0.223122,0
50.768,-40.7073,-0.223688,0
50.7878,-40.6295,-0.224089,0
50.8061,-40.5512,-0.224343,0
50.8227,-40.4727,-0.224421,0
50.8377,-40.3937,-0.224352,0
50.8512,-40.3145,-0.224118,0
50.8627,-40.2349,-0.223825,0
50.8716,-40.155,-0.22361,0
50.8789,-40.0749,-0.223239,0
45.3066,-42.9409,0.154446,0
45.3781,-42.9874,0.150003,0
45.4508,-43.0322,0.145491,0
45.5244,-43.0753,0.140931,0
49.1613,-42.8661,-0.112516,0
49.2281,-42.8211,-0.117438,0
49.2939,-42.7746,-0.122262,0
49.3586,-42.7268,-0.12697,0
49.422,-42.6777,-0.131579,0
49.4845,-42.6272,-0.136061,0
49.5457,-42.5755,-0.140446,0
49.6057,-42.5225,-0.144704,0
49.6645,-42.4682,-0.148854,0
49.7221,-42.4128,-0.152887,0
49.7784,-42.3561,-0.156804,0
49.8335,-42.2984,-0.160602,0
49.8873,-42.2395,-0.164274,0
49.9397,-42.1795,-0.167829,0
49.9909,-42.1184,-0.171257,0
50.0405,-42.0563,-0.174557,0
50.0889,-41.9931,-0.177741,0
50.1355,-41.9287,-0.180964,0
50.1798,-41.8628,-0.184343,0
50.2227,-41.7961,-0.187565,0
50.2641,-41.7285,-0.190651,0
50.3042,-41.6602,-0.193581,0
50.3427,-41.5911,-0.196364,0
50.3798,-41.5213,-0.199001,0
50.4154,-41.4508,-0.201491,0
50.4495,-41.3796,-0.203825,0
50.4821,-41.3078,-0.206003,0
50.5133,-41.2353,-0.208044,0
50.5428,-41.1623,-0.209929,0
50.5709,-41.0888,-0.211657,0
50.5974,-41.0147,-0.213229,0
50.6233,-40.9404,-0.214372,0
50.6478,-40.8657,-0.21528,0
50.6709,-40.7905,-0.216042,0
50.6924,-40.7148,-0.216647,0
50.7123,-40.6387,-0.217096,0
50.7307,-40.5622,-0.217389,0
50.7475,-40.4854,-0.217516,0
50.7627,-40.4081,-0.217497,0
50.7762,-40.3306,-0.21738,0
50.7872,-40.2526,-0.21737,0
50.7965,-40.1744,-0.217204,0
50.8042,-40.096,-0.216891,0
45.3999,-42.9001,0.148958,0
45.4706,-42.9445,0.144573,0
45.5422,-42.9872,0.14014,0
45.6148,-43.0282,0.135648,0
45.6887,-43.0667,0.130745,0
45.7635,-43.1034,0.125784,0
45.8391,-43.1383,0.120779,0
45.9155,-43.1715,0.11575,0
45.9926,-43.203,0.110667,0
46.0703,-43.2326,0.10557,0
46.1488,-43.2604,0.100433,0
46.2277,-43.2864,0.0952668,0
46.3072,-43.3106,0.090091,0
46.3873,-43.3329,0.0848811,0
46.4678,-43.3533,0.0796662,0
46.5487,-43.372,0.074427,0
46.6301,-43.3887,0.0691828,0
46.7117,-43.4035,0.0639191,0
46.7937,-43.4165,0.0586604,0
46.8759,-43.4276,0.0533869,0
46.9582,-43.4367,0.0481232,0
47.0408,-43.444,0.0428498,0
47.1234,-43.4494,0.0375813,0
47.2062,-43.4529,0.0323273,0
47.289,-43.4545,0.0270832,0
47.3717,-43.4541,0.0218488,0
47.4545,-43.4519,0.0166389,0
47.537,-43.4478,0.0114338,0
47.6195,-43.4418,0.00626289,0
47.7016,-43.4317,0.000344925,0
47.783,-43.4179,-0.00617363,0
47.8641,-43.4023,-0.0126434,0
47.9446,-43.385,-0.0190447,0
48.0246,-43.3658,-0.0253728,0
48.1041,-43.345,-0.0316473,0
48.1829,-43.3224,-0.0378436,0
48.2611,-43.2981,-0.0439568,0
48.3387,-43.2721,-0.0500164,0
48.4155,-43.2444,-0.0559881,0
48.4916,-43.2151,-0.0618816,0
48.567,-43.1842,-0.0676775,0
48.6416,-43.1517,-0.0734051,0
48.7155,-43.1175,-0.079035,0
48.7884,-43.0819,-0.0845672,0
48.8603,-43.0446,-0.0900262,0
48.9314,-43.0059,-0.0953777,0
49.0016,-42.9656,-0.100641,0
49.0708,-42.9239,-0.105798,0
49.1389,-42.8808,-0.110866,0
49.2061,-42.8362,-0.115827,0
49.2722,-42.7902,-0.120671,0
49.3372,-42.7429,-0.125417,0
49.4011,-42.6941,-0.130055,0
49.4639,-42.6441,-0.134587,0
49.5255,-42.5928,-0.139001,0
49.5859,-42.5402,-0.143307,0
49.6452,-42.4864,-0.147487,0
49.7031,-42.4313,-0.151569,0
49.7599,-42.3751,-0.155524,0
49.8154,-42.3177,-0.159352,0
49.8696,-42.2591,-0.163063,0
49.9224,-42.1995,-0.166657,0
49.974,-42.1388,-0.170134,0
50.0241,-42.077,-0.173473,0
50.073,-42.0142,-0.176696,0
50.1204,-41.9504,-0.179821,0
50.1652,-41.8848,-0.183239,0
50.2086,-41.8183,-0.186511,0
50.2505,-41.751,-0.189636,0
50.2911,-41.6829,-0.192624,0
50.3301,-41.6141,-0.195466,0
50.3677,-41.5445,-0.198141,0
50.4037,-41.4742,-0.20068,0
50.4384,-41.4033,-0.203063,0
50.4715,-41.3317,-0.2053,0
50.503,-41.2594,-0.207389,0
50.5331,-41.1866,-0.209313,0
50.5617,-41.1132,-0.211091,0
50.5887,-41.0393,-0.212721,0
50.6148,-40.9651,-0.21404,0
50.6398,-40.8905,-0.214997,0
50.6634,-40.8155,-0.215807,0
50.6854,-40.74,-0.216471,0
50.7059,-40.664,-0.21697,0
50.7248,-40.5877,-0.217311,0
50.7421,-40.5109,-0.217497,0
50.7578,-40.4338,-0.217526,0
50.772,-40.3563,-0.217409,0
50.7837,-40.2785,-0.217389,0
50.7936,-40.2004,-0.217272,0
50.8019,-40.1221,-0.217009,0
45.3768,-42.8851,0.150404,0
45.4471,-42.93,0.146048,0
45.5184,-42.9732,0.141624,0
45.5905,-43.0148,0.137142,0
45.6641,-43.0541,0.132386,0
45.7386,-43.0914,0.12744,0
45.814,-43.1269,0.122445,0
45.89,-43.1607,0.11742,0
45.9669,-43.1927,0.112357,0
46.0445,-43.223,0.107259,0
46.1227,-43.2514,0.102137,0
46.2014,-43.278,0.0969855,0
46.2807,-43.3027,0.0918098,0
46.3606,-43.3257,0.0866145,0
46.441,-43.3468,0.0813996,0
46.5218,-43.366,0.0761652,0
46.603,-43.3833,0.070926,0
46.6845,-43.3988,0.0656623,0
46.7663,-43.4124,0.0604035,0
46.8485,-43.4241,0.055135,0
46.9309,-43.4339,0.0498664,0
47.0134,-43.4418,0.0446027,0
47.096,-43.4478,0.0393342,0
47.1787,-43.4519,0.0340705,0
47.2615,-43.4541,0.0288313,0
47.3443,-43.4545,0.0235871,0
47.427,-43.4529,0.0183625,0
47.5097,-43.4494,0.0131574,0
47.5922,-43.444,0.00797676,0
47.6745,-43.4358,0.0024836,0
47.756,-43.4227,-0.00401543,0
47.8372,-43.4077,-0.0104949,0
47.9179,-43.3909,-0.0169256,0
47.9981,-43.3724,-0.0232781,0
48.0777,-43.3521,-0.0295721,0
48.1567,-43.3301,-0.0357977,0
48.2352,-43.3063,-0.0419402,0
48.313,-43.2809,-0.0480145,0
48.3901,-43.2538,-0.0540154,0
48.4665,-43.225,-0.0599285,0
48.5422,-43.1946,-0.0657684,0
48.617,-43.1627,-0.0715057,0
48.691,-43.1291,-0.0771746,0
48.7642,-43.0939,-0.0827459,0
48.8365,-43.0572,-0.0882195,0
48.9079,-43.0189,-0.0936102,0
48.9784,-42.9792,-0.0989031,0
49.0479,-42.9379,-0.104098,0
49.1165,-42.8953,-0.109186,0
49.1839,-42.8512,-0.114186,0
49.2504,-42.8056,-0.119069,0
49.3157,-42.7587,-0.123854,0
49.3801,-42.7104,-0.128532,0
49.4431,-42.6609,-0.133093,0
49.5052,-42.61,-0.137546,0
49.5659,-42.5578,-0.141891,0
49.6256,-42.5044,-0.14611,0
49.6841,-42.4497,-0.150221,0
49.7412,-42.3939,-0.154216,0
49.7971,-42.3368,-0.158093,0
49.8517,-42.2787,-0.161843,0
49.905,-42.2194,-0.165485,0
49.957,-42.159,-0.168991,0
50.0077,-42.0976,-0.17238,0
50.057,-42.0352,-0.175641,0
50.1048,-41.9717,-0.178776,0
50.1505,-41.9066,-0.182126,0
50.1943,-41.8405,-0.185436,0
50.2368,-41.7734,-0.18862,0
50.2777,-41.7056,-0.191647,0
50.3173,-41.637,-0.194538,0
50.3554,-41.5677,-0.197272,0
50.392,-41.4976,-0.19985,0
50.4271,-41.4269,-0.202292,0
50.4606,-41.3555,-0.204577,0
50.4927,-41.2835,-0.206716,0
50.5234,-41.2109,-0.208688,0
50.5524,-41.1377,-0.210524,0
50.58,-41.0639,-0.212204,0
50.6061,-40.9897,-0.213679,0
50.6317,-40.9154,-0.214694,0
50.6558,-40.8405,-0.215554,0
50.6783,-40.7651,-0.216266,0
50.6993,-40.6893,-0.216813,0
50.7187,-40.6131,-0.217214,0
50.7365,-40.5364,-0.217458,0
50.7528,-40.4594,-0.217536,0
50.7675,-40.3821,-0.217458,0
50.7801,-40.3044,-0.217389,0
50.7905,-40.2263,-0.217321,0
50.7993,-40.1481,-0.217116,0
50.8065,-40.0696,-0.216755,0
45.3537,-42.8698,0.151849,0
45.4236,-42.9152,0.147493,0
45.4946,-42.959,0.143099,0
45.5665,-43.0011,0.138636,0
49.1236,-42.8018,-0.1086,0
49.1891,-42.7578,-0.113425,0
49.2534,-42.7124,-0.118141,0
49.3168,-42.6656,-0.122761,0
49.379,-42.6176,-0.127272,0
49.4402,-42.5683,-0.131667,0
49.5001,-42.5177,-0.135964,0
49.5589,-42.4658,-0.140143,0
49.6166,-42.4127,-0.144216,0
49.673,-42.3585,-0.148161,0
49.7281,-42.3031,-0.151999,0
49.7821,-42.2466,-0.15572,0
49.8348,-42.189,-0.159313,0
49.8862,-42.1302,-0.162809,0
49.9362,-42.0705,-0.166159,0
49.9849,-42.0097,-0.169401,0
50.0323,-41.9479,-0.172516,0
50.0784,-41.8852,-0.175505,0
50.1229,-41.8214,-0.178425,0
50.165,-41.7561,-0.181598,0
50.2057,-41.6899,-0.184616,0
50.245,-41.623,-0.187497,0
50.2827,-41.5553,-0.190231,0
50.3192,-41.487,-0.192809,0
50.3541,-41.4179,-0.195261,0
50.3876,-41.3482,-0.197546,0
50.4196,-41.2778,-0.199694,0
50.4501,-41.2069,-0.201686,0
50.4791,-41.1353,-0.203542,0
50.5066,-41.0633,-0.205241,0
50.5328,-40.9907,-0.206745,0
50.5584,-40.918,-0.20779,0
50.5825,-40.8448,-0.208698,0
50.605,-40.7711,-0.20943,0
50.6261,-40.697,-0.210026,0
50.6456,-40.6224,-0.210456,0
50.6636,-40.5474,-0.210749,0
50.6801,-40.4721,-0.210886,0
50.6946,-40.3963,-0.210983,0
50.707,-40.3202,-0.21111,0
50.7177,-40.2438,-0.2111,0
50.7269,-40.1672,-0.210944,0
50.7343,-40.0904,-0.210632,0
45.4441,-42.8312,0.146527,0
45.5132,-42.8745,0.142239,0
45.5831,-42.9163,0.137904,0
45.6541,-42.9564,0.133519,0
45.7262,-42.9943,0.128831,0
45.7994,-43.0302,0.123978,0
45.8733,-43.0644,0.119085,0
45.948,-43.0969,0.114163,0
46.0233,-43.1276,0.109197,0
46.0993,-43.1566,0.104212,0
46.1759,-43.1838,0.0991926,0
46.2531,-43.2093,0.0941486,0
46.3309,-43.2329,0.0890754,0
46.4092,-43.2548,0.0839973,0
46.4879,-43.2748,0.0788898,0
46.567,-43.293,0.0737678,0
46.6466,-43.3094,0.0686311,0
46.7264,-43.3239,0.0634992,0
46.8065,-43.3366,0.0583381,0
46.8869,-43.3475,0.0531916,0
46.9674,-43.3565,0.0480402,0
47.0481,-43.3636,0.0428889,0
47.129,-43.3689,0.0377473,0
47.2099,-43.3723,0.0326154,0
47.2908,-43.3739,0.0274787,0
47.3718,-43.3736,0.0223615,0
47.4527,-43.3715,0.0172639,0
47.5334,-43.3675,0.012176,0
47.6141,-43.3617,0.00712227,0
47.6944,-43.3524,0.00149239,0
47.7742,-43.3401,-0.00447929,0
47.8535,-43.325,-0.0107928,0
47.9323,-43.3081,-0.0170525,0
48.0105,-43.2895,-0.0232635,0
48.0884,-43.2692,-0.0293963,0
48.1655,-43.2472,-0.0354656,0
48.2421,-43.2235,-0.0414519,0
48.318,-43.1982,-0.0473748,0
48.3933,-43.1712,-0.0532342,0
48.4678,-43.1426,-0.0589959,0
48.5416,-43.1125,-0.0646795,0
48.6146,-43.0807,-0.0702801,0
48.6869,-43.0474,-0.0757977,0
48.7583,-43.0126,-0.0812371,0
48.8288,-42.9762,-0.0865691,0
48.8984,-42.9384,-0.0918133,0
48.9671,-42.899,-0.0969695,0
49.0349,-42.8583,-0.102028,0
49.1017,-42.8161,-0.106979,0
49.1674,-42.7725,-0.111833,0
49.2322,-42.7276,-0.116589,0
49.2959,-42.6813,-0.121237,0
49.3585,-42.6337,-0.125788,0
49.4199,-42.5848,-0.130221,0
49.4803,-42.5346,-0.134548,0
49.5395,-42.4832,-0.138766,0
49.5976,-42.4305,-0.142868,0
49.6545,-42.3766,-0.146862,0
49.71,-42.3216,-0.150739,0
49.7644,-42.2655,-0.154499,0
49.8174,-42.2082,-0.158141,0
49.8693,-42.1498,-0.161657,0
49.9198,-42.0904,-0.165065,0
49.969,-42.03,-0.168346,0
50.0168,-41.9685,-0.171501,0
50.0633,-41.9061,-0.174538,0
50.1084,-41.8428,-0.177438,0
50.1512,-41.7778,-0.180554,0
50.1923,-41.712,-0.183639,0
50.2321,-41.6453,-0.186559,0
50.2704,-41.5779,-0.189333,0
50.3073,-41.5097,-0.19197,0
50.3427,-41.4409,-0.19447,0
50.3766,-41.3714,-0.196804,0
50.4091,-41.3013,-0.199001,0
50.4402,-41.2305,-0.201042,0
50.4697,-41.1591,-0.202946,0
50.4977,-41.0873,-0.204694,0
50.5242,-41.0148,-0.206286,0
50.5501,-40.9422,-0.207458,0
50.5746,-40.8692,-0.208415,0
50.5977,-40.7956,-0.209206,0
50.6193,-40.7216,-0.20985,0
50.6393,-40.6472,-0.210339,0
50.6578,-40.5724,-0.210661,0
50.6748,-40.4971,-0.210856,0
50.6902,-40.4215,-0.210905,0
50.703,-40.3455,-0.211091,0
50.7143,-40.2692,-0.21112,0
50.724,-40.1926,-0.211012,0
50.732,-40.1159,-0.210759,0
45.4214,-42.8164,0.147933,0
45.4902,-42.8603,0.143675,0
45.5598,-42.9026,0.139349,0
45.6305,-42.9433,0.134984,0
45.7022,-42.982,0.130433,0
45.7751,-43.0184,0.125589,0
45.8487,-43.0532,0.120716,0
45.923,-43.0863,0.115799,0
45.9982,-43.1176,0.110848,0
46.074,-43.1472,0.105862,0
46.1505,-43.175,0.100858,0
46.2275,-43.201,0.0958186,0
46.3051,-43.2253,0.0907697,0
46.3831,-43.2477,0.0856867,0
46.4617,-43.2683,0.0805793,0
46.5407,-43.2872,0.0754719,0
46.6201,-43.3041,0.0703352,0
46.6998,-43.3193,0.0651984,0
46.7798,-43.3326,0.0600568,0
46.8602,-43.3441,0.0549055,0
46.9407,-43.3537,0.0497541,0
47.0213,-43.3615,0.0446076,0
47.1022,-43.3674,0.0394563,0
47.183,-43.3714,0.0343195,0
47.264,-43.3736,0.0291779,0
47.3449,-43.3739,0.0240607,0
47.4259,-43.3724,0.0189484,0
47.5066,-43.369,0.0138654,0
47.5873,-43.3638,0.00879219,0
47.6678,-43.356,0.00348946,0
47.7477,-43.3444,-0.00250664,0
47.8272,-43.3302,-0.00869316,0
47.9062,-43.3139,-0.0149871,0
47.9846,-43.2959,-0.0212127,0
48.0626,-43.2761,-0.0273602,0
48.14,-43.2547,-0.0334588,0
48.2168,-43.2316,-0.0394695,0
48.2929,-43.2068,-0.0454168,0
48.3684,-43.1804,-0.0512957,0
48.4432,-43.1523,-0.0570965,0
48.5172,-43.1226,-0.0628045,0
48.5905,-43.0914,-0.0684393,0
48.663,-43.0586,-0.0739812,0
48.7347,-43.0243,-0.0794305,0
48.8055,-42.9884,-0.0848113,0
48.8754,-42.9511,-0.0900848,0
48.9444,-42.9123,-0.0952605,0
49.0125,-42.872,-0.100348,0
49.0796,-42.8303,-0.105339,0
49.1457,-42.7872,-0.110231,0
49.2108,-42.7427,-0.115016,0
49.2748,-42.6968,-0.119704,0
49.3378,-42.6496,-0.124284,0
49.3997,-42.6012,-0.128757,0
49.4604,-42.5514,-0.133122,0
49.52,-42.5004,-0.13738,0
49.5784,-42.4481,-0.14152,0
49.6356,-42.3946,-0.145554,0
49.6916,-42.34,-0.14947,0
49.7465,-42.2842,-0.153259,0
49.7999,-42.2273,-0.15694,0
49.8522,-42.1693,-0.160505,0
49.9031,-42.1103,-0.163942,0
49.9527,-42.0502,-0.167262,0
50.0011,-41.989,-0.170466,0
50.048,-41.9269,-0.173532,0
50.0936,-41.8639,-0.176491,0
50.1373,-41.7995,-0.179509,0
50.1789,-41.7339,-0.182624,0
50.2191,-41.6675,-0.185602,0
50.2578,-41.6003,-0.188425,0
50.2952,-41.5324,-0.19111,0
50.3311,-41.4638,-0.193649,0
50.3655,-41.3945,-0.196042,0
50.3985,-41.3246,-0.198288,0
50.43,-41.254,-0.200387,0
50.46,-41.1829,-0.202331,0
50.4885,-41.1112,-0.204128,0
50.5155,-41.0389,-0.205778,0
50.5416,-40.9664,-0.207106,0
50.5666,-40.8935,-0.208112,0
50.5902,-40.8201,-0.208952,0
50.6123,-40.7463,-0.209645,0
50.6328,-40.672,-0.210192,0
50.6518,-40.5972,-0.210573,0
50.6693,-40.5221,-0.210807,0
50.6852,-40.4467,-0.210886,0
50.6989,-40.3708,-0.211042,0
50.7107,-40.2945,-0.21113,0
50.7209,-40.2181,-0.211061,0
50.7295,-40.1414,-0.210846,0
50.7365,-40.0646,-0.210495,0
45.3989,-42.8016,0.149339,0
45.4672,-42.8459,0.145091,0
45.5366,-42.8887,0.140784,0
45.6069,-42.93,0.136439,0
49.0873,-42.7398,-0.104831,0
49.1514,-42.6968,-0.109548,0
49.2145,-42.6524,-0.114177,0
49.2766,-42.6067,-0.118698,0
49.3375,-42.5597,-0.123132,0
49.3974,-42.5114,-0.127438,0
49.4562,-42.4619,-0.131637,0
49.5138,-42.4112,-0.135739,0
49.5703,-42.3593,-0.139723,0
49.6256,-42.3062,-0.1436,0
49.6797,-42.252,-0.14736,0
49.7326,-42.1967,-0.151012,0
49.7841,-42.1402,-0.154548,0
49.8345,-42.0828,-0.157956,0
49.8836,-42.0243,-0.161257,0
49.9314,-41.9648,-0.16443,0
49.9779,-41.9043,-0.167487,0
50.023,-41.8429,-0.170417,0
50.0668,-41.7805,-0.173229,0
50.1091,-41.7173,-0.175915,0
50.1493,-41.6527,-0.178796,0
50.1878,-41.5871,-0.181618,0
50.2249,-41.5208,-0.184313,0
50.2607,-41.4538,-0.186852,0
50.295,-41.3862,-0.189245,0
50.3278,-41.3179,-0.191501,0
50.3592,-41.2489,-0.1936,0
50.3891,-41.1794,-0.195563,0
50.4177,-41.1093,-0.19738,0
50.4446,-41.0387,-0.19904,0
50.4706,-40.9677,-0.200407,0
50.4957,-40.8964,-0.201442,0
50.5194,-40.8247,-0.202321,0
50.5415,-40.7524,-0.203044,0
50.5621,-40.6797,-0.20362,0
50.5812,-40.6066,-0.20405,0
50.5989,-40.5331,-0.204333,0
50.6143,-40.4591,-0.204675,0
50.628,-40.3848,-0.204938,0
50.6401,-40.3102,-0.205065,0
50.6506,-40.2353,-0.205055,0
50.6596,-40.1603,-0.204899,0
50.667,-40.085,-0.204596,0
45.4866,-42.7649,0.144183,0
45.5541,-42.8073,0.139993,0
45.6226,-42.8482,0.135755,0
45.692,-42.8874,0.131458,0
45.7623,-42.9247,0.126986,0
45.8339,-42.9598,0.122239,0
45.9062,-42.9933,0.117454,0
45.9791,-43.0251,0.11264,0
46.0529,-43.0552,0.107786,0
46.1272,-43.0835,0.102908,0
46.2022,-43.1102,0.0980012,0
46.2777,-43.1351,0.0930647,0
46.3537,-43.1583,0.0881135,0
46.4302,-43.1796,0.083133,0
46.5072,-43.1993,0.0781379,0
46.5847,-43.2171,0.073133,0
46.6624,-43.2331,0.0681086,0
46.7405,-43.2474,0.0630842,0
46.8188,-43.2598,0.0580451,0
46.8975,-43.2705,0.0530109,0
46.9762,-43.2793,0.0479719,0
47.0552,-43.2863,0.0429328,0
47.1343,-43.2915,0.0378938,0
47.2134,-43.2949,0.0328693,0
47.2927,-43.2965,0.0278498,0
47.3718,-43.2962,0.0228498,0
47.4509,-43.2942,0.0178645,0
47.53,-43.2903,0.0128889,0
47.6088,-43.2846,0.00792793,0
47.6874,-43.2757,0.00250801,0
47.7655,-43.2638,-0.00335136,0
47.8433,-43.2502,-0.00915703,0
47.9205,-43.2341,-0.0151482,0
47.9971,-43.216,-0.0212225,0
48.0732,-43.1962,-0.0272332,0
48.1488,-43.1748,-0.0331658,0
48.2237,-43.1517,-0.0390496,0
48.2982,-43.127,-0.0448455,0
48.3719,-43.1007,-0.050573,0
48.4448,-43.0728,-0.0562176,0
48.5171,-43.0434,-0.0617937,0
48.5887,-43.0124,-0.067282,0
48.6594,-42.9798,-0.0726824,0
48.7293,-42.9458,-0.0780047,0
48.7984,-42.9103,-0.0832391,0
48.8666,-42.8733,-0.0883758,0
48.9339,-42.8349,-0.0934246,0
49.0004,-42.7951,-0.0983758,0
49.0657,-42.7538,-0.103239,0
49.1302,-42.7112,-0.107995,0
49.1936,-42.6673,-0.112653,0
49.256,-42.622,-0.117214,0
49.3174,-42.5754,-0.121667,0
49.3777,-42.5276,-0.126022,0
49.4367,-42.4785,-0.130261,0
49.4948,-42.4282,-0.134401,0
49.5516,-42.3766,-0.138415,0
49.6073,-42.324,-0.142331,0
49.6619,-42.2701,-0.14613,0
49.7152,-42.2151,-0.149821,0
49.7672,-42.1591,-0.153386,0
49.818,-42.102,-0.156843,0
49.8675,-42.0438,-0.160173,0
49.9157,-41.9846,-0.163386,0
49.9627,-41.9245,-0.166481,0
50.0082,-41.8634,-0.16946,0
50.0523,-41.8013,-0.172311,0
50.0952,-41.7384,-0.175036,0
50.1362,-41.6743,-0.177829,0
50.1752,-41.609,-0.1807,0
50.2128,-41.5429,-0.183434,0
50.249,-41.4762,-0.186022,0
50.2837,-41.4087,-0.188464,0
50.3171,-41.3406,-0.190759,0
50.349,-41.2719,-0.192917,0
50.3794,-41.2025,-0.194929,0
50.4083,-41.1326,-0.196794,0
50.4359,-41.0622,-0.198503,0
50.462,-40.9912,-0.200036,0
50.4876,-40.9202,-0.20111,0
50.5116,-40.8485,-0.202038,0
50.5343,-40.7764,-0.202819,0
50.5554,-40.7039,-0.203454,0
50.5751,-40.6309,-0.203932,0
50.5932,-40.5576,-0.204264,0
50.6095,-40.4837,-0.204557,0
50.6237,-40.4095,-0.20486,0
50.6362,-40.335,-0.205046,0
50.6473,-40.2602,-0.205075,0
50.6567,-40.1852,-0.204968,0
50.6647,-40.11,-0.204714,0
45.4644,-42.7505,0.14557,0
45.5316,-42.7934,0.1414,0
45.5998,-42.8348,0.137171,0
45.6688,-42.8745,0.132884,0
45.7388,-42.9126,0.128548,0
45.8101,-42.9483,0.123821,0
45.8821,-42.9824,0.119056,0
45.9548,-43.0147,0.114241,0
46.0283,-43.0454,0.109407,0
46.1024,-43.0743,0.104525,0
46.1772,-43.1015,0.099632,0
46.2525,-43.127,0.094715,0
46.3284,-43.1507,0.0897541,0
46.4048,-43.1727,0.0847883,0
46.4816,-43.1929,0.0797981,0
46.5589,-43.2114,0.0747883,0
46.6366,-43.228,0.0697785,0
46.7145,-43.2429,0.0647492,0
46.7928,-43.2559,0.0597199,0
46.8714,-43.2671,0.0546809,0
46.9501,-43.2766,0.0496418,0
47.0291,-43.2842,0.0446027,0
47.108,-43.29,0.0395686,0
47.1871,-43.294,0.0345393,0
47.2664,-43.2961,0.0295197,0
47.3455,-43.2965,0.02451,0
47.4246,-43.295,0.0195051,0
47.5037,-43.2918,0.0145344,0
47.5827,-43.2867,0.00957344,0
47.6614,-43.2793,0.00446602,0
47.7397,-43.268,-0.00140312,0
47.8174,-43.2549,-0.00723808,0
47.8949,-43.2398,-0.013117,0
47.9717,-43.2222,-0.0192205,0
48.048,-43.203,-0.025241,0
48.1238,-43.1821,-0.0312127,0
48.199,-43.1596,-0.0371062,0
48.2735,-43.1354,-0.0429217,0
48.3474,-43.1096,-0.0486785,0
48.4207,-43.0822,-0.0543572,0
48.4932,-43.0533,-0.059948,0
48.565,-43.0228,-0.0654656,0
48.636,-42.9908,-0.0709051,0
48.7062,-42.9573,-0.0762469,0
48.7756,-42.9222,-0.0815105,0
48.8441,-42.8857,-0.0866863,0
48.9117,-42.8478,-0.0917645,0
48.9784,-42.8084,-0.0967449,0
49.0441,-42.7677,-0.101637,0
49.1089,-42.7255,-0.106432,0
49.1727,-42.682,-0.11112,0
49.2355,-42.6372,-0.11571,0
49.2971,-42.591,-0.120202,0
49.3577,-42.5436,-0.124587,0
49.4173,-42.4949,-0.128864,0
49.4756,-42.445,-0.133034,0
49.533,-42.3939,-0.137096,0
49.5891,-42.3416,-0.141042,0
49.6439,-42.2881,-0.14488,0
49.6977,-42.2335,-0.14861,0
49.7501,-42.1778,-0.152214,0
49.8013,-42.121,-0.15571,0
49.8512,-42.0632,-0.159079,0
49.8998,-42.0044,-0.162341,0
49.9472,-41.9445,-0.165475,0
49.9932,-41.8838,-0.168483,0
50.0379,-41.822,-0.171374,0
50.0812,-41.7594,-0.174147,0
50.1229,-41.6958,-0.176843,0
50.1624,-41.6307,-0.179762,0
50.2005,-41.5649,-0.182546,0
50.2372,-41.4984,-0.185173,0
50.2723,-41.4312,-0.187673,0
50.3062,-41.3633,-0.190026,0
50.3385,-41.2948,-0.192223,0
50.3694,-41.2256,-0.194284,0
50.3989,-41.1559,-0.196188,0
50.4269,-41.0856,-0.197956,0
50.4534,-41.0148,-0.199577,0
50.4792,-40.9438,-0.200768,0
50.5038,-40.8724,-0.201755,0
50.5269,-40.8004,-0.202575,0
50.5485,-40.728,-0.203259,0
50.5687,-40.6552,-0.203786,0
50.5873,-40.582,-0.204157,0
50.6044,-40.5083,-0.204421,0
50.6191,-40.4342,-0.204772,0
50.6323,-40.3597,-0.204997,0
50.6437,-40.285,-0.205085,0
50.6538,-40.2101,-0.205016,0
50.6623,-40.135,-0.204811,0
50.6691,-40.0597,-0.20447,0
45.4423,-42.7359,0.146937,0
45.5092,-42.7794,0.142786,0
45.577,-42.8212,0.138577,0
45.6458,-42.8615,0.13432,0
49.0522,-42.6801,-0.101188,0
49.115,-42.638,-0.105827,0
49.1769,-42.5946,-0.110358,0
49.2377,-42.5498,-0.114792,0
49.2975,-42.5038,-0.119128,0
49.3562,-42.4566,-0.123356,0
49.4138,-42.4082,-0.127477,0
49.4703,-42.3585,-0.131501,0
49.5257,-42.3077,-0.135407,0
49.5799,-42.2557,-0.139206,0
49.6329,-42.2027,-0.142897,0
49.6848,-42.1485,-0.146471,0
49.7354,-42.0933,-0.149938,0
49.7848,-42.037,-0.153288,0
49.8329,-41.9797,-0.15652,0
49.8797,-41.9214,-0.159626,0
49.9253,-41.8622,-0.162624,0
49.9695,-41.8021,-0.165505,0
50.0125,-41.741,-0.168259,0
50.054,-41.6791,-0.170905,0
50.0942,-41.6163,-0.173405,0
50.1327,-41.5525,-0.175944,0
50.1691,-41.4875,-0.178591,0
50.2041,-41.4218,-0.181081,0
50.2378,-41.3555,-0.183434,0
50.27,-41.2886,-0.185641,0
50.3009,-41.221,-0.187712,0
50.3302,-41.1529,-0.189636,0
50.3582,-41.0841,-0.191423,0
50.3847,-41.0149,-0.193063,0
50.4105,-40.9454,-0.194294,0
50.4352,-40.8756,-0.1953,0
50.4583,-40.8052,-0.196159,0
50.48,-40.7343,-0.196882,0
50.5003,-40.6631,-0.197448,0
50.5189,-40.5913,-0.197897,0
50.5353,-40.5191,-0.198434,0
50.5503,-40.4465,-0.198845,0
50.5637,-40.3736,-0.199108,0
50.5755,-40.3005,-0.199235,0
50.5859,-40.2271,-0.199216,0
50.5946,-40.1536,-0.199059,0
50.6019,-40.0798,-0.198766,0
45.5274,-42.7012,0.141927,0
45.5935,-42.7427,0.137835,0
45.6605,-42.7826,0.133685,0
45.7284,-42.821,0.129486,0
45.7971,-42.8577,0.125208,0
45.8671,-42.8921,0.12057,0
45.9378,-42.9249,0.115882,0
46.0092,-42.956,0.111175,0
46.0813,-42.9855,0.106429,0
46.1541,-43.0133,0.101654,0
46.2273,-43.0393,0.0968488,0
46.3013,-43.0637,0.0920246,0
46.3756,-43.0864,0.0871809,0
46.4505,-43.1074,0.0823127,0
46.5259,-43.1266,0.0774152,0
46.6016,-43.1441,0.0725178,0
46.6777,-43.1598,0.0676105,0
46.7541,-43.1737,0.0626838,0
46.8308,-43.1859,0.0577668,0
46.9077,-43.1964,0.0528303,0
46.9848,-43.205,0.0479084,0
47.062,-43.2119,0.0429719,0
47.1395,-43.217,0.0380402,0
47.2169,-43.2204,0.0331232,0
47.2944,-43.2219,0.0282209,0
47.3719,-43.2217,0.0233186,0
47.4492,-43.2197,0.0184309,0
47.5266,-43.2159,0.0135676,0
47.6037,-43.2104,0.00871895,0
47.6807,-43.202,0.00347481,0
47.7571,-43.1904,-0.00223808,0
47.8332,-43.1771,-0.00793632,0
47.9089,-43.1621,-0.0135857,0
47.9841,-43.1452,-0.0192547,0
48.0587,-43.1259,-0.0251482,0
48.1327,-43.105,-0.0309734,0
48.2061,-43.0825,-0.0367205,0
48.279,-43.0584,-0.042409,0
48.3512,-43.0327,-0.0480242,0
48.4227,-43.0055,-0.0535418,0
48.4935,-42.9768,-0.0590105,0
48.5636,-42.9465,-0.0643914,0
48.633,-42.9147,-0.0696844,0
48.7014,-42.8815,-0.0748992,0
48.7691,-42.8467,-0.0800164,0
48.836,-42.8106,-0.0850652,0
48.902,-42.773,-0.0900164,0
48.967,-42.7341,-0.0948699,0
49.0311,-42.6938,-0.0996258,0
49.0943,-42.6521,-0.104304,0
49.1564,-42.6091,-0.108864,0
49.2177,-42.5648,-0.113327,0
49.2777,-42.5192,-0.117702,0
49.3369,-42.4724,-0.12196,0
49.3948,-42.4244,-0.12612,0
49.4516,-42.3751,-0.130173,0
49.5074,-42.3247,-0.134118,0
49.562,-42.2731,-0.137956,0
49.6155,-42.2204,-0.141696,0
49.6677,-42.1666,-0.1453,0
49.7188,-42.1117,-0.148805,0
49.7685,-42.0558,-0.152184,0
49.817,-41.9988,-0.155456,0
49.8643,-41.9409,-0.15861,0
49.9103,-41.882,-0.161647,0
49.955,-41.8221,-0.164567,0
49.9984,-41.7614,-0.16736,0
50.0404,-41.6997,-0.170036,0
50.081,-41.6372,-0.172585,0
50.1202,-41.5739,-0.175036,0
50.1572,-41.5091,-0.177721,0
50.1927,-41.4437,-0.18027,0
50.2267,-41.3776,-0.182663,0
50.2595,-41.3109,-0.184919,0
50.2908,-41.2435,-0.187038,0
50.3206,-41.1755,-0.18902,0
50.3491,-41.107,-0.190846,0
50.3761,-41.0379,-0.192536,0
50.402,-40.9685,-0.193923,0
50.4272,-40.8988,-0.194977,0
50.4508,-40.8286,-0.195895,0
50.473,-40.7579,-0.196657,0
50.4937,-40.6868,-0.197272,0
50.513,-40.6152,-0.197741,0
50.5301,-40.5431,-0.198278,0
50.5455,-40.4706,-0.198727,0
50.5594,-40.3979,-0.19904,0
50.5718,-40.3248,-0.199206,0
50.5827,-40.2515,-0.199235,0
50.5919,-40.178,-0.199128,0
50.5996,-40.1043,-0.198874,0
45.5057,-42.6871,0.143284,0
45.5715,-42.7291,0.139202,0
45.6381,-42.7695,0.135071,0
45.7058,-42.8084,0.130882,0
45.7742,-42.8457,0.126654,0
45.8438,-42.8809,0.122112,0
45.9142,-42.9142,0.117445,0
45.9854,-42.9459,0.112747,0
46.0573,-42.9759,0.108011,0
46.1298,-43.0042,0.103245,0
46.203,-43.0309,0.0984504,0
46.2766,-43.0558,0.0936262,0
46.3509,-43.0791,0.0887824,0
46.4256,-43.1006,0.083924,0
46.5008,-43.1204,0.0790461,0
46.5764,-43.1384,0.0741438,0
46.6524,-43.1548,0.0692463,0
46.7287,-43.1693,0.0643195,0
46.8052,-43.1821,0.0594025,0
46.8822,-43.1931,0.0544709,0
46.9591,-43.2024,0.0495441,0
47.0364,-43.2098,0.0446076,0
47.1137,-43.2155,0.039676,0
47.1912,-43.2195,0.034759,0
47.2687,-43.2216,0.0298469,0
47.3461,-43.222,0.0249397,0
47.4236,-43.2206,0.020052,0
47.5009,-43.2174,0.0151838,0
47.5781,-43.2124,0.0103254,0
47.6552,-43.2055,0.00539375,0
47.7318,-43.1945,-0.000343552,0
47.808,-43.1817,-0.00605644,0
47.8838,-43.1673,-0.0117156,0
47.9592,-43.1511,-0.0173406,0
48.034,-43.1325,-0.0232,0
48.1082,-43.1122,-0.029035,0
48.1819,-43.0902,-0.0348211,0
48.2549,-43.0666,-0.0405242,0
48.3273,-43.0415,-0.046159,0
48.3991,-43.0147,-0.0517156,0
48.4701,-42.9865,-0.0572137,0
48.5405,-42.9567,-0.0626043,0
48.6099,-42.9254,-0.0679266,0
48.6787,-42.8927,-0.0731707,0
48.7467,-42.8584,-0.0783367,0
48.8139,-42.8227,-0.0834051,0
48.8801,-42.7857,-0.0883758,0
48.9455,-42.7472,-0.0932684,0
49.0099,-42.7073,-0.0980633,0
49.0734,-42.6661,-0.102751,0
49.1359,-42.6235,-0.10736,0
49.1974,-42.5797,-0.111862,0
49.2579,-42.5345,-0.116266,0
49.3173,-42.4881,-0.120554,0
49.3757,-42.4405,-0.124753,0
49.4329,-42.3916,-0.128845,0
49.4891,-42.3416,-0.132819,0
49.5441,-42.2904,-0.136696,0
49.5979,-42.238,-0.140456,0
49.6505,-42.1846,-0.144118,0
49.702,-42.1301,-0.147653,0
49.7521,-42.0745,-0.151081,0
49.8011,-42.0178,-0.154391,0
49.8487,-41.9602,-0.157575,0
49.8952,-41.9016,-0.160651,0
49.9403,-41.8421,-0.16361,0
49.9841,-41.7816,-0.166442,0
50.0266,-41.7203,-0.169157,0
50.0677,-41.6581,-0.171755,0
50.1074,-41.595,-0.174225,0
50.145,-41.5307,-0.176852,0
50.1811,-41.4655,-0.17944,0
50.2156,-41.3996,-0.181882,0
50.2487,-41.3331,-0.184186,0
50.2805,-41.2659,-0.186354,0
50.3109,-41.1982,-0.188376,0
50.3398,-41.1298,-0.190251,0
50.3673,-41.0609,-0.191989,0
50.3934,-40.9916,-0.193542,0
50.419,-40.922,-0.194645,0
50.4431,-40.852,-0.195602,0
50.4658,-40.7814,-0.196413,0
50.487,-40.7104,-0.197087,0
50.5067,-40.639,-0.197604,0
50.5246,-40.5671,-0.198093,0
50.5405,-40.4947,-0.198591,0
50.5549,-40.4221,-0.198942,0
50.5678,-40.3491,-0.199157,0
50.5791,-40.2759,-0.199245,0
50.589,-40.2024,-0.199186,0
50.5973,-40.1288,-0.198981,0
50.6039,-40.055,-0.198639,0
45.4841,-42.6728,0.144632,0
45.5495,-42.7153,0.14056,0
45.6159,-42.7563,0.136439,0
45.6832,-42.7957,0.132279,0
49.0184,-42.6224,-0.0976726,0
49.08,-42.5812,-0.102214,0
49.1406,-42.5387,-0.106667,0
49.2002,-42.4949,-0.111012,0
49.2588,-42.4499,-0.11527,0
49.3164,-42.4037,-0.119421,0
49.3729,-42.3563,-0.123464,0
49.4283,-42.3077,-0.127399,0
49.4826,-42.2579,-0.131237,0
49.5358,-42.207,-0.134968,0
49.5877,-42.1551,-0.138581,0
49.6386,-42.102,-0.142087,0
49.6883,-42.0479,-0.145485,0
49.7366,-41.9928,-0.148776,0
49.7839,-41.9367,-0.15195,0
49.8298,-41.8796,-0.155007,0
49.8745,-41.8216,-0.157936,0
49.9179,-41.7627,-0.160759,0
49.96,-41.7028,-0.163473,0
50.0008,-41.6421,-0.166052,0
50.0402,-41.5806,-0.168512,0
50.0783,-41.5183,-0.170856,0
50.115,-41.4552,-0.173083,0
50.1495,-41.3909,-0.175505,0
50.1826,-41.3259,-0.177819,0
50.2142,-41.2603,-0.179987,0
50.2445,-41.194,-0.182028,0
50.2734,-41.1272,-0.183913,0
50.3008,-41.0598,-0.185661,0
50.3269,-40.992,-0.187233,0
50.3524,-40.9239,-0.188366,0
50.3766,-40.8554,-0.189352,0
50.3993,-40.7863,-0.190212,0
50.4206,-40.7169,-0.190905,0
50.44,-40.6468,-0.191608,0
50.4576,-40.5763,-0.192282,0
50.4737,-40.5055,-0.192809,0
50.4884,-40.4343,-0.19321,0
50.5015,-40.3629,-0.193464,0
50.5132,-40.2912,-0.193591,0
50.5233,-40.2192,-0.193571,0
50.5319,-40.1471,-0.193425,0
50.5389,-40.0748,-0.193132,0
45.5667,-42.6398,0.139769,0
45.6314,-42.6804,0.135755,0
45.697,-42.7195,0.131693,0
45.7634,-42.7571,0.127581,0
45.8307,-42.7931,0.123421,0
45.8991,-42.8269,0.118958,0
45.9682,-42.859,0.114378,0
46.0382,-42.8895,0.109769,0
46.1087,-42.9184,0.10512,0
46.1798,-42.9456,0.100452,0
46.2516,-42.9711,0.0957453,0
46.324,-42.995,0.0910188,0
46.3968,-43.0172,0.0862727,0
46.4702,-43.0378,0.0815168,0
46.5438,-43.0566,0.0767316,0
46.6179,-43.0737,0.0719367,0
46.6924,-43.0891,0.067132,0
46.7672,-43.1028,0.0623078,0
46.8422,-43.1148,0.0574836,0
46.9175,-43.125,0.0526594,0
46.993,-43.1335,0.0478303,0
47.0686,-43.1403,0.0430061,0
47.1444,-43.1453,0.0381818,0
47.2202,-43.1486,0.0333674,0
47.296,-43.1501,0.0285627,0
47.3719,-43.15,0.0237678,0
47.4477,-43.148,0.0189924,0
47.5234,-43.1443,0.0142219,0
47.5989,-43.139,0.00947578,0
47.6742,-43.131,0.00442696,0
47.7491,-43.1197,-0.0011834,0
47.8236,-43.1067,-0.00675957,0
47.8977,-43.0921,-0.0122869,0
47.9713,-43.0758,-0.0177801,0
48.0446,-43.0579,-0.0232195,0
48.1172,-43.0378,-0.0288348,0
48.1891,-43.0158,-0.0344793,0
48.2605,-42.9923,-0.0400457,0
48.3312,-42.9672,-0.0455437,0
48.4013,-42.9406,-0.0509734,0
48.4708,-42.9125,-0.056325,0
48.5394,-42.8829,-0.0615984,0
48.6074,-42.8519,-0.066784,0
48.6745,-42.8194,-0.0719012,0
48.7409,-42.7854,-0.0769207,0
48.8063,-42.7501,-0.0818621,0
48.871,-42.7133,-0.0867156,0
48.9348,-42.6753,-0.0914715,0
48.9977,-42.6358,-0.0961492,0
49.0596,-42.595,-0.100729,0
49.1205,-42.553,-0.105202,0
49.1805,-42.5096,-0.109587,0
49.2395,-42.465,-0.113864,0
49.2974,-42.4192,-0.118054,0
49.3543,-42.3721,-0.122126,0
49.4101,-42.3239,-0.1261,0
49.4647,-42.2746,-0.129977,0
49.5183,-42.2241,-0.133737,0
49.5706,-42.1724,-0.137399,0
49.6219,-42.1197,-0.140944,0
49.6719,-42.066,-0.144372,0
49.7208,-42.0112,-0.147702,0
49.7684,-41.9554,-0.150905,0
49.8147,-41.8987,-0.154001,0
49.8598,-41.841,-0.156979,0
49.9037,-41.7823,-0.159831,0
49.9462,-41.7228,-0.162585,0
49.9873,-41.6624,-0.165202,0
50.0273,-41.6012,-0.167712,0
50.0658,-41.5391,-0.170095,0
50.103,-41.4763,-0.17235,0
50.1382,-41.4124,-0.174704,0
50.1717,-41.3475,-0.177067,0
50.2038,-41.2821,-0.179284,0
50.2346,-41.2161,-0.181354,0
50.2639,-41.1494,-0.183298,0
50.2918,-41.0822,-0.185104,0
50.3183,-41.0145,-0.186755,0
50.3441,-40.9466,-0.188014,0
50.3687,-40.8782,-0.18905,0
50.392,-40.8093,-0.189938,0
50.4137,-40.74,-0.19069,0
50.4338,-40.6701,-0.191364,0
50.452,-40.5998,-0.192077,0
50.4685,-40.529,-0.192653,0
50.4837,-40.458,-0.193093,0
50.4973,-40.3866,-0.193395,0
50.5095,-40.315,-0.193561,0
50.5201,-40.2431,-0.1936,0
50.5291,-40.171,-0.193483,0
50.5368,-40.0988,-0.193239,0
45.5455,-42.626,0.141087,0
45.6098,-42.6671,0.137093,0
45.6751,-42.7067,0.13305,0
45.7412,-42.7448,0.128958,0
45.8082,-42.7813,0.124808,0
45.8762,-42.8159,0.120472,0
45.9452,-42.8485,0.115902,0
46.0148,-42.8796,0.111302,0
46.0852,-42.909,0.106673,0
46.1562,-42.9367,0.101995,0
46.2278,-42.9628,0.0973176,0
46.2998,-42.9873,0.092591,0
46.3726,-43.01,0.0878449,0
46.4457,-43.0311,0.0830891,0
46.5193,-43.0505,0.0783137,0
46.5934,-43.0682,0.0735285,0
46.6677,-43.0842,0.0687238,0
46.7423,-43.0985,0.0639045,0
46.8173,-43.111,0.0590949,0
46.8925,-43.1218,0.0542658,0
46.9679,-43.1309,0.0494367,0
47.0435,-43.1382,0.0446125,0
47.1192,-43.1438,0.0397883,0
47.195,-43.1477,0.0349738,0
47.2709,-43.1498,0.0301594,0
47.3467,-43.1502,0.0253596,0
47.4225,-43.1489,0.0205744,0
47.4982,-43.1458,0.0158039,0
47.5738,-43.141,0.0110578,0
47.6493,-43.1343,0.00629707,0
47.7243,-43.1236,0.000676956,0
47.7989,-43.1112,-0.00491875,0
47.8731,-43.0972,-0.0104559,0
47.947,-43.0814,-0.0159588,0
48.0203,-43.0641,-0.0214227,0
48.0932,-43.0447,-0.0269598,0
48.1653,-43.0233,-0.0326141,0
48.2369,-43.0003,-0.0382,0
48.3078,-42.9757,-0.0437273,0
48.3782,-42.9496,-0.0491766,0
48.4477,-42.922,-0.0545574,0
48.5167,-42.8929,-0.0598504,0
48.5849,-42.8623,-0.065075,0
48.6523,-42.8303,-0.0702117,0
48.7189,-42.7968,-0.0752703,0
48.7847,-42.762,-0.0802312,0
48.8497,-42.7257,-0.0851141,0
48.9137,-42.688,-0.089909,0
48.9769,-42.649,-0.0946062,0
49.0392,-42.6087,-0.0992156,0
49.1004,-42.5671,-0.103727,0
49.1607,-42.5242,-0.108141,0
49.2201,-42.4799,-0.112458,0
49.2783,-42.4345,-0.116667,0
49.3355,-42.3879,-0.120788,0
49.3916,-42.3401,-0.124802,0
49.4467,-42.2911,-0.128708,0
49.5006,-42.2409,-0.132507,0
49.5534,-42.1897,-0.136198,0
49.605,-42.1374,-0.139772,0
49.6555,-42.0839,-0.143249,0
49.7047,-42.0295,-0.146608,0
49.7527,-41.9741,-0.14985,0
49.7995,-41.9176,-0.152985,0
49.845,-41.8602,-0.156003,0
49.8892,-41.8019,-0.158903,0
49.9322,-41.7426,-0.161686,0
49.9739,-41.6825,-0.164352,0
50.0141,-41.6216,-0.166891,0
50.0532,-41.5598,-0.169313,0
50.0908,-41.4972,-0.171618,0
50.1268,-41.4337,-0.173893,0
50.1608,-41.3691,-0.176305,0
50.1934,-41.3039,-0.178561,0
50.2245,-41.2381,-0.18069,0
50.2544,-41.1716,-0.182673,0
50.2827,-41.1046,-0.184518,0
50.3097,-41.0371,-0.186218,0
50.3356,-40.9692,-0.187624,0
50.3607,-40.9009,-0.188718,0
50.3844,-40.8322,-0.189665,0
50.4066,-40.763,-0.190456,0
50.4274,-40.6934,-0.19111,0
50.4461,-40.6232,-0.191852,0
50.4632,-40.5526,-0.192477,0
50.4789,-40.4816,-0.192956,0
50.493,-40.4103,-0.193317,0
50.5055,-40.3388,-0.193532,0
50.5167,-40.267,-0.1936,0
50.5263,-40.195,-0.193542,0
50.5344,-40.1228,-0.193337,0
50.5409,-40.0504,-0.193014,0
45.5244,-42.6121,0.142396,0
45.5884,-42.6537,0.138431,0
45.6534,-42.6937,0.134398,0
45.7191,-42.7323,0.130316,0
48.9856,-42.5667,-0.094284,0
49.046,-42.5264,-0.0987371,0
49.1055,-42.4848,-0.103102,0
49.1641,-42.4419,-0.10737,0
49.2215,-42.3979,-0.11154,0
49.278,-42.3526,-0.115612,0
49.3334,-42.3062,-0.119577,0
49.3877,-42.2586,-0.123444,0
49.4409,-42.2098,-0.127214,0
49.4931,-42.16,-0.130866,0
49.5442,-42.1091,-0.134421,0
49.5941,-42.0571,-0.137858,0
49.6427,-42.0041,-0.141188,0
49.6902,-41.9501,-0.144421,0
49.7365,-41.8951,-0.147526,0
49.7816,-41.8392,-0.150524,0
49.8254,-41.7823,-0.153405,0
49.868,-41.7246,-0.156169,0
49.9093,-41.6659,-0.158835,0
49.9493,-41.6065,-0.161374,0
49.988,-41.5462,-0.163786,0
50.0254,-41.4851,-0.166091,0
50.0614,-41.4233,-0.168268,0
50.0961,-41.3607,-0.170319,0
50.1291,-41.2972,-0.17238,0
50.1602,-41.2329,-0.174518,0
50.1898,-41.1679,-0.176511,0
50.2182,-41.1024,-0.178376,0
50.2452,-41.0363,-0.180095,0
50.2712,-40.9699,-0.18152,0
50.2962,-40.9031,-0.182634,0
50.3199,-40.8358,-0.18361,0
50.3421,-40.7681,-0.184489,0
50.3623,-40.6997,-0.185397,0
50.3811,-40.6309,-0.186198,0
50.3984,-40.5618,-0.186852,0
50.4142,-40.4923,-0.18737,0
50.4285,-40.4225,-0.187761,0
50.4414,-40.3525,-0.188014,0
50.4528,-40.2821,-0.188132,0
50.4627,-40.2116,-0.188122,0
50.4712,-40.1408,-0.187966,0
50.4781,-40.0699,-0.187682,0
45.6047,-42.5807,0.137669,0
45.6679,-42.6205,0.133753,0
45.7321,-42.6587,0.129779,0
45.7971,-42.6955,0.125745,0
45.863,-42.7307,0.121673,0
45.9298,-42.7641,0.117405,0
45.9976,-42.7956,0.112933,0
46.066,-42.8254,0.108411,0
46.1352,-42.8537,0.103861,0
46.2048,-42.8804,0.0992902,0
46.2751,-42.9054,0.0946809,0
46.3459,-42.9288,0.090052,0
46.4172,-42.9506,0.0854035,0
46.4889,-42.9707,0.0807453,0
46.5611,-42.9891,0.0760676,0
46.6337,-43.0059,0.0713703,0
46.7066,-43.021,0.0666633,0
46.7798,-43.0345,0.0619465,0
46.8533,-43.0462,0.0572199,0
46.927,-43.0562,0.0524934,0
47.0009,-43.0646,0.0477766,0
47.0749,-43.0712,0.0430402,0
47.1491,-43.0762,0.0383234,0
47.2234,-43.0794,0.0336066,0
47.2976,-43.081,0.0288996,0
47.3719,-43.0808,0.0242023,0
47.4461,-43.0789,0.0195246,0
47.5202,-43.0754,0.0148566,0
47.5942,-43.0701,0.010218,0
47.668,-43.0625,0.00532539,0
47.7413,-43.0515,-0.000162888,0
47.8143,-43.0389,-0.00563164,0
47.8869,-43.0247,-0.0110418,0
47.9591,-43.0088,-0.0164129,0
48.0308,-42.9913,-0.0217547,0
48.102,-42.9722,-0.0270379,0
48.1727,-42.9514,-0.0323211,0
48.2427,-42.9284,-0.0377801,0
48.312,-42.9039,-0.0431609,0
48.3808,-42.8779,-0.048493,0
48.4487,-42.8505,-0.0537273,0
48.5161,-42.8216,-0.0588934,0
48.5827,-42.7912,-0.063991,0
48.6485,-42.7594,-0.0690008,0
48.7135,-42.7262,-0.0739324,0
48.7778,-42.6916,-0.0787762,0
48.8412,-42.6557,-0.083532,0
48.9037,-42.6184,-0.0882098,0
48.9654,-42.5798,-0.0927801,0
49.0262,-42.5399,-0.0972723,0
49.0859,-42.4987,-0.101667,0
49.1448,-42.4563,-0.105964,0
49.2026,-42.4126,-0.110163,0
49.2594,-42.3678,-0.114264,0
49.3152,-42.3217,-0.118268,0
49.3698,-42.2745,-0.122175,0
49.4235,-42.2261,-0.125973,0
49.4759,-42.1767,-0.129655,0
49.5273,-42.1261,-0.133249,0
49.5776,-42.0745,-0.136735,0
49.6266,-42.0218,-0.140095,0
49.6746,-41.9681,-0.143356,0
49.7213,-41.9135,-0.146511,0
49.7667,-41.8579,-0.149538,0
49.811,-41.8013,-0.152458,0
49.854,-41.7438,-0.15527,0
49.8958,-41.6855,-0.157966,0
49.9362,-41.6263,-0.160544,0
49.9753,-41.5663,-0.163005,0
50.013,-41.5055,-0.165329,0
50.0495,-41.4439,-0.167555,0
50.0847,-41.3815,-0.169655,0
50.1185,-41.3185,-0.171637,0
50.15,-41.2543,-0.173825,0
50.1802,-41.1895,-0.175876,0
50.209,-41.1242,-0.17777,0
50.2364,-41.0583,-0.179538,0
50.2625,-40.9919,-0.18113,0
50.288,-40.9253,-0.182282,0
50.3123,-40.8582,-0.183307,0
50.3349,-40.7907,-0.184186,0
50.3558,-40.7225,-0.185104,0
50.375,-40.6538,-0.185944,0
50.3927,-40.5848,-0.186647,0
50.4091,-40.5154,-0.187214,0
50.4239,-40.4458,-0.187643,0
50.4373,-40.3758,-0.187946,0
50.4491,-40.3055,-0.188112,0
50.4596,-40.235,-0.188141,0
50.4685,-40.1643,-0.188034,0
50.4759,-40.0934,-0.1878,0
45.5838,-42.5672,0.138968,0
45.6468,-42.6074,0.135052,0
45.7107,-42.6462,0.131097,0
45.7754,-42.6834,0.127083,0
45.8411,-42.7192,0.12303,0
45.9075,-42.7533,0.11889,0
45.975,-42.7853,0.114417,0
46.0432,-42.8157,0.109915,0
46.112,-42.8445,0.105374,0
46.1816,-42.8717,0.100804,0
46.2517,-42.8973,0.0962141,0
46.3223,-42.9212,0.0915949,0
46.3934,-42.9435,0.0869562,0
46.4651,-42.9642,0.082298,0
46.5371,-42.9832,0.0776203,0
46.6095,-43.0005,0.072923,0
46.6823,-43.0162,0.0682258,0
46.7555,-43.0302,0.063509,0
46.8288,-43.0425,0.0587922,0
46.9025,-43.0531,0.0540656,0
46.9763,-43.062,0.0493391,0
47.0504,-43.0692,0.0446125,0
47.1245,-43.0747,0.0398859,0
47.1987,-43.0785,0.0351691,0
47.273,-43.0806,0.0304572,0
47.3472,-43.081,0.0257648,0
47.4215,-43.0797,0.0210773,0
47.4957,-43.0767,0.0164094,0
47.5697,-43.072,0.0117512,0
47.6436,-43.0656,0.00712227,0
47.717,-43.0553,0.00165352,0
47.7901,-43.0433,-0.00381523,0
47.8628,-43.0296,-0.00925468,0
47.9352,-43.0142,-0.0146355,0
48.007,-42.9973,-0.0199871,0
48.0784,-42.9787,-0.0252898,0
48.1494,-42.9585,-0.0305437,0
48.2195,-42.9362,-0.0359637,0
48.2891,-42.9122,-0.0413836,0
48.358,-42.8867,-0.0467254,0
48.4262,-42.8598,-0.0519988,0
48.4937,-42.8313,-0.0571941,0
48.5606,-42.8014,-0.0623113,0
48.6268,-42.7701,-0.0673504,0
48.692,-42.7374,-0.0723016,0
48.7566,-42.7033,-0.0771844,0
48.8203,-42.6678,-0.0819598,0
48.8831,-42.6309,-0.0866668,0
48.945,-42.5928,-0.0912762,0
49.0061,-42.5533,-0.0957977,0
49.0662,-42.5125,-0.100221,0
49.1253,-42.4705,-0.104548,0
49.1835,-42.4273,-0.108786,0
49.2405,-42.3828,-0.112917,0
49.2967,-42.3371,-0.11695,0
49.3518,-42.2903,-0.120895,0
49.4058,-42.2423,-0.124723,0
49.4587,-42.1932,-0.128454,0
49.5104,-42.143,-0.132067,0
49.5611,-42.0917,-0.135583,0
49.6105,-42.0394,-0.138991,0
49.6588,-41.9861,-0.142282,0
49.7059,-41.9317,-0.145475,0
49.7518,-41.8764,-0.148552,0
49.7965,-41.8202,-0.151511,0
49.8399,-41.763,-0.154352,0
49.882,-41.7049,-0.157087,0
49.9229,-41.6461,-0.159694,0
49.9625,-41.5863,-0.162204,0
50.0007,-41.5257,-0.164567,0
50.0377,-41.4644,-0.166833,0
50.0733,-41.4023,-0.168971,0
50.1074,-41.3395,-0.170993,0
50.1397,-41.2757,-0.173112,0
50.1703,-41.2111,-0.175212,0
50.1996,-41.1459,-0.177155,0
50.2274,-41.0802,-0.178971,0
50.2539,-41.014,-0.180641,0
50.2798,-40.9475,-0.181921,0
50.3043,-40.8806,-0.182985,0
50.3276,-40.8131,-0.183913,0
50.3491,-40.7452,-0.184802,0
50.3688,-40.6767,-0.18568,0
50.387,-40.6078,-0.186432,0
50.4038,-40.5385,-0.187038,0
50.4191,-40.4689,-0.187516,0
50.433,-40.399,-0.187858,0
50.4454,-40.3288,-0.188073,0
50.4563,-40.2584,-0.188141,0
50.4658,-40.1878,-0.188083,0
50.4737,-40.117,-0.187897,0
50.4801,-40.046,-0.187565,0
45.5631,-42.5535,0.140257,0
45.6259,-42.5942,0.136361,0
45.6894,-42.6335,0.132415,0
45.7538,-42.6712,0.128431,0
48.9541,-42.5129,-0.0910125,0
49.0134,-42.4734,-0.0953777,0
49.0716,-42.4327,-0.0996648,0
49.1291,-42.3907,-0.103845,0
49.1855,-42.3475,-0.107936,0
49.2409,-42.3032,-0.11193,0
49.2952,-42.2577,-0.115827,0
49.3485,-42.2111,-0.119616,0
49.4008,-42.1633,-0.123317,0
49.452,-42.1145,-0.126911,0
49.502,-42.0646,-0.130387,0
49.5509,-42.0137,-0.133766,0
49.5987,-41.9617,-0.137038,0
49.6454,-41.9088,-0.140192,0
49.6908,-41.8549,-0.143249,0
49.735,-41.8001,-0.146198,0
49.778,-41.7444,-0.14903,0
49.8198,-41.6878,-0.151745,0
49.8603,-41.6303,-0.154352,0
49.8995,-41.572,-0.156833,0
49.9375,-41.5129,-0.159216,0
49.9741,-41.453,-0.161471,0
50.0095,-41.3923,-0.16361,0
50.0436,-41.331,-0.165641,0
50.0762,-41.2689,-0.167536,0
50.1077,-41.2062,-0.169323,0
50.1371,-41.1426,-0.171179,0
50.1649,-41.0783,-0.173005,0
50.1914,-41.0135,-0.174704,0
50.2172,-40.9484,-0.176003,0
50.2418,-40.8829,-0.177087,0
50.2645,-40.8168,-0.178229,0
50.2858,-40.7501,-0.179274,0
50.3056,-40.6831,-0.180173,0
50.324,-40.6156,-0.180944,0
50.3409,-40.5478,-0.181589,0
50.3565,-40.4796,-0.182106,0
50.3706,-40.4111,-0.182487,0
50.3833,-40.3424,-0.182741,0
50.3945,-40.2734,-0.182858,0
50.4041,-40.2042,-0.182839,0
50.4124,-40.1348,-0.182692,0
50.4192,-40.0652,-0.182419,0
45.6412,-42.5237,0.135667,0
45.7031,-42.5626,0.13182,0
45.766,-42.6001,0.127923,0
45.8297,-42.6361,0.123978,0
45.8942,-42.6706,0.120003,0
45.9595,-42.7035,0.115911,0
46.0259,-42.7343,0.111517,0
46.0929,-42.7636,0.107103,0
46.1605,-42.7913,0.10264,0
46.2287,-42.8174,0.0981574,0
46.2977,-42.842,0.0936652,0
46.367,-42.8649,0.0891242,0
46.4368,-42.8863,0.0845734,0
46.507,-42.906,0.0800031,0
46.5778,-42.9241,0.075423,0
46.6488,-42.9405,0.0708234,0
46.7203,-42.9554,0.0662043,0
46.792,-42.9685,0.0615949,0
46.8639,-42.98,0.056966,0
46.9362,-42.9899,0.0523371,0
47.0085,-42.9981,0.0477082,0
47.0811,-43.0046,0.0430793,0
47.1537,-43.0095,0.0384602,0
47.2264,-43.0127,0.033841,0
47.2992,-43.0142,0.0292219,0
47.3719,-43.0141,0.024632,0
47.4446,-43.0123,0.0200422,0
47.5173,-43.0088,0.0154719,0
47.5897,-43.0036,0.0109211,0
47.662,-42.9964,0.0062043,0
47.7338,-42.9857,0.000823441,0
47.8053,-42.9734,-0.00452812,0
47.8764,-42.9595,-0.00984062,0
47.9471,-42.9441,-0.0151043,0
48.0174,-42.927,-0.0203289,0
48.0873,-42.9083,-0.0255144,0
48.1566,-42.8881,-0.0306414,0
48.2254,-42.8664,-0.0357293,0
48.2934,-42.8428,-0.040866,0
48.3608,-42.8174,-0.0460809,0
48.4275,-42.7906,-0.0512273,0
48.4935,-42.7623,-0.0562957,0
48.5588,-42.7326,-0.0612859,0
48.6234,-42.7015,-0.0662078,0
48.6873,-42.669,-0.0710418,0
48.7502,-42.6352,-0.0757879,0
48.8124,-42.6,-0.0804656,0
48.8737,-42.5635,-0.0850457,0
48.9342,-42.5257,-0.0895379,0
48.9938,-42.4867,-0.0939324,0
49.0524,-42.4463,-0.0982488,0
49.1102,-42.4048,-0.102468,0
49.1668,-42.362,-0.106589,0
49.2226,-42.3181,-0.110612,0
49.2773,-42.2729,-0.114538,0
49.3309,-42.2267,-0.118376,0
49.3836,-42.1793,-0.122096,0
49.4351,-42.1308,-0.12572,0
49.4855,-42.0813,-0.129245,0
49.5348,-42.0307,-0.132653,0
49.583,-41.9791,-0.135964,0
49.63,-41.9265,-0.139157,0
49.6759,-41.8729,-0.142253,0
49.7205,-41.8184,-0.145231,0
49.7639,-41.763,-0.148102,0
49.806,-41.7066,-0.150856,0
49.847,-41.6495,-0.153493,0
49.8866,-41.5914,-0.156022,0
49.9251,-41.5326,-0.158444,0
49.9622,-41.4729,-0.160739,0
49.9979,-41.4126,-0.162917,0
50.0324,-41.3514,-0.164968,0
50.0655,-41.2896,-0.166921,0
50.0973,-41.2271,-0.168747,0
50.1275,-41.1638,-0.170554,0
50.1558,-41.0997,-0.172419,0
50.1827,-41.0351,-0.174157,0
50.2087,-40.9701,-0.175602,0
50.2337,-40.9047,-0.176745,0
50.2572,-40.8388,-0.177858,0
50.2789,-40.7723,-0.178932,0
50.2992,-40.7053,-0.179889,0
50.318,-40.638,-0.1807,0
50.3355,-40.5703,-0.181393,0
50.3516,-40.5023,-0.18195,0
50.3661,-40.4339,-0.18238,0
50.3792,-40.3652,-0.182673,0
50.3909,-40.2963,-0.182829,0
50.4012,-40.2272,-0.182858,0
50.4099,-40.1578,-0.182761,0
50.4171,-40.0883,-0.182516,0
45.6208,-42.5105,0.136927,0
45.6824,-42.5499,0.133089,0
45.7451,-42.5878,0.129222,0
45.8084,-42.6243,0.125296,0
45.8727,-42.6593,0.121321,0
45.9377,-42.6929,0.117308,0
46.0038,-42.7243,0.112982,0
46.0706,-42.7541,0.108568,0
46.138,-42.7823,0.104124,0
46.2061,-42.8089,0.0996516,0
46.2747,-42.834,0.0951594,0
46.3439,-42.8575,0.0906379,0
46.4136,-42.8794,0.0860871,0
46.4837,-42.8996,0.0815266,0
46.5543,-42.9183,0.0769367,0
46.6252,-42.9353,0.0723469,0
46.6966,-42.9506,0.0677473,0
46.7682,-42.9643,0.0631281,0
46.84,-42.9764,0.058509,0
46.9122,-42.9868,0.0538801,0
46.9845,-42.9956,0.0492414,0
47.057,-43.0026,0.0446125,0
47.1296,-43.0081,0.0399934,0
47.2023,-43.0118,0.0353742,0
47.275,-43.0139,0.0307551,0
47.3477,-43.0143,0.0261555,0
47.4205,-43.013,0.0215559,0
47.4931,-43.0101,0.0169758,0
47.5656,-43.0055,0.012425,0
47.638,-42.9993,0.00788399,0
47.71,-42.9894,0.00260078,0
47.7816,-42.9777,-0.00276054,0
47.8529,-42.9643,-0.00807304,0
47.9237,-42.9494,-0.013366,0
47.9942,-42.9328,-0.0186004,0
48.0641,-42.9147,-0.0237957,0
48.1336,-42.895,-0.0289422,0
48.2026,-42.8738,-0.0340496,0
48.2709,-42.8509,-0.039118,0
48.3385,-42.826,-0.0443523,0
48.4054,-42.7996,-0.0495281,0
48.4716,-42.7718,-0.054616,0
48.5373,-42.7426,-0.0596355,0
48.602,-42.712,-0.0645867,0
48.6661,-42.6799,-0.06945,0
48.7294,-42.6466,-0.0742254,0
48.7919,-42.6118,-0.0789227,0
48.8535,-42.5758,-0.083532,0
48.9142,-42.5384,-0.0880535,0
48.9741,-42.4998,-0.0924871,0
49.033,-42.4599,-0.0968328,0
