5.22221,-0.867598,0.437943,0
5.22979,-0.769395,0.43264,0
5.23555,-0.671387,0.427435,0
5.23953,-0.573564,0.422308,0
5.24173,-0.475947,0.417269,0
5.24217,-0.378564,0.412318,0
5.24084,-0.281445,0.407464,0
5.23778,-0.18459,0.402689,0
5.23298,-0.0880469,0.39803,0
5.22646,0.00821289,0.393441,0
5.21823,0.10415,0.388948,0
5.2083,0.199727,0.384554,0
5.19667,0.294961,0.380257,0
5.18336,0.389814,0.376038,0
5.16837,0.484277,0.371917,0
5.15099,0.578203,0.367718,0
5.13157,0.671631,0.363489,0
5.1105,0.76457,0.359359,0
5.0878,0.856982,0.355325,0
5.06346,0.948857,0.35139,0
5.0301,1.03823,0.34553,0
4.98608,1.12403,0.337298,0
4.94094,1.20856,0.32928,0
4.89469,1.29188,0.321419,0
4.84737,1.37396,0.313763,0
4.79898,1.45482,0.306292,0
4.74955,1.53445,0.299007,0
4.69909,1.6129,0.291898,0
4.64762,1.69012,0.284984,0
4.59516,1.76615,0.278245,0
4.54172,1.84099,0.271683,0
4.48732,1.91464,0.265306,0
4.43196,1.98712,0.259105,0
4.37568,2.05841,0.253079,0
4.31847,2.12854,0.24723,0
4.26286,2.19925,0.242308,0
4.20655,2.2691,0.23764,0
4.14925,2.33792,0.233138,0
4.09096,2.40568,0.228802,0
4.03169,2.4724,0.224632,0
3.97145,2.53811,0.220609,0
3.91024,2.60273,0.216761,0
3.84807,2.66634,0.213079,0
3.78494,2.72891,0.209534,0
3.72086,2.7904,0.206175,0
3.65583,2.85087,0.202962,0
3.58986,2.91029,0.199915,0
3.52295,2.96865,0.197015,0
3.4551,3.02596,0.1943,0
3.38632,3.08221,0.191732,0
3.31661,3.13737,0.189329,0
3.24597,3.19151,0.187073,0
3.17435,3.24447,0.184964,0
3.10009,3.29363,0.182259,0
3.0261,3.3434,0.180218,0
3.47579,-4.11164,0.612044,0
3.56276,-4.04503,0.6093,0
3.64824,-3.97696,0.606595,0
3.72953,-3.90366,0.602611,0
3.80609,-3.82495,0.5972,0
3.8807,-3.74508,0.5918,0
3.95336,-3.66408,0.586439,0
4.02407,-3.58201,0.581097,0
4.09282,-3.4989,0.575755,0
4.1596,-3.41478,0.570452,0
4.22442,-3.32972,0.565189,0
4.28727,-3.24372,0.559925,0
4.34816,-3.15687,0.5547,0
4.40708,-3.06918,0.549525,0
4.46403,-2.98066,0.544349,0
4.51902,-2.89143,0.539232,0
4.57204,-2.80146,0.534144,0
4.62311,-2.71081,0.529095,0
4.6722,-2.6195,0.524075,0
4.71935,-2.52758,0.519085,0
4.76453,-2.43508,0.514144,0
4.80777,-2.34206,0.509261,0
4.84977,-2.24891,0.504632,0
4.89109,-2.15595,0.500452,0
4.9306,-2.06247,0.496331,0
4.9683,-1.96852,0.492279,0
5.00419,-1.87416,0.488323,0
5.03827,-1.77934,0.484417,0
5.07055,-1.68412,0.480579,0
5.10103,-1.58853,0.47681,0
5.12971,-1.49257,0.473109,0
5.15073,-1.39434,0.467757,0
5.16814,-1.29557,0.462005,0
5.18368,-1.19683,0.456302,0
5.19736,-1.09819,0.450716,0
5.2092,-0.999648,0.445198,0
5.21921,-0.90124,0.439769,0
5.2274,-0.802998,0.434456,0
5.23378,-0.704902,0.429193,0
5.23837,-0.607021,0.424046,0
5.24118,-0.509336,0.418978,0
5.24222,-0.411885,0.414007,0
5.24149,-0.314668,0.409114,0
5.23903,-0.217715,0.40432,0
5.23482,-0.121055,0.399612,0
5.22889,-0.024707,0.395003,0
5.22124,0.0713379,0.390491,0
5.21189,0.167051,0.386048,0
5.20084,0.262402,0.381712,0
5.1881,0.357373,0.377484,0
5.17369,0.451973,0.373333,0
5.15725,0.546123,0.369173,0
5.1384,0.639717,0.364915,0
5.1179,0.732793,0.360775,0
5.09575,0.8254,0.356693,0
5.07197,0.917471,0.352728,0
5.0449,1.00858,0.348392,0
5.00128,1.09479,0.340111,0
4.95652,1.17978,0.331995,0
4.91065,1.26352,0.324075,0
4.86369,1.346,0.31637,0
4.81566,1.42728,0.308841,0
4.76659,1.50734,0.301468,0
4.71648,1.58618,0.29432,0
4.66535,1.66382,0.287337,0
4.61323,1.74026,0.28053,0
4.56012,1.81551,0.273909,0
4.50605,1.88956,0.267474,0
4.45102,1.96244,0.261204,0
4.39505,2.03415,0.255111,0
4.33815,2.10467,0.249202,0
4.2819,2.17508,0.243948,0
4.22594,2.2453,0.239222,0
4.16898,2.31447,0.234661,0
4.11103,2.38262,0.230257,0
4.05209,2.44968,0.226048,0
3.99218,2.51573,0.221976,0
3.9313,2.58073,0.21806,0
3.86946,2.64469,0.21432,0
3.80666,2.70761,0.210726,0
3.7429,2.76948,0.207298,0
3.6782,2.8303,0.204036,0
3.61255,2.89008,0.200931,0
3.54596,2.9488,0.197991,0
3.47843,3.00645,0.195208,0
3.40997,3.06308,0.192581,0
3.34058,3.11863,0.19012,0
3.27026,3.17311,0.187825,0
3.199,3.22652,0.185687,0
3.1256,3.27692,0.183177,0
3.05081,3.32528,0.180579,0
2.98007,3.38094,0.180423,0
3.44568,-4.13412,0.613011,0
3.53315,-4.068,0.610247,0
3.61915,-4.00043,0.607523,0
3.70288,-3.93032,0.604456,0
3.7801,-3.85204,0.599056,0
3.85538,-3.77256,0.593655,0
3.92871,-3.69193,0.588275,0
4.00009,-3.61021,0.582904,0
4.06951,-3.52745,0.577571,0
4.13696,-3.44367,0.572269,0
4.20245,-3.35894,0.566986,0
4.26598,-3.27326,0.561732,0
4.32754,-3.18669,0.556488,0
4.38714,-3.09927,0.551282,0
4.44476,-3.01104,0.546116,0
4.50042,-2.92205,0.54098,0
4.55412,-2.83233,0.535882,0
4.60585,-2.7419,0.530814,0
4.65562,-2.65081,0.525775,0
4.70343,-2.55911,0.520794,0
4.74929,-2.4668,0.515833,0
4.79319,-2.37396,0.510931,0
4.83521,-2.28061,0.506077,0
4.87716,-2.18782,0.501878,0
4.91728,-2.09452,0.497747,0
4.9556,-2.00074,0.493665,0
4.9921,-1.90652,0.489681,0
5.02681,-1.81184,0.485736,0
5.0597,-1.71676,0.481878,0
5.0908,-1.62129,0.478089,0
5.1201,-1.52545,0.474368,0
5.14434,-1.42816,0.469759,0
5.1624,-1.32937,0.463968,0
5.17857,-1.23062,0.458245,0
5.19289,-1.13194,0.45262,0
5.20536,-1.03338,0.447083,0
5.21599,-0.934922,0.441634,0
5.2248,-0.836611,0.436263,0
5.2318,-0.738457,0.430989,0
5.237,-0.640508,0.425804,0
5.24042,-0.542754,0.420706,0
5.24206,-0.445195,0.415687,0
5.24194,-0.3479,0.410765,0
5.24007,-0.250879,0.40596,0
5.23645,-0.154121,0.401224,0
5.23111,-0.0576562,0.396575,0
5.22405,0.0384961,0.392025,0
5.21528,0.134316,0.387562,0
5.20481,0.229805,0.383187,0
5.19265,0.324912,0.378919,0
5.17881,0.419648,0.374739,0
5.1633,0.513975,0.370648,0
5.14504,0.607734,0.36637,0
5.1251,0.700986,0.362171,0
5.10352,0.79375,0.358079,0
5.0803,0.886006,0.354066,0
5.05545,0.977744,0.350159,0
5.01634,1.06542,0.342923,0
4.97197,1.15082,0.334749,0
4.92648,1.23496,0.32678,0
4.87989,1.3179,0.318987,0
4.83222,1.39959,0.31139,0
4.78351,1.48007,0.303978,0
4.73375,1.55932,0.296751,0
4.68297,1.63735,0.28972,0
4.63118,1.71421,0.282845,0
4.57841,1.78987,0.276165,0
4.52467,1.86434,0.269661,0
4.46996,1.93762,0.263333,0
4.41432,2.00973,0.257181,0
4.35773,2.08064,0.251214,0
4.30083,2.1508,0.245599,0
4.24521,2.22139,0.240814,0
4.18859,2.2909,0.236214,0
4.13098,2.35938,0.231771,0
4.07238,2.42684,0.227474,0
4.0128,2.49322,0.223353,0
3.95225,2.55859,0.219388,0
3.89074,2.6229,0.215589,0
3.82826,2.68617,0.211946,0
3.76483,2.74842,0.20846,0
3.70046,2.80961,0.20513,0
3.63513,2.86972,0.201986,0
3.56886,2.92881,0.198978,0
3.50166,2.98685,0.196136,0
3.43351,3.04382,0.19346,0
3.36444,3.09973,0.19095,0
3.29443,3.15458,0.188587,0
3.2235,3.20837,0.18639,0
3.15102,3.26011,0.184095,0
3.0765,3.30888,0.181448,0
3.00409,3.36145,0.180306,0
3.35741,-4.05144,0.615804,0
3.44331,-3.98762,0.613079,0
3.52637,-3.92023,0.609661,0
3.60424,-3.84613,0.604388,0
3.68024,-3.7708,0.599124,0
3.75436,-3.69427,0.59388,0
3.8266,-3.61658,0.588646,0
3.89695,-3.5378,0.583431,0
3.9654,-3.45795,0.578236,0
4.03195,-3.37709,0.57306,0
4.0966,-3.29522,0.567904,0
4.15933,-3.21245,0.562786,0
4.22017,-3.12876,0.557689,0
4.27909,-3.04422,0.552611,0
4.3361,-2.95884,0.547562,0
4.3912,-2.8727,0.542571,0
4.44439,-2.78578,0.537581,0
4.49566,-2.69819,0.53265,0
4.54503,-2.60988,0.527728,0
4.59263,-2.52106,0.522904,0
4.63966,-2.43249,0.518577,0
4.68491,-2.34335,0.51432,0
4.72838,-2.25363,0.51013,0
4.77008,-2.16338,0.505999,0
4.80999,-2.07261,0.501937,0
4.84813,-1.98132,0.497923,0
4.8845,-1.88961,0.494007,0
4.9191,-1.79744,0.49015,0
4.95193,-1.70483,0.486341,0
4.983,-1.61186,0.48262,0
5.0123,-1.51847,0.478948,0
5.03632,-1.42355,0.47431,0
5.05483,-1.32726,0.468616,0
5.07149,-1.23101,0.463011,0
5.08633,-1.1348,0.457484,0
5.09935,-1.03866,0.452034,0
5.11057,-0.942617,0.446673,0
5.11999,-0.846719,0.441419,0
5.12764,-0.750928,0.436224,0
5.13351,-0.655322,0.431136,0
5.13763,-0.559863,0.426116,0
5.14,-0.464629,0.421204,0
5.14064,-0.3696,0.416361,0
5.13955,-0.274824,0.411624,0
5.13676,-0.180283,0.406946,0
5.13225,-0.0860156,0.402376,0
5.12605,0.00793945,0.397904,0
5.11818,0.101602,0.393509,0
5.10862,0.194932,0.389222,0
5.0974,0.28792,0.385013,0
5.08453,0.380557,0.380892,0
5.06952,0.472744,0.376722,0
5.05231,0.564424,0.372503,0
5.03348,0.655654,0.368372,0
5.01301,0.746396,0.364339,0
4.99094,0.836641,0.360394,0
4.96726,0.926387,0.356546,0
4.93919,1.01484,0.352005,0
4.89658,1.09882,0.343929,0
4.85285,1.18159,0.336048,0
4.80802,1.26317,0.328353,0
4.76211,1.34355,0.320833,0
4.71514,1.42276,0.313489,0
4.66712,1.50078,0.306341,0
4.61807,1.57762,0.299368,0
4.56802,1.6533,0.292571,0
4.51698,1.72783,0.285931,0
4.46495,1.80116,0.279505,0
4.41197,1.87337,0.273226,0
4.35804,1.9444,0.267142,0
4.30317,2.0143,0.261224,0
4.24765,2.08324,0.25554,0
4.19363,2.15271,0.250804,0
4.13863,2.22116,0.246234,0
4.08263,2.28861,0.24181,0
4.02566,2.35501,0.237562,0
3.96771,2.42039,0.23346,0
3.9088,2.48475,0.229525,0
3.84892,2.54808,0.225745,0
3.7881,2.61039,0.222112,0
3.72632,2.67166,0.218655,0
3.66361,2.73192,0.215345,0
3.59996,2.79111,0.21221,0
3.53537,2.8493,0.209222,0
3.46986,2.90643,0.20639,0
3.40342,2.96251,0.203734,0
3.33606,3.01757,0.201214,0
3.26779,3.07156,0.198861,0
3.19859,3.12449,0.196683,0
3.12731,3.17455,0.194134,0
3.05464,3.22266,0.191468,0
2.98117,3.26952,0.188997,0
3.41407,-4.00963,0.614007,0
3.49902,-3.94488,0.611321,0
3.5778,-3.87166,0.606204,0
3.65444,-3.79672,0.600921,0
3.7292,-3.72061,0.595677,0
3.80208,-3.6433,0.590433,0
3.87308,-3.5649,0.585218,0
3.94218,-3.4854,0.580013,0
4.00938,-3.40489,0.574837,0
4.07468,-3.32336,0.569671,0
4.13807,-3.24091,0.564544,0
4.19956,-3.15751,0.559427,0
4.25913,-3.07325,0.554349,0
4.3168,-2.98816,0.5493,0
4.37255,-2.90228,0.544271,0
4.42639,-2.81562,0.53928,0
4.47832,-2.72825,0.534329,0
4.52834,-2.6402,0.529407,0
4.57646,-2.55148,0.524525,0
4.62376,-2.46288,0.520052,0
4.66962,-2.37393,0.515765,0
4.7137,-2.2844,0.511556,0
4.75601,-2.19434,0.507405,0
4.79653,-2.10373,0.503314,0
4.83528,-2.01264,0.4993,0
4.87225,-1.92105,0.495335,0
4.90746,-1.82904,0.491458,0
4.94089,-1.73657,0.48763,0
4.97256,-1.64373,0.48389,0
5.00246,-1.55049,0.480208,0
5.02956,-1.45649,0.476263,0
5.0487,-1.36021,0.47055,0
5.06599,-1.26394,0.464905,0
5.08145,-1.16772,0.459359,0
5.0951,-1.07156,0.45389,0
5.10693,-0.975488,0.448509,0
5.11697,-0.879531,0.443206,0
5.12522,-0.783701,0.437991,0
5.1317,-0.688027,0.432874,0
5.13642,-0.592529,0.427835,0
5.13939,-0.497207,0.422874,0
5.14062,-0.402109,0.418011,0
5.14012,-0.307236,0.413226,0
5.13791,-0.212598,0.408529,0
5.13398,-0.118242,0.403929,0
5.12837,-0.0241797,0.399427,0
5.12106,0.0695801,0.395003,0
5.11208,0.163018,0.390687,0
5.10143,0.256143,0.386439,0
5.08912,0.348887,0.382288,0
5.07504,0.44125,0.378196,0
5.05839,0.533086,0.373939,0
5.04011,0.624473,0.369779,0
5.0202,0.7154,0.365706,0
4.99868,0.805811,0.361732,0
4.97555,0.895723,0.357855,0
4.95082,0.985117,0.354066,0
4.91129,1.07021,0.346673,0
4.86795,1.1534,0.338724,0
4.82349,1.23539,0.33096,0
4.77795,1.31619,0.323372,0
4.73133,1.39579,0.31598,0
4.68367,1.47422,0.308763,0
4.63498,1.55146,0.301732,0
4.58527,1.62753,0.294866,0
4.53456,1.70245,0.288187,0
4.48287,1.7762,0.281683,0
4.43022,1.84879,0.275355,0
4.3766,1.92022,0.269202,0
4.32205,1.99051,0.263226,0
4.26658,2.05964,0.257425,0
4.21223,2.12903,0.252425,0
4.15757,2.19784,0.247786,0
4.10191,2.26563,0.243314,0
4.04527,2.33239,0.238987,0
3.98765,2.39812,0.234847,0
3.92907,2.46283,0.230853,0
3.86952,2.5265,0.227025,0
3.80902,2.58918,0.223343,0
3.74758,2.65079,0.219837,0
3.68518,2.71141,0.216468,0
3.62185,2.77096,0.213275,0
3.55759,2.8295,0.210228,0
3.49239,2.887,0.207337,0
3.42627,2.94345,0.204612,0
3.35922,2.99885,0.202054,0
3.29126,3.05319,0.199652,0
3.22239,3.10648,0.197415,0
3.152,3.15783,0.195071,0
3.07961,3.20632,0.192376,0
3.00641,3.25361,0.189827,0
2.9358,3.30562,0.189085,0
3.38466,-4.03146,0.614935,0
3.4701,-3.9672,0.61222,0
3.55113,-3.897,0.607991,0
3.62841,-3.82251,0.602737,0
3.70382,-3.74679,0.597464,0
3.77735,-3.66989,0.59222,0
3.84899,-3.59186,0.586995,0
3.91874,-3.51273,0.58179,0
3.98659,-3.43256,0.576605,0
4.05254,-3.35139,0.571439,0
4.11659,-3.26923,0.566292,0
4.17873,-3.18615,0.561175,0
4.23896,-3.10219,0.556087,0
4.29728,-3.01737,0.551019,0
4.35369,-2.93175,0.545989,0
4.40818,-2.84535,0.540989,0
4.46077,-2.75823,0.536029,0
4.51144,-2.67041,0.531087,0
4.56021,-2.58191,0.526195,0
4.60766,-2.49319,0.521536,0
4.65413,-2.40444,0.51723,0
4.69882,-2.31512,0.512991,0
4.74172,-2.22522,0.508821,0
4.78286,-2.1348,0.50471,0
4.82221,-2.04388,0.500667,0
4.8598,-1.95245,0.496693,0
4.8956,-1.8606,0.492786,0
4.92964,-1.76829,0.488948,0
4.96192,-1.67556,0.485159,0
4.99243,-1.58245,0.481458,0
5.02117,-1.48894,0.477806,0
5.04235,-1.39318,0.472503,0
5.06028,-1.29689,0.466829,0
5.07637,-1.20065,0.461253,0
5.09063,-1.10447,0.455765,0
5.10308,-1.00837,0.450345,0
5.11373,-0.912363,0.445013,0
5.1226,-0.816484,0.439769,0
5.12968,-0.720752,0.434612,0
5.135,-0.625195,0.429544,0
5.13857,-0.529824,0.424564,0
5.14039,-0.434639,0.419671,0
5.14048,-0.339678,0.414847,0
5.13885,-0.24498,0.41014,0
5.13552,-0.150518,0.405501,0
5.13048,-0.0563379,0.40095,0
5.12375,0.0375195,0.396507,0
5.11534,0.131074,0.392142,0
5.10526,0.224307,0.387874,0
5.09352,0.317178,0.383695,0
5.08013,0.409687,0.379613,0
5.06427,0.501709,0.375384,0
5.04655,0.593242,0.371195,0
5.0272,0.684316,0.367093,0
5.00623,0.774902,0.363089,0
4.98365,0.86499,0.359173,0
4.95946,0.95457,0.355355,0
4.92587,1.04145,0.349437,0
4.88291,1.12506,0.341429,0
4.83883,1.20745,0.333597,0
4.79366,1.28865,0.32595,0
4.74741,1.36866,0.318499,0
4.70011,1.4475,0.311214,0
4.65176,1.52514,0.304124,0
4.6024,1.60163,0.297191,0
4.55203,1.67693,0.290452,0
4.50068,1.75107,0.2839,0
4.44835,1.82406,0.277503,0
4.39506,1.89591,0.271282,0
4.34084,1.96657,0.265247,0
4.28567,2.0361,0.259378,0
4.23072,2.10525,0.254036,0
4.17639,2.1744,0.249359,0
4.12108,2.24253,0.244827,0
4.06477,2.30965,0.240462,0
4.00749,2.37574,0.236253,0
3.94923,2.4408,0.2322,0
3.89002,2.50482,0.228314,0
3.82984,2.56785,0.224573,0
3.76872,2.62982,0.221009,0
3.70665,2.69077,0.217601,0
3.64364,2.75069,0.214349,0
3.57969,2.80958,0.211253,0
3.51481,2.86743,0.208314,0
3.44901,2.92423,0.20553,0
3.38228,2.97997,0.202933,0
3.31463,3.03471,0.200452,0
3.24606,3.08837,0.198157,0
3.17659,3.14098,0.196019,0
3.10448,3.18986,0.193265,0
3.03156,3.23757,0.190677,0
2.95934,3.28665,0.188958,0
3.29976,-3.95283,0.61762,0
3.38018,-3.88509,0.612952,0
3.45803,-3.81465,0.607816,0
3.53407,-3.74296,0.602689,0
3.60831,-3.67004,0.597571,0
3.68073,-3.59594,0.592474,0
3.75133,-3.52068,0.587376,0
3.8201,-3.44436,0.582318,0
3.88702,-3.36695,0.577269,0
3.95211,-3.28854,0.57223,0
4.01535,-3.20913,0.56721,0
4.07673,-3.1288,0.56222,0
4.13626,-3.04758,0.557259,0
4.19394,-2.96549,0.552318,0
4.24976,-2.88259,0.547415,0
4.30418,-2.79928,0.542718,0
4.35729,-2.71563,0.538245,0
4.40865,-2.63126,0.533821,0
4.45827,-2.54625,0.529486,0
4.50613,-2.46058,0.525198,0
4.55226,-2.37429,0.52097,0
4.59664,-2.28741,0.51681,0
4.63927,-2.19996,0.512708,0
4.68017,-2.11196,0.508675,0
4.71932,-2.02346,0.5047,0
4.75674,-1.93444,0.500784,0
4.79243,-1.84499,0.496956,0
4.82638,-1.75506,0.493167,0
4.85859,-1.66473,0.489466,0
4.88907,-1.57398,0.485823,0
4.91783,-1.48287,0.482249,0
4.93892,-1.38935,0.476888,0
4.95728,-1.29547,0.471321,0
4.97384,-1.20162,0.465843,0
4.9886,-1.1078,0.460443,0
5.00158,-1.014,0.455111,0
5.01279,-0.920312,0.449876,0
5.02224,-0.826738,0.44473,0
5.02994,-0.733281,0.439671,0
5.03591,-0.639951,0.434681,0
5.04016,-0.546787,0.429779,0
5.04268,-0.453809,0.424964,0
5.0435,-0.361006,0.420218,0
5.04263,-0.268457,0.415579,0
5.04008,-0.176143,0.411019,0
5.03585,-0.0840723,0.406546,0
5.02995,0.00767578,0.402181,0
5.0224,0.0991699,0.397884,0
5.01321,0.190342,0.393675,0
5.00238,0.281191,0.389554,0
4.98964,0.37166,0.385443,0
4.97457,0.461641,0.381234,0
4.95788,0.551221,0.377103,0
4.93959,0.640352,0.37305,0
4.9197,0.728994,0.369114,0
4.89822,0.817178,0.365257,0
4.87517,0.904834,0.361507,0
4.85055,0.992012,0.357825,0
4.81069,1.07462,0.350306,0
4.7683,1.1557,0.342552,0
4.72481,1.23561,0.334993,0
4.68025,1.31437,0.327601,0
4.63462,1.39198,0.320404,0
4.58794,1.46844,0.313382,0
4.54025,1.54377,0.306527,0
4.49154,1.61795,0.299847,0
4.44185,1.69098,0.293353,0
4.39117,1.7629,0.287025,0
4.33954,1.83368,0.280863,0
4.28696,1.90335,0.274866,0
4.23345,1.97188,0.269056,0
4.17981,2.03983,0.263646,0
4.12704,2.10794,0.258997,0
4.07328,2.17505,0.254495,0
4.01854,2.24116,0.25015,0
3.96282,2.30624,0.24598,0
3.90614,2.37031,0.241976,0
3.8485,2.43341,0.238089,0
3.78992,2.49547,0.234388,0
3.73038,2.55653,0.230843,0
3.66992,2.61657,0.227435,0
3.60851,2.6756,0.224193,0
3.54619,2.7336,0.221116,0
3.48294,2.79059,0.218187,0
3.41877,2.84653,0.215423,0
3.35369,2.90146,0.212806,0
3.2877,2.95534,0.210355,0
3.2208,3.00819,0.20806,0
3.15242,3.05915,0.205657,0
3.08209,3.10735,0.202923,0
3.01096,3.1544,0.200345,0
2.93903,3.20028,0.197913,0
3.35312,-3.90889,0.61471,0
3.43158,-3.83891,0.609583,0
3.50825,-3.76766,0.604446,0
3.5831,-3.69516,0.599339,0
3.65615,-3.62144,0.594222,0
3.72737,-3.54657,0.589124,0
3.79676,-3.4706,0.584046,0
3.86432,-3.39356,0.578997,0
3.93004,-3.31548,0.573948,0
3.99391,-3.23643,0.568939,0
4.05593,-3.15641,0.563929,0
4.1161,-3.07548,0.558958,0
4.17441,-2.99368,0.554007,0
4.23087,-2.91106,0.549095,0
4.2856,-2.82775,0.544261,0
4.33931,-2.74435,0.539769,0
4.39127,-2.66022,0.535335,0
4.44148,-2.57544,0.53097,0
4.48994,-2.48997,0.526654,0
4.53666,-2.40391,0.522425,0
4.58164,-2.31722,0.518226,0
4.62487,-2.22996,0.514105,0
4.66637,-2.14214,0.510042,0
4.70612,-2.05382,0.506048,0
4.74413,-1.96498,0.502132,0
4.78041,-1.87566,0.498265,0
4.81495,-1.7859,0.494456,0
4.84775,-1.69568,0.490716,0
4.87883,-1.60509,0.487054,0
4.90818,-1.5141,0.48346,0
4.93222,-1.42148,0.478812,0
4.9512,-1.32761,0.473216,0
4.96837,-1.23373,0.467698,0
4.98375,-1.1399,0.462279,0
4.99734,-1.0461,0.456927,0
5.00915,-0.952402,0.451673,0
5.0192,-0.858779,0.446497,0
5.0275,-0.765264,0.44139,0
5.03406,-0.671875,0.43637,0
5.0389,-0.578652,0.431439,0
5.04201,-0.485615,0.426605,0
5.04341,-0.392773,0.421839,0
5.04312,-0.300127,0.417171,0
5.04114,-0.207715,0.412571,0
5.03748,-0.115566,0.40807,0
5.03216,-0.0236914,0.403655,0
5.02517,0.0678809,0.399339,0
5.01654,0.15918,0.395101,0
5.00627,0.250137,0.39095,0
4.99436,0.340752,0.386898,0
4.97991,0.430879,0.382679,0
4.96377,0.520625,0.378489,0
4.94603,0.609893,0.374437,0
4.92669,0.698701,0.370462,0
4.90575,0.787061,0.366556,0
4.88324,0.874902,0.362767,0
4.85916,0.962246,0.359066,0
4.82495,1.0466,0.352991,0
4.78294,1.12807,0.345189,0
4.73982,1.20838,0.337571,0
4.69562,1.28753,0.33013,0
4.65035,1.36554,0.322855,0
4.60404,1.4424,0.315755,0
4.55669,1.51812,0.308851,0
4.50833,1.59269,0.302112,0
4.45897,1.6661,0.29556,0
4.40863,1.73843,0.289154,0
4.35732,1.80959,0.282943,0
4.30507,1.87964,0.276888,0
4.25187,1.94855,0.271029,0
4.19775,2.01636,0.265306,0
4.14522,2.08475,0.26057,0
4.09179,2.1522,0.256019,0
4.03739,2.21863,0.251634,0
3.982,2.28408,0.247386,0
3.92565,2.34852,0.243314,0
3.86834,2.41194,0.239388,0
3.81008,2.47435,0.235638,0
3.75087,2.53574,0.232034,0
3.69072,2.59614,0.228577,0
3.62964,2.65552,0.225286,0
3.56762,2.71387,0.222152,0
3.50469,2.77119,0.219183,0
3.44083,2.82751,0.216341,0
3.37607,2.88279,0.213675,0
3.31039,2.93704,0.211165,0
3.2438,2.99022,0.208821,0
3.17631,3.04238,0.206624,0
3.10626,3.091,0.203831,0
3.0354,3.13844,0.201195,0
2.96374,3.18472,0.198724,0
2.8933,3.23333,0.197396,0
3.32585,-3.93254,0.616468,0
3.40492,-3.86302,0.611341,0
3.4822,-3.7922,0.606204,0
3.55768,-3.7201,0.601077,0
3.63135,-3.6468,0.59597,0
3.7032,-3.57231,0.590863,0
3.77322,-3.49673,0.585784,0
3.8414,-3.42005,0.580716,0
3.90775,-3.34231,0.575667,0
3.97225,-3.26359,0.570638,0
4.03491,-3.1839,0.565638,0
4.09571,-3.10329,0.560667,0
4.15466,-3.02179,0.555706,0
4.21175,-2.93943,0.550775,0
4.26698,-2.85626,0.545862,0
4.32112,-2.77297,0.541292,0
4.37368,-2.68909,0.536839,0
4.42449,-2.60453,0.532464,0
4.47356,-2.5193,0.528128,0
4.52087,-2.43343,0.523861,0
4.56644,-2.34696,0.519661,0
4.61027,-2.25988,0.515511,0
4.65236,-2.17227,0.511429,0
4.69271,-2.08412,0.507425,0
4.73132,-1.99543,0.50346,0
4.76819,-1.90629,0.499573,0
4.80332,-1.81667,0.495755,0
4.83672,-1.72661,0.491995,0
4.86839,-1.63615,0.488304,0
4.89833,-1.54527,0.484681,0
4.9253,-1.45359,0.480736,0
4.94491,-1.35973,0.475111,0
4.9627,-1.26587,0.469583,0
4.97869,-1.17201,0.464114,0
4.99288,-1.0782,0.458753,0
5.00531,-0.984473,0.45347,0
5.01596,-0.890811,0.448255,0
5.02486,-0.797246,0.443118,0
5.03202,-0.703818,0.438079,0
5.03744,-0.610547,0.433128,0
5.04114,-0.517441,0.428245,0
5.04312,-0.424512,0.42345,0
5.04341,-0.331807,0.418763,0
5.04201,-0.239307,0.414124,0
5.03892,-0.14708,0.409603,0
5.03417,-0.0551172,0.405169,0
5.02775,0.036582,0.400804,0
5.01968,0.127969,0.396536,0
5.00997,0.219033,0.392366,0
4.99862,0.309775,0.388275,0
4.98506,0.400078,0.384114,0
4.96948,0.489941,0.379925,0
4.95228,0.579375,0.375823,0
4.93349,0.66835,0.37181,0
4.9131,0.756846,0.367894,0
4.89113,0.844854,0.364075,0
4.86758,0.932402,0.360325,0
4.83907,1.01846,0.355696,0
4.79745,1.10032,0.347835,0
4.75471,1.18103,0.34015,0
4.71088,1.26057,0.33265,0
4.66597,1.33897,0.325316,0
4.62001,1.41621,0.318177,0
4.57301,1.49232,0.311195,0
4.525,1.56729,0.304398,0
4.47598,1.64111,0.297767,0
4.42597,1.7138,0.291321,0
4.375,1.78534,0.285062,0
4.32306,1.85578,0.278948,0
4.27019,1.92508,0.273021,0
4.21638,1.99328,0.267239,0
4.16328,2.06143,0.262161,0
4.11019,2.12921,0.257562,0
4.05612,2.19601,0.253109,0
4.00107,2.26178,0.248831,0
3.94505,2.32655,0.2447,0
3.88807,2.39034,0.240726,0
3.83013,2.45309,0.236917,0
3.77124,2.51483,0.233255,0
3.71142,2.57558,0.229739,0
3.65065,2.63529,0.226409,0
3.58896,2.694,0.223206,0
3.52634,2.75168,0.220169,0
3.4628,2.80834,0.217298,0
3.39834,2.86396,0.214583,0
3.33297,2.91857,0.212015,0
3.2667,2.97212,0.209613,0
3.19952,3.02465,0.207357,0
3.13033,3.07447,0.204779,0
3.05974,3.12233,0.202083,0
2.98836,3.169,0.199554,0
2.91637,3.21484,0.197259,0
3.23982,-3.85032,0.616409,0
3.31738,-3.78305,0.611282,0
3.39326,-3.71461,0.606194,0
3.46745,-3.64501,0.601146,0
3.53996,-3.5743,0.596146,0
3.61078,-3.50252,0.591204,0
3.6799,-3.42968,0.586292,0
3.74733,-3.35585,0.581439,0
3.81305,-3.28104,0.576634,0
3.87707,-3.20529,0.571888,0
3.93938,-3.12863,0.5672,0
4,-3.05108,0.562542,0
4.0589,-2.97271,0.557952,0
4.11609,-2.89352,0.553431,0
4.17158,-2.81351,0.548939,0
4.22536,-2.73276,0.544525,0
4.27743,-2.65128,0.54015,0
4.32779,-2.56909,0.535843,0
4.37645,-2.48623,0.531585,0
4.42339,-2.40275,0.527415,0
4.46863,-2.31861,0.523265,0
4.51217,-2.2339,0.519202,0
4.554,-2.1486,0.515189,0
4.59412,-2.06279,0.511253,0
4.63254,-1.97643,0.507357,0
4.66926,-1.88958,0.503538,0
4.70428,-1.80226,0.499769,0
4.7376,-1.7145,0.496087,0
4.76922,-1.62631,0.492445,0
4.79914,-1.53771,0.48888,0
4.82577,-1.44816,0.484866,0
4.84576,-1.35665,0.479359,0
4.86397,-1.26508,0.473919,0
4.8804,-1.17351,0.468558,0
4.89508,-1.08193,0.463265,0
4.90801,-0.990439,0.45807,0
4.9192,-0.899004,0.452952,0
4.92867,-0.807627,0.447913,0
4.93642,-0.716357,0.442943,0
4.94247,-0.625234,0.43807,0
4.94682,-0.534258,0.433275,0
4.94948,-0.443437,0.428568,0
4.95047,-0.352812,0.423939,0
4.9498,-0.262393,0.419388,0
4.94747,-0.172187,0.414925,0
4.94349,-0.0822461,0.41056,0
4.93788,0.00745117,0.406253,0
4.93064,0.0968457,0.402064,0
4.92178,0.185957,0.397943,0
4.91121,0.274736,0.39388,0
4.89821,0.363076,0.389671,0
4.8836,0.451025,0.38555,0
4.8674,0.538574,0.381497,0
4.84963,0.625674,0.377552,0
4.83029,0.712324,0.373695,0
4.80939,0.798516,0.369915,0
4.78693,0.884228,0.366224,0
4.76293,0.969424,0.36263,0
4.7282,1.05141,0.3564,0
4.68708,1.13083,0.348802,0
4.64486,1.20913,0.34138,0
4.60157,1.28633,0.334124,0
4.55722,1.36238,0.327054,0
4.51183,1.43735,0.32014,0
4.46541,1.51121,0.313402,0
4.41799,1.58394,0.306849,0
4.36958,1.65557,0.300452,0
4.3202,1.72609,0.294232,0
4.26986,1.7955,0.288196,0
4.21858,1.86387,0.282288,0
4.16636,1.93107,0.276585,0
4.11451,1.99806,0.271439,0
4.06292,2.06485,0.266868,0
4.01035,2.13064,0.262464,0
3.95682,2.19547,0.258196,0
3.90231,2.25928,0.254095,0
3.84685,2.32213,0.25014,0
3.79044,2.38396,0.246351,0
3.73309,2.44481,0.242718,0
3.6748,2.50467,0.239222,0
3.61558,2.56353,0.235892,0
3.55545,2.62136,0.232718,0
3.49439,2.67821,0.229691,0
3.43243,2.73403,0.226829,0
3.36955,2.78887,0.224105,0
3.30578,2.84265,0.221556,0
3.24111,2.89543,0.219154,0
3.17553,2.94713,0.216907,0
3.10746,2.9955,0.214066,0
3.03859,3.04271,0.21139,0
2.96893,3.08878,0.208841,0
2.89848,3.13369,0.206468,0
3.29102,-3.80622,0.61303,0
3.36747,-3.73817,0.607923,0
3.44224,-3.66896,0.602874,0
3.51533,-3.59863,0.597855,0
3.58673,-3.52721,0.592884,0
3.65643,-3.45473,0.587962,0
3.72444,-3.38124,0.583089,0
3.79074,-3.30676,0.578275,0
3.85535,-3.23131,0.573499,0
3.91825,-3.15497,0.568802,0
3.97944,-3.07771,0.564124,0
4.03893,-2.99963,0.559525,0
4.09671,-2.92069,0.554964,0
4.15278,-2.84099,0.550472,0
4.20714,-2.76048,0.546019,0
4.2598,-2.67924,0.541624,0
4.31075,-2.5973,0.537308,0
4.35999,-2.51467,0.53303,0
4.40752,-2.43139,0.528821,0
4.45334,-2.34748,0.524671,0
4.49746,-2.26297,0.520589,0
4.53987,-2.17786,0.516546,0
4.58058,-2.09223,0.512591,0
4.61958,-2.00604,0.508675,0
4.65688,-1.91937,0.504837,0
4.69248,-1.8322,0.501048,0
4.72638,-1.7446,0.497347,0
4.75858,-1.65654,0.493685,0
4.78909,-1.56809,0.490081,0
4.81789,-1.47925,0.486566,0
4.83912,-1.38798,0.481243,0
4.85793,-1.29643,0.475775,0
4.87497,-1.20485,0.470384,0
4.89025,-1.11328,0.465071,0
4.90378,-1.02176,0.459837,0
4.91557,-0.930293,0.4547,0
4.92562,-0.838887,0.449622,0
4.93396,-0.747588,0.444632,0
4.94059,-0.656396,0.43972,0
4.94551,-0.565361,0.434896,0
4.94876,-0.474512,0.430169,0
4.95032,-0.383818,0.425511,0
4.95021,-0.293301,0.420921,0
4.94845,-0.203027,0.416429,0
4.94504,-0.112998,0.412034,0
4.93998,-0.0232324,0.407728,0
4.9333,0.0662793,0.40348,0
4.92499,0.155498,0.399339,0
4.91508,0.244375,0.395286,0
4.90284,0.332871,0.391107,0
4.88878,0.420977,0.386946,0
4.87313,0.508662,0.382874,0
4.85589,0.595918,0.37889,0
4.83708,0.682715,0.375003,0
4.81672,0.769072,0.371195,0
4.79479,0.854941,0.367484,0
4.77132,0.940303,0.363861,0
4.74202,1.02395,0.359046,0
4.70128,1.10376,0.35138,0
4.65943,1.18245,0.343909,0
4.61651,1.26003,0.336585,0
4.57252,1.33647,0.329456,0
4.52748,1.41181,0.322493,0
4.48141,1.48604,0.315706,0
4.43434,1.55916,0.309075,0
4.38626,1.63117,0.30263,0
4.33721,1.70207,0.296351,0
4.2872,1.77188,0.290237,0
4.23624,1.84059,0.28429,0
4.18434,1.90817,0.278529,0
4.13193,1.97498,0.27304,0
4.08069,2.0421,0.268411,0
4.02846,2.10823,0.263958,0
3.97525,2.17339,0.259642,0
3.92108,2.23758,0.255462,0
3.86594,2.30073,0.251478,0
3.80985,2.36291,0.24763,0
3.75282,2.42409,0.243939,0
3.69486,2.4843,0.240384,0
3.63596,2.5435,0.237005,0
3.57613,2.60169,0.233773,0
3.51539,2.65887,0.230706,0
3.45374,2.71506,0.227777,0
3.39118,2.77021,0.225023,0
3.32771,2.82435,0.222415,0
3.26335,2.87748,0.219954,0
3.1981,2.92957,0.217659,0
3.13085,2.97908,0.215013,0
3.06225,3.02667,0.212288,0
2.99286,3.07313,0.2097,0
2.92268,3.11842,0.207279,0
2.85246,3.16386,0.205384,0
3.26446,-3.82925,0.614798,0
3.34149,-3.7616,0.609671,0
3.41684,-3.69278,0.604593,0
3.4905,-3.62282,0.599564,0
3.56248,-3.55179,0.594583,0
3.63276,-3.47965,0.589642,0
3.70135,-3.4065,0.584759,0
3.76824,-3.33235,0.579915,0
3.83343,-3.25726,0.57514,0
3.89691,-3.18121,0.570404,0
3.95869,-3.10426,0.565716,0
4.01876,-3.02645,0.561087,0
4.07712,-2.94781,0.556527,0
4.13378,-2.86835,0.552005,0
4.18873,-2.78813,0.547542,0
4.24197,-2.70714,0.543138,0
4.2935,-2.62543,0.538792,0
4.34333,-2.54304,0.534495,0
4.39144,-2.45996,0.530257,0
4.43785,-2.37627,0.526097,0
4.48255,-2.29194,0.521976,0
4.52555,-2.20707,0.517943,0
4.56684,-2.12161,0.513948,0
4.60642,-2.03559,0.510003,0
4.64431,-1.94909,0.506146,0
4.68049,-1.86208,0.502337,0
4.71497,-1.77463,0.498597,0
4.74775,-1.68673,0.494925,0
4.77883,-1.59843,0.491321,0
4.80822,-1.50971,0.487777,0
4.83227,-1.41931,0.483128,0
4.85169,-1.32776,0.47763,0
4.86934,-1.2362,0.47222,0
4.88522,-1.14461,0.466868,0
4.89935,-1.05308,0.461624,0
4.91173,-0.961602,0.456448,0
4.92238,-0.870156,0.451351,0
4.9313,-0.778828,0.446331,0
4.93851,-0.687598,0.44139,0
4.94402,-0.596514,0.436546,0
4.94784,-0.505596,0.43178,0
4.94997,-0.414814,0.427073,0
4.95044,-0.324268,0.422493,0
4.94924,-0.233916,0.417972,0
4.94639,-0.143789,0.413529,0
4.9419,-0.053916,0.409183,0
4.93577,0.0356934,0.404915,0
4.92802,0.12498,0.400755,0
4.91865,0.213994,0.396654,0
4.90728,0.302627,0.392552,0
4.89377,0.390859,0.388362,0
4.87866,0.478682,0.384261,0
4.86197,0.566094,0.380237,0
4.8437,0.653057,0.376321,0
4.82387,0.739551,0.372493,0
4.80247,0.825605,0.368724,0
4.77953,0.911143,0.365081,0
4.75505,0.996172,0.361527,0
4.71535,1.07656,0.353987,0
4.67389,1.15564,0.346439,0
4.63133,1.23359,0.339066,0
4.5877,1.31044,0.331868,0
4.54302,1.38614,0.324857,0
4.4973,1.46075,0.318011,0
4.45057,1.53424,0.311331,0
4.40283,1.60664,0.304818,0
4.35412,1.67793,0.29848,0
4.30443,1.74811,0.292308,0
4.25379,1.81718,0.286321,0
4.20221,1.88518,0.280472,0
4.1497,1.95206,0.274808,0
4.09834,2.01923,0.269984,0
4.04645,2.0857,0.265462,0
3.99358,2.15121,0.261087,0
3.93973,2.2157,0.256878,0
3.88492,2.27919,0.252845,0
3.82916,2.34174,0.248929,0
3.77245,2.40326,0.245189,0
3.71481,2.46379,0.241595,0
3.65622,2.52333,0.238157,0
3.59672,2.58187,0.234866,0
3.53629,2.63941,0.231741,0
3.47495,2.69593,0.228763,0
3.4127,2.75144,0.22595,0
3.34954,2.80595,0.223275,0
3.28548,2.85941,0.220775,0
3.22053,2.91188,0.218411,0
3.15415,2.96251,0.215989,0
3.08582,3.01052,0.213196,0
3.0167,3.05736,0.21057,0
2.94679,3.10306,0.208089,0
2.8761,3.14759,0.205765,0
3.18462,-3.75593,0.616478,0
3.2605,-3.69066,0.611458,0
3.33475,-3.62424,0.606497,0
3.40737,-3.55667,0.601575,0
3.47835,-3.488,0.596693,0
3.54768,-3.41824,0.591859,0
3.61537,-3.34748,0.587073,0
3.68141,-3.27569,0.582337,0
3.74579,-3.20291,0.57763,0
3.80851,-3.12923,0.572991,0
3.86958,-3.05464,0.568411,0
3.92897,-2.97915,0.56387,0
3.98671,-2.90282,0.559378,0
4.04278,-2.82567,0.554935,0
4.09718,-2.74775,0.55056,0
4.14992,-2.66908,0.546243,0
4.20098,-2.58967,0.541976,0
4.25038,-2.50956,0.537767,0
4.2981,-2.42878,0.533607,0
4.34416,-2.34733,0.529505,0
4.38854,-2.26526,0.525452,0
4.43126,-2.18263,0.521478,0
4.4723,-2.0994,0.517562,0
4.51168,-2.01563,0.513695,0
4.54939,-1.93135,0.509886,0
4.58543,-1.84656,0.506146,0
4.61981,-1.76134,0.502484,0
4.65251,-1.67562,0.49887,0
4.68355,-1.5895,0.495306,0
4.71293,-1.50297,0.49182,0
4.73676,-1.41464,0.487122,0
4.75656,-1.32532,0.481722,0
4.7746,-1.23597,0.476409,0
4.79091,-1.14657,0.471155,0
4.8055,-1.05721,0.465999,0
4.81837,-0.967842,0.460902,0
4.82953,-0.878535,0.455882,0
4.839,-0.789297,0.45095,0
4.84679,-0.700166,0.446097,0
4.8529,-0.611133,0.441321,0
4.85734,-0.522236,0.436624,0
4.86013,-0.433496,0.432005,0
4.86127,-0.344932,0.427484,0
4.86078,-0.256543,0.42303,0
4.85866,-0.168389,0.418665,0
4.85492,-0.080459,0.414378,0
4.84957,0.0072168,0.410179,0
4.84263,0.0946191,0.406068,0
4.83408,0.181738,0.402034,0
4.82312,0.268477,0.397845,0
4.81053,0.354863,0.393714,0
4.79636,0.440859,0.389671,0
4.78064,0.526445,0.385716,0
4.76335,0.611602,0.381859,0
4.74453,0.696348,0.37807,0
4.72417,0.780625,0.374388,0
4.70229,0.864434,0.370765,0
4.67888,0.947754,0.367249,0
4.64889,1.02905,0.362288,0
4.60897,1.1069,0.354818,0
4.56797,1.18366,0.347523,0
4.52589,1.25934,0.340403,0
4.48275,1.33394,0.333441,0
4.43858,1.40743,0.326654,0
4.39339,1.47985,0.320032,0
4.3472,1.55118,0.313597,0
4.30002,1.62147,0.307298,0
4.25187,1.69064,0.301204,0
4.20276,1.75875,0.295247,0
4.15272,1.82581,0.289456,0
4.10174,1.89177,0.283831,0
4.05158,1.9578,0.278948,0
4.00114,2.02331,0.274466,0
3.94972,2.08785,0.27013,0
3.89733,2.15145,0.265931,0
3.84399,2.21404,0.261907,0
3.7897,2.27567,0.25803,0
3.73447,2.33633,0.25429,0
3.67831,2.39601,0.250716,0
3.62122,2.45468,0.247308,0
3.56321,2.51237,0.244036,0
3.50429,2.56909,0.240921,0
3.44447,2.6248,0.237962,0
3.38374,2.67954,0.23514,0
3.32212,2.73325,0.232493,0
3.2596,2.78598,0.229974,0
3.19621,2.83768,0.22763,0
3.13083,2.88685,0.224935,0
3.06416,2.93419,0.222171,0
2.9967,2.98045,0.219544,0
2.92846,3.02557,0.217044,0
2.85944,3.06953,0.21473,0
3.23471,-3.71314,0.613177,0
3.30952,-3.64709,0.608177,0
3.3827,-3.57993,0.603255,0
3.45424,-3.51163,0.598363,0
3.52414,-3.44225,0.593509,0
3.59239,-3.3718,0.588695,0
3.65899,-3.30036,0.583948,0
3.72394,-3.22794,0.579241,0
3.78723,-3.15457,0.574593,0
3.84886,-3.08026,0.569974,0
3.90883,-3.0051,0.565423,0
3.96714,-2.92903,0.560902,0
4.02377,-2.85219,0.556458,0
4.07875,-2.77452,0.552064,0
4.13205,-2.69611,0.547728,0
4.18369,-2.61692,0.543421,0
4.23365,-2.53707,0.539202,0
4.28195,-2.45649,0.535013,0
4.32858,-2.37528,0.530902,0
4.37354,-2.29345,0.526849,0
4.41682,-2.21098,0.522835,0
4.45844,-2.12796,0.5189,0
4.49839,-2.04438,0.515023,0
4.53667,-1.96026,0.511185,0
4.57328,-1.87565,0.507435,0
4.60823,-1.79055,0.503724,0
4.64151,-1.70499,0.500081,0
4.67312,-1.61902,0.496517,0
4.70306,-1.53263,0.493001,0
4.72959,-1.4452,0.488988,0
4.74998,-1.35589,0.483558,0
4.76862,-1.26655,0.478216,0
4.78553,-1.17718,0.472943,0
4.8007,-1.08779,0.467747,0
4.81415,-0.998437,0.46264,0
4.8259,-0.909102,0.457591,0
4.83595,-0.819844,0.45263,0
4.84431,-0.730654,0.447747,0
4.85099,-0.641582,0.442943,0
4.85601,-0.552646,0.438216,0
4.85936,-0.463848,0.433577,0
4.86107,-0.375225,0.429017,0
4.86113,-0.286777,0.424544,0
4.85957,-0.198535,0.42015,0
4.85638,-0.110537,0.415843,0
4.85158,-0.0227539,0.411595,0
4.84518,0.0647363,0.407464,0
4.83719,0.151963,0.403392,0
4.82707,0.238838,0.399271,0
4.81501,0.325332,0.39512,0
4.80139,0.411455,0.391058,0
4.78619,0.497197,0.387064,0
4.76944,0.58251,0.383167,0
4.75115,0.667393,0.379359,0
4.73131,0.751846,0.375618,0
4.70995,0.835811,0.371995,0
4.68707,0.919287,0.36845,0
4.66229,1.00217,0.364876,0
4.62276,1.08037,0.357357,0
4.58213,1.15751,0.350003,0
4.54041,1.23355,0.342806,0
4.49764,1.30852,0.335804,0
4.45382,1.38239,0.328958,0
4.40898,1.45518,0.322288,0
4.36312,1.52688,0.315784,0
4.31628,1.59751,0.309456,0
4.26846,1.66708,0.303275,0
4.21968,1.73556,0.297269,0
4.16995,1.80298,0.291419,0
4.1193,1.8693,0.285745,0
4.06862,1.93515,0.28053,0
4.01851,2.001,0.275989,0
3.96743,2.06588,0.271585,0
3.91537,2.12979,0.267347,0
3.86236,2.19271,0.263275,0
3.80839,2.25468,0.259339,0
3.75348,2.31566,0.25556,0
3.69764,2.37567,0.251937,0
3.64087,2.4347,0.24846,0
3.58317,2.49272,0.24515,0
3.52456,2.54979,0.241966,0
3.46504,2.60585,0.238948,0
3.40463,2.66091,0.236097,0
3.34331,2.71499,0.233372,0
3.2811,2.76805,0.230823,0
3.21801,2.82009,0.228421,0
3.15348,2.87035,0.225921,0
3.08707,2.91812,0.223089,0
3.01988,2.96475,0.220423,0
2.9519,3.01023,0.217894,0
2.88315,3.05461,0.215511,0
2.81363,3.09782,0.213284,0
3.20873,-3.73547,0.614886,0
3.28409,-3.66985,0.609896,0
3.35783,-3.60306,0.604935,0
3.42993,-3.53514,0.600032,0
3.50039,-3.46611,0.595159,0
3.56921,-3.39604,0.590335,0
3.63638,-3.32494,0.585579,0
3.70189,-3.25282,0.580833,0
3.76575,-3.17978,0.576165,0
3.82795,-3.10578,0.571536,0
3.88849,-3.03093,0.566976,0
3.94737,-2.95517,0.562445,0
4.00458,-2.87858,0.557982,0
4.06012,-2.8012,0.553568,0
4.114,-2.72303,0.549193,0
4.1662,-2.6441,0.544886,0
4.21674,-2.56447,0.540638,0
4.26561,-2.48414,0.536439,0
4.31281,-2.40315,0.532308,0
4.35834,-2.32151,0.528226,0
4.4022,-2.23927,0.524202,0
4.44439,-2.15645,0.520247,0
4.48491,-2.07305,0.516331,0
4.52376,-1.98911,0.512493,0
4.56094,-1.90468,0.508714,0
4.59646,-1.81973,0.504984,0
4.6303,-1.73435,0.501331,0
4.66248,-1.64853,0.497747,0
4.693,-1.56226,0.494202,0
4.72185,-1.47562,0.490736,0
4.7432,-1.38647,0.485413,0
4.76244,-1.29714,0.480032,0
4.77993,-1.20776,0.47473,0
4.7957,-1.11837,0.469505,0
4.80974,-1.02902,0.464378,0
4.82207,-0.939668,0.4593,0
4.8327,-0.850391,0.45432,0
4.84164,-0.761172,0.449407,0
4.84889,-0.672061,0.444573,0
4.85448,-0.583076,0.439827,0
4.8584,-0.494238,0.435169,0
4.86067,-0.405547,0.430579,0
4.86129,-0.317031,0.426068,0
4.86029,-0.228701,0.421634,0
4.85766,-0.140645,0.417308,0
4.85341,-0.0527832,0.41305,0
4.84755,0.0348145,0.40887,0
4.8401,0.122129,0.404779,0
4.83083,0.209131,0.400726,0
4.81932,0.295762,0.396536,0
4.80623,0.382021,0.392435,0
4.79157,0.4679,0.388411,0
4.77535,0.55335,0.384495,0
4.75759,0.638379,0.380648,0
4.73828,0.722978,0.376898,0
4.71744,0.8071,0.373236,0
4.69507,0.890771,0.369642,0
4.67119,0.973916,0.366165,0
4.63642,1.05372,0.359915,0
4.59616,1.13125,0.352484,0
4.55482,1.20764,0.345257,0
4.5124,1.28298,0.338177,0
4.46894,1.35724,0.331273,0
4.42444,1.43037,0.324564,0
4.37893,1.50245,0.318001,0
4.33243,1.57348,0.311585,0
4.28494,1.64341,0.305355,0
4.23649,1.71226,0.29929,0
4.18708,1.78002,0.293402,0
4.13674,1.84672,0.287659,0
4.08555,1.9124,0.282113,0
4.03578,1.97858,0.277513,0
3.98503,2.04377,0.273089,0
3.9333,2.10802,0.268782,0
3.88062,2.17127,0.264661,0
3.82697,2.23357,0.260667,0
3.77239,2.29489,0.256839,0
3.71686,2.35525,0.253148,0
3.6604,2.41461,0.249632,0
3.60302,2.47297,0.246263,0
3.54473,2.53037,0.24305,0
3.48552,2.58678,0.239964,0
3.42541,2.64218,0.237054,0
3.3644,2.69659,0.23429,0
3.3025,2.75,0.231673,0
3.23971,2.80238,0.229232,0
3.17602,2.85376,0.226907,0
3.10989,2.90189,0.224046,0
3.04297,2.94892,0.221321,0
2.97526,2.9948,0.218734,0
2.90677,3.03956,0.216302,0
2.83751,3.08316,0.214027,0
3.12857,-3.66003,0.614407,0
3.20612,-3.60234,0.611644,0
3.27881,-3.53783,0.60679,0
3.34991,-3.47219,0.601986,0
3.41941,-3.40545,0.59722,0
3.48732,-3.33766,0.592503,0
3.55363,-3.26879,0.587806,0
3.61833,-3.19896,0.583187,0
3.68141,-3.12816,0.578607,0
3.74288,-3.05642,0.574056,0
3.80274,-2.98378,0.569573,0
3.86097,-2.91027,0.56514,0
3.91757,-2.83591,0.560745,0
3.97256,-2.76074,0.556409,0
4.02591,-2.68478,0.552122,0
4.07763,-2.60809,0.547903,0
4.12772,-2.53064,0.543734,0
4.17618,-2.45248,0.539593,0
4.22301,-2.37369,0.53554,0
4.2682,-2.29423,0.531527,0
4.31176,-2.21416,0.527581,0
4.35368,-2.13348,0.523675,0
4.39397,-2.05225,0.519837,0
4.43263,-1.97044,0.516048,0
4.46964,-1.88815,0.512347,0
4.50503,-1.80534,0.508675,0
4.53878,-1.72206,0.505081,0
4.57089,-1.63833,0.501527,0
4.60137,-1.55418,0.49806,0
4.63015,-1.4696,0.494612,0
4.65146,-1.38249,0.489261,0
4.67106,-1.29529,0.483978,0
4.68894,-1.20804,0.478773,0
4.70512,-1.12076,0.473646,0
4.7196,-1.03345,0.468577,0
4.7324,-0.946162,0.463597,0
4.74353,-0.858926,0.458695,0
4.75299,-0.771729,0.453861,0
4.7608,-0.684609,0.449114,0
4.76697,-0.597607,0.444446,0
4.77149,-0.510713,0.439847,0
4.77439,-0.423965,0.435335,0
4.77567,-0.337363,0.430882,0
4.77535,-0.250957,0.426536,0
4.77342,-0.164746,0.422249,0
4.7699,-0.0787402,0.41805,0
4.7648,0.00697266,0.413958,0
4.75813,0.0924707,0.409925,0
4.74921,0.177656,0.405765,0
4.73857,0.262471,0.401653,0
4.72637,0.346963,0.397611,0
4.71262,0.431074,0.393646,0
4.69734,0.514805,0.389769,0
4.68053,0.598105,0.385989,0
4.6622,0.680996,0.382288,0
4.64236,0.763457,0.378665,0
4.62102,0.845439,0.37513,0
4.59819,0.926943,0.371693,0
4.57258,1.00757,0.367933,0
4.53381,1.08388,0.360609,0
4.49396,1.15915,0.353431,0
4.45303,1.23336,0.346439,0
4.41106,1.30651,0.339603,0
4.36805,1.37862,0.332923,0
4.32403,1.44967,0.326419,0
4.27901,1.51966,0.320081,0
4.233,1.58861,0.313909,0
4.18603,1.6565,0.307894,0
4.1381,1.72334,0.302044,0
4.08924,1.78914,0.296351,0
4.03946,1.85389,0.290823,0
3.9909,1.91898,0.286204,0
3.94155,1.98327,0.28178,0
3.89124,2.04659,0.277513,0
3.83997,2.10896,0.273411,0
3.78774,2.17039,0.269446,0
3.73458,2.23085,0.265648,0
3.68049,2.29035,0.261976,0
3.62547,2.34889,0.25846,0
3.56953,2.40646,0.255101,0
3.51269,2.46306,0.251888,0
3.45494,2.51866,0.248841,0
3.3963,2.57332,0.245921,0
3.33677,2.62695,0.243187,0
3.27635,2.67962,0.24057,0
3.21506,2.73129,0.238118,0
3.1523,2.78118,0.23554,0
3.08776,2.82871,0.232689,0
3.02243,2.87514,0.229964,0
2.95633,2.92047,0.227376,0
2.88945,2.96464,0.224974,0
2.82182,3.00772,0.222679,0
3.18088,-3.62416,0.613314,0
3.25411,-3.56004,0.608441,0
3.32575,-3.49478,0.603607,0
3.3958,-3.42841,0.598831,0
3.46426,-3.36097,0.594095,0
3.53111,-3.29247,0.589407,0
3.59636,-3.22299,0.584769,0
3.66,-3.1525,0.580159,0
3.72203,-3.08107,0.575609,0
3.78243,-3.00874,0.571107,0
3.84122,-2.93553,0.566653,0
3.89838,-2.86147,0.562259,0
3.95392,-2.78657,0.557904,0
4.00783,-2.71089,0.553597,0
4.06011,-2.63441,0.549339,0
4.11076,-2.55723,0.54515,0
4.15978,-2.47933,0.540999,0
4.20716,-2.40074,0.536927,0
4.25291,-2.32151,0.532894,0
4.29703,-2.24162,0.528909,0
4.33952,-2.16116,0.525003,0
4.38036,-2.0801,0.521136,0
4.41958,-1.99851,0.517347,0
4.45716,-1.91636,0.513597,0
4.4931,-1.83373,0.509925,0
4.52741,-1.75062,0.506302,0
4.56008,-1.66703,0.502737,0
4.59112,-1.58304,0.499232,0
4.62053,-1.49859,0.495784,0
4.64436,-1.41231,0.491087,0
4.66454,-1.32515,0.485784,0
4.68301,-1.2379,0.48054,0
4.69977,-1.15063,0.475394,0
4.71483,-1.06335,0.470316,0
4.72821,-0.976055,0.465296,0
4.73991,-0.888789,0.460374,0
4.74994,-0.801572,0.455511,0
4.75832,-0.714434,0.450736,0
4.76504,-0.627383,0.446038,0
4.77013,-0.54043,0.4414,0
4.77358,-0.453643,0.436868,0
4.77542,-0.366982,0.432396,0
4.77564,-0.280518,0.428011,0
4.77426,-0.194229,0.423704,0
4.77129,-0.108164,0.419486,0
4.76673,-0.0223145,0.415335,0
4.76059,0.0632519,0.411282,0
4.7525,0.148525,0.4072,0
4.74239,0.233496,0.40304,0
4.73072,0.318105,0.398958,0
4.7175,0.402324,0.394993,0
4.70275,0.486201,0.391077,0
4.68646,0.569648,0.387269,0
4.66865,0.652676,0.383548,0
4.64932,0.735273,0.379896,0
4.62849,0.817432,0.376331,0
4.60617,0.899092,0.372864,0
4.58236,0.980273,0.369486,0
4.5472,1.05789,0.363089,0
4.50772,1.13352,0.355862,0
4.46716,1.20809,0.348802,0
4.42554,1.28158,0.341917,0
4.38289,1.35407,0.335179,0
4.33921,1.42545,0.328636,0
4.29453,1.49582,0.32223,0
4.24886,1.56512,0.316009,0
4.20222,1.63337,0.309945,0
4.15462,1.70059,0.304027,0
4.10608,1.76674,0.298284,0
4.05661,1.83183,0.292708,0
4.00757,1.89676,0.287757,0
3.95855,1.96138,0.283275,0
3.90857,2.02503,0.278958,0
3.85762,2.08773,0.274798,0
3.80573,2.14946,0.270794,0
3.75289,2.21025,0.266927,0
3.69911,2.27009,0.263206,0
3.64441,2.32895,0.259652,0
3.58878,2.38685,0.256243,0
3.53225,2.4438,0.252962,0
3.47481,2.49974,0.249866,0
3.41647,2.55471,0.246907,0
3.35725,2.6087,0.244105,0
3.29713,2.6617,0.241448,0
3.23614,2.71371,0.238939,0
3.17421,2.76464,0.236566,0
3.10995,2.81258,0.233636,0
3.04489,2.85938,0.230872,0
2.97905,2.90507,0.228255,0
2.91243,2.94965,0.225784,0
2.84505,2.99311,0.22345,0
2.77692,3.03542,0.221263,0
3.15388,-3.64319,0.613988,0
3.22921,-3.58212,0.610101,0
3.3014,-3.51726,0.605277,0
3.372,-3.45124,0.600462,0
3.441,-3.38417,0.595716,0
3.50841,-3.31604,0.591009,0
3.57421,-3.24688,0.586351,0
3.6384,-3.17674,0.581741,0
3.70098,-3.10563,0.577161,0
3.76194,-3.03359,0.57263,0
3.82128,-2.96068,0.568167,0
3.879,-2.8869,0.563753,0
3.93509,-2.81229,0.559378,0
3.98956,-2.73687,0.555052,0
4.0424,-2.66067,0.550784,0
4.09361,-2.58371,0.546566,0
4.14318,-2.50606,0.542415,0
4.19113,-2.42771,0.538323,0
4.23744,-2.34869,0.534261,0
4.28212,-2.26903,0.530267,0
4.32516,-2.18876,0.526331,0
4.36657,-2.1079,0.522454,0
4.40634,-2.02648,0.518636,0
4.44448,-1.94454,0.514876,0
4.48098,-1.86208,0.511185,0
4.51585,-1.77911,0.507523,0
4.54908,-1.69568,0.503939,0
4.58068,-1.61185,0.500433,0
4.61064,-1.52755,0.496966,0
4.63706,-1.44215,0.492923,0
4.65783,-1.35499,0.487581,0
4.67688,-1.26778,0.482337,0
4.69422,-1.18052,0.477152,0
4.70987,-1.09322,0.472044,0
4.72382,-1.00594,0.467015,0
4.73609,-0.918672,0.462064,0
4.74669,-0.831416,0.457161,0
4.75563,-0.744248,0.452357,0
4.76292,-0.657158,0.44763,0
4.76857,-0.570176,0.442982,0
4.77258,-0.48334,0.438411,0
4.77497,-0.396631,0.433919,0
4.77574,-0.310088,0.429505,0
4.77491,-0.22374,0.425169,0
4.77248,-0.137598,0.420921,0
4.76847,-0.0516992,0.416761,0
4.76287,0.0339844,0.412659,0
4.7556,0.119375,0.408636,0
4.74603,0.204453,0.404446,0
4.73489,0.28916,0.400364,0
4.7222,0.373555,0.396331,0
4.70797,0.457529,0.392405,0
4.6922,0.541133,0.388568,0
4.67492,0.624287,0.384808,0
4.65611,0.707041,0.381136,0
4.6358,0.789346,0.377552,0
4.61398,0.871172,0.374046,0
4.59068,0.952529,0.370628,0
4.56047,1.03176,0.365589,0
4.52136,1.10773,0.358323,0
4.48117,1.18268,0.351195,0
4.43991,1.25654,0.344251,0
4.39761,1.32937,0.337474,0
4.35428,1.40113,0.330853,0
4.30994,1.47186,0.324398,0
4.2646,1.54152,0.318109,0
4.21829,1.61013,0.311995,0
4.17102,1.67769,0.306038,0
4.1228,1.7442,0.300228,0
4.07364,1.80966,0.294603,0
4.02412,1.87441,0.28932,0
3.97544,1.93936,0.284798,0
3.92579,2.00334,0.280433,0
3.87517,2.06637,0.276204,0
3.8236,2.12845,0.272142,0
3.77108,2.18956,0.268236,0
3.71762,2.24974,0.264456,0
3.66324,2.30891,0.260862,0
3.60793,2.36715,0.257386,0
3.55171,2.4244,0.254075,0
3.49458,2.48068,0.250921,0
3.43655,2.536,0.247913,0
3.37762,2.59031,0.245052,0
3.31781,2.64366,0.242347,0
3.25712,2.69602,0.239788,0
3.19555,2.74736,0.237386,0
3.13203,2.79628,0.234632,0
3.06725,2.84348,0.2318,0
3.00167,2.88956,0.229134,0
2.93532,2.93452,0.226605,0
2.8682,2.97834,0.224232,0
2.80033,3.02105,0.222005,0
3.07453,-3.56761,0.612073,0
3.15241,-3.5151,0.610745,0
3.22526,-3.45512,0.607064,0
3.29489,-3.3913,0.602366,0
3.36298,-3.32641,0.597718,0
3.42951,-3.26044,0.593099,0
3.49448,-3.19346,0.588538,0
3.55789,-3.12546,0.584007,0
3.61973,-3.05651,0.579515,0
3.67999,-2.98665,0.575081,0
3.73867,-2.91586,0.570677,0
3.79577,-2.84424,0.566351,0
3.85129,-2.77174,0.562054,0
3.90522,-2.69847,0.557816,0
3.95755,-2.62439,0.553636,0
4.0083,-2.54958,0.549495,0
4.05745,-2.47401,0.545403,0
4.105,-2.39775,0.54137,0
4.15096,-2.32083,0.537386,0
4.19531,-2.24328,0.53347,0
4.23807,-2.16507,0.529583,0
4.27923,-2.08628,0.525765,0
4.31878,-2.00696,0.522025,0
4.35673,-1.92706,0.518314,0
4.39308,-1.84664,0.514671,0
4.42783,-1.76571,0.511077,0
4.46097,-1.68435,0.507562,0
4.49251,-1.60251,0.504095,0
4.52245,-1.52026,0.500696,0
4.54855,-1.43673,0.496575,0
4.56963,-1.35166,0.491331,0
4.58902,-1.26649,0.486155,0
4.60674,-1.18125,0.481058,0
4.62278,-1.09598,0.476038,0
4.63716,-1.01067,0.471077,0
4.64988,-0.925391,0.466214,0
4.66097,-0.840107,0.461409,0
4.67041,-0.754863,0.456663,0
4.67824,-0.669688,0.452015,0
4.68444,-0.5846,0.447425,0
4.68904,-0.499619,0.442923,0
4.69204,-0.414795,0.438499,0
4.69345,-0.330107,0.434163,0
4.69327,-0.245586,0.429896,0
4.69153,-0.16126,0.425706,0
4.68822,-0.0771191,0.421585,0
4.68335,0.00678711,0.417552,0
4.6764,0.0904102,0.413441,0
4.66764,0.173721,0.409329,0
4.65734,0.256719,0.405296,0
4.64552,0.339404,0.401321,0
4.63217,0.421689,0.397454,0
4.61731,0.503613,0.393665,0
4.60095,0.585137,0.389954,0
4.58309,0.66625,0.386331,0
4.56375,0.746934,0.382786,0
4.54292,0.827168,0.379329,0
4.52063,0.906943,0.37595,0
4.49688,0.986221,0.372669,0
4.46141,1.06172,0.366165,0
4.42266,1.13554,0.359124,0
4.38283,1.20833,0.352249,0
4.34197,1.28012,0.345511,0
4.30007,1.35085,0.338968,0
4.25716,1.42056,0.332581,0
4.21326,1.48925,0.326351,0
4.16838,1.55691,0.320277,0
4.12254,1.62356,0.314359,0
4.07575,1.68919,0.308597,0
4.02802,1.75378,0.303011,0
