54.2153,-59.0955,-0.442004,0
54.4613,-59.113,-0.454509,0
54.7159,-59.1407,-0.465353,0
54.9732,-59.1609,-0.476662,0
55.2141,-59.1304,-0.493366,0
55.4451,-59.0709,-0.512804,0
55.6745,-59.0037,-0.532453,0
55.9018,-58.9288,-0.552306,0
56.1269,-58.8463,-0.572331,0
56.3494,-58.7562,-0.592512,0
56.5691,-58.6585,-0.612809,0
56.7855,-58.5533,-0.63321,0
56.9985,-58.4407,-0.653683,0
57.2078,-58.3208,-0.674211,0
57.4187,-58.2015,-0.693947,0
57.6102,-58.055,-0.715783,0
57.7777,-57.8787,-0.739919,0
57.94,-57.6986,-0.763644,0
58.0973,-57.515,-0.786945,0
58.2495,-57.3281,-0.809802,0
58.3964,-57.138,-0.832214,0
58.538,-56.9448,-0.854162,0
58.6744,-56.7489,-0.875637,0
58.8054,-56.5502,-0.896637,0
58.931,-56.3491,-0.917136,0
59.0513,-56.1456,-0.93714,0
59.1661,-55.94,-0.956638,0
59.2587,-55.7197,-0.976877,0
59.3236,-55.483,-0.998083,0
59.3823,-55.2466,-1.0186,0
59.4347,-55.0107,-1.03841,0
59.481,-54.7756,-1.05752,0
59.5215,-54.5413,-1.07594,0
59.5561,-54.3081,-1.09367,0
59.5849,-54.0762,-1.11071,0
59.6083,-53.8456,-1.12707,0
59.6171,-53.6124,-1.14321,0
59.6124,-53.3775,-1.15907,0
59.6568,-53.168,-1.17158,0
59.7023,-52.9608,-1.18324,0
59.7427,-52.7532,-1.19442,0
59.7777,-52.5454,-1.20508,0
59.8076,-52.3376,-1.21524,0
59.8323,-52.1298,-1.22489,0
59.8519,-51.9222,-1.23403,0
59.8663,-51.715,-1.24265,0
59.8759,-51.5083,-1.25077,0
59.8803,-51.3023,-1.25839,0
59.88,-51.0969,-1.26549,0
59.8892,-50.8945,-1.27158,0
46.4633,-55.8734,0.04409,0
46.5912,-56.0033,0.0359504,0
46.722,-56.1319,0.0277326,0
46.8552,-56.2591,0.0194367,0
46.9911,-56.3849,0.0110676,0
47.1242,-56.5187,0.0048127,0
47.2573,-56.6571,-0.000284958,0
47.3937,-56.7946,-0.00547539,0
47.5335,-56.9313,-0.0107488,0
47.6785,-57.0632,-0.0169207,0
47.8334,-57.1788,-0.0263494,0
47.9912,-57.2924,-0.03591,0
48.152,-57.404,-0.0456023,0
48.3157,-57.5135,-0.0554412,0
48.4784,-57.6327,-0.0631756,0
48.642,-57.7584,-0.0695135,0
48.8096,-57.8825,-0.0760027,0
48.9809,-58.0049,-0.082658,0
49.1562,-58.1256,-0.0894793,0
49.3354,-58.2445,-0.0964666,0
49.5201,-58.3533,-0.105036,0
49.7093,-58.454,-0.114719,0
49.9018,-58.5542,-0.12426,0
50.0969,-58.6615,-0.132389,0
50.2995,-58.7257,-0.147145,0
50.5046,-58.7815,-0.16278,0
50.7118,-58.8338,-0.178508,0
50.9209,-58.8823,-0.194333,0
51.132,-58.9272,-0.210246,0
51.3449,-58.9682,-0.226266,0
51.5598,-59.0054,-0.242355,0
51.7764,-59.0387,-0.258532,0
51.9971,-59.0929,-0.27133,0
52.2219,-59.1523,-0.283039,0
52.4499,-59.2077,-0.294943,0
52.6777,-59.2379,-0.309836,0
52.9017,-59.232,-0.328991,0
53.1263,-59.221,-0.348239,0
53.3512,-59.205,-0.367546,0
53.5766,-59.1838,-0.386916,0
53.802,-59.1574,-0.406325,0
54.0274,-59.1258,-0.425778,0
54.2528,-59.089,-0.445261,0
54.5035,-59.1181,-0.456281,0
54.7587,-59.1446,-0.467209,0
55.0163,-59.1636,-0.478591,0
55.2527,-59.121,-0.496594,0
55.4834,-59.0602,-0.516066,0
55.7124,-58.9918,-0.535749,0
55.9395,-58.9156,-0.555637,0
56.1641,-58.8318,-0.575685,0
56.3862,-58.7404,-0.595886,0
56.6054,-58.6415,-0.616198,0
56.8213,-58.535,-0.636623,0
57.0337,-58.4212,-0.657101,0
57.2423,-58.3002,-0.677629,0
57.4538,-58.1814,-0.697199,0
57.6384,-58.0259,-0.719836,0
57.805,-57.8489,-0.743898,0
57.9666,-57.6682,-0.76756,0
58.123,-57.4841,-0.790783,0
58.2742,-57.2966,-0.813566,0
58.4203,-57.106,-0.8359,0
58.5612,-56.9124,-0.85777,0
58.6966,-56.7159,-0.879167,0
58.8267,-56.5169,-0.900085,0
58.9515,-56.3153,-0.92051,0
59.0708,-56.1115,-0.940427,0
59.1848,-55.9055,-0.959841,0
59.2699,-55.6803,-0.980466,0
59.3338,-55.4436,-1.00155,0
59.3914,-55.2072,-1.02195,0
59.4428,-54.9715,-1.04164,0
59.4882,-54.7365,-1.06064,0
59.5277,-54.5024,-1.07894,0
59.5612,-54.2694,-1.09655,0
59.5891,-54.0376,-1.11348,0
59.6116,-53.8073,-1.12972,0
59.6168,-53.573,-1.14591,0
59.6148,-53.3403,-1.16146,0
59.6647,-53.1335,-1.17355,0
59.7095,-52.9262,-1.18515,0
59.7488,-52.7186,-1.19623,0
59.783,-52.5108,-1.20681,0
59.812,-52.3029,-1.21688,0
59.8359,-52.0952,-1.22645,0
59.8545,-51.8877,-1.2355,0
59.8683,-51.6806,-1.24404,0
59.8769,-51.4739,-1.25208,0
59.8805,-51.268,-1.25961,0
59.8795,-51.0628,-1.26663,0
59.8919,-50.8611,-1.27248,0
46.4845,-55.8951,0.0427326,0
46.6128,-56.0248,0.0345881,0
46.744,-56.1532,0.0263508,0
46.8777,-56.2801,0.01805,0
47.0141,-56.4057,0.00966133,0
47.1461,-56.5419,0.00396797,0
47.2798,-56.68,-0.00114922,0
47.4168,-56.8174,-0.00634941,0
47.5572,-56.954,-0.0116375,0
47.7041,-57.0826,-0.0184832,0
47.8595,-57.1979,-0.0279266,0
48.0178,-57.3112,-0.0375213,0
48.1791,-57.4224,-0.0472381,0
48.3432,-57.5316,-0.0570916,0
48.5055,-57.6537,-0.0642205,0
48.6698,-57.7792,-0.0705779,0
48.8379,-57.903,-0.0771014,0
49.0098,-58.0252,-0.0837859,0
49.1858,-58.1456,-0.0906365,0
49.3656,-58.2642,-0.0976531,0
49.5513,-58.3702,-0.106633,0
49.7412,-58.4706,-0.116345,0
49.9341,-58.5722,-0.125602,0
50.13,-58.6764,-0.134211,0
50.3334,-58.7352,-0.149748,0
50.539,-58.7905,-0.165397,0
50.7465,-58.8421,-0.181135,0
50.9559,-58.8901,-0.196979,0
51.1673,-58.9343,-0.212912,0
51.3806,-58.9747,-0.228937,0
51.5957,-59.0112,-0.245046,0
51.8127,-59.0439,-0.261242,0
52.0344,-59.1031,-0.273263,0
52.2597,-59.1618,-0.285007,0
52.4882,-59.2165,-0.29695,0
52.715,-59.2373,-0.313014,0
52.9391,-59.2305,-0.332199,0
53.1637,-59.2187,-0.351447,0
53.3888,-59.2018,-0.370773,0
53.6141,-59.1797,-0.390148,0
53.8395,-59.1525,-0.409562,0
54.0649,-59.1201,-0.429015,0
54.2932,-59.0906,-0.447516,0
54.5459,-59.123,-0.458068,0
54.8014,-59.1483,-0.469064,0
55.0595,-59.1658,-0.480544,0
55.2912,-59.1114,-0.499816,0
55.5218,-59.0494,-0.519328,0
55.7505,-58.9796,-0.539054,0
55.9771,-58.9022,-0.558962,0
56.2014,-58.8171,-0.57904,0
56.423,-58.7245,-0.59926,0
56.6416,-58.6243,-0.619596,0
56.857,-58.5166,-0.640031,0
57.0687,-58.4016,-0.660519,0
57.2774,-58.2804,-0.680939,0
57.4887,-58.1609,-0.700456,0
57.6666,-57.9966,-0.723874,0
57.8323,-57.819,-0.747873,0
57.993,-57.6378,-0.771457,0
58.1486,-57.4531,-0.794606,0
58.299,-57.2651,-0.817316,0
58.4442,-57.0739,-0.839577,0
58.5841,-56.8798,-0.861364,0
58.7187,-56.683,-0.882687,0
58.8479,-56.4835,-0.903522,0
58.9717,-56.2815,-0.923859,0
59.0902,-56.0773,-0.943698,0
59.2031,-55.871,-0.963029,0
59.281,-55.6408,-0.98403,0
59.3439,-55.4041,-1.005,0
59.4005,-55.1679,-1.02527,0
59.4508,-54.9323,-1.04485,0
59.4952,-54.6974,-1.06373,0
59.5337,-54.4635,-1.08192,0
59.5663,-54.2307,-1.09942,0
59.5933,-53.9992,-1.11623,0
59.6148,-53.7691,-1.13237,0
59.6162,-53.5338,-1.14858,0
59.6234,-53.3059,-1.16351,0
59.6726,-53.099,-1.17552,0
59.7163,-52.8916,-1.18703,0
59.7549,-52.684,-1.19803,0
59.7882,-52.4761,-1.20853,0
59.8163,-52.2683,-1.21851,0
59.8393,-52.0606,-1.22799,0
59.8572,-51.8531,-1.23696,0
59.87,-51.6461,-1.24542,0
59.8779,-51.4396,-1.25337,0
59.8807,-51.2337,-1.2608,0
59.8787,-51.0286,-1.26775,0
46.6223,-55.6179,0.0393049,0
46.7387,-55.7523,0.0340998,0
46.8611,-55.8811,0.0275617,0
46.9898,-56.0031,0.0195783,0
47.121,-56.1238,0.0114973,0
47.254,-56.2444,0.00371895,0
47.3827,-56.3762,-0.00118828,0
47.5145,-56.5071,-0.0061834,0
47.6497,-56.6368,-0.0113299,0
47.7959,-56.7487,-0.0202508,0
47.9448,-56.8586,-0.0292986,0
48.0964,-56.9666,-0.0384734,0
48.2509,-57.0725,-0.0477801,0
48.4081,-57.1764,-0.0572186,0
48.5681,-57.2781,-0.0667889,0
48.7273,-57.3894,-0.0741766,0
48.8878,-57.5057,-0.0804119,0
49.052,-57.6203,-0.0867937,0
49.2197,-57.7331,-0.0933269,0
49.3911,-57.844,-0.100026,0
49.5661,-57.9529,-0.106882,0
49.745,-58.0598,-0.113888,0
49.9276,-58.1645,-0.121066,0
50.114,-58.267,-0.12841,0
50.3079,-58.3262,-0.142712,0
50.5041,-58.3787,-0.157643,0
50.7021,-58.4278,-0.172673,0
50.902,-58.4732,-0.187785,0
51.1036,-58.5151,-0.20298,0
51.307,-58.5533,-0.218254,0
51.5121,-58.5877,-0.23361,0
51.7189,-58.6183,-0.249035,0
51.9273,-58.6451,-0.264528,0
52.1372,-58.668,-0.28009,0
52.3515,-58.7072,-0.292824,0
52.5698,-58.7524,-0.304269,0
52.7829,-58.7501,-0.321891,0
52.9959,-58.7391,-0.340143,0
53.2091,-58.7232,-0.358459,0
53.4227,-58.7025,-0.376823,0
53.6362,-58.6769,-0.395217,0
53.8498,-58.6463,-0.413649,0
54.0634,-58.6107,-0.432106,0
54.2766,-58.5702,-0.450573,0
54.4895,-58.5247,-0.469035,0
54.702,-58.4741,-0.487492,0
54.9138,-58.4185,-0.505934,0
55.1385,-58.3873,-0.520768,0
55.3502,-58.3228,-0.53902,0
55.5619,-58.2547,-0.557048,0
55.773,-58.1824,-0.574929,0
55.9823,-58.1036,-0.592892,0
56.1897,-58.0184,-0.610939,0
56.3948,-57.9268,-0.62904,0
56.5973,-57.8288,-0.647179,0
56.7972,-57.7244,-0.665344,0
56.9941,-57.6138,-0.683508,0
57.1877,-57.4971,-0.701657,0
57.3779,-57.3742,-0.719758,0
57.5582,-57.2381,-0.73862,0
57.7079,-57.0664,-0.760676,0
57.8527,-56.8916,-0.782326,0
57.9927,-56.7137,-0.803571,0
58.1278,-56.5329,-0.824386,0
58.258,-56.3493,-0.844767,0
58.3832,-56.1632,-0.864704,0
58.5034,-55.9746,-0.884181,0
58.6118,-55.7783,-0.90381,0
58.6887,-55.5596,-0.925226,0
58.7598,-55.3407,-0.946003,0
58.8247,-55.1215,-0.966164,0
58.8838,-54.9025,-0.985676,0
58.9371,-54.6838,-1.00456,0
58.9848,-54.4654,-1.0228,0
59.0211,-54.2443,-1.04082,0
59.0441,-54.0199,-1.05868,0
59.0615,-53.7971,-1.07589,0
59.0731,-53.5759,-1.09241,0
59.0795,-53.3566,-1.10828,0
59.1332,-53.1625,-1.12044,0
59.1829,-52.9682,-1.13207,0
59.2276,-52.7733,-1.14323,0
59.2673,-52.578,-1.15392,0
59.3022,-52.3824,-1.16414,0
59.3321,-52.1866,-1.17389,0
59.3573,-51.9909,-1.18316,0
59.3776,-51.7953,-1.19195,0
59.3931,-51.5999,-1.20028,0
59.4127,-51.4068,-1.20772,0
59.4413,-51.2164,-1.21408,0
59.4659,-51.0257,-1.21998,0
59.4856,-50.8345,-1.22546,0
46.6415,-55.6403,0.0384406,0
46.7583,-55.7746,0.033216,0
46.8824,-55.9015,0.0262385,0
47.0115,-56.0233,0.0182355,0
47.1432,-56.1437,0.0101545,0
47.2752,-56.2664,0.0029084,0
47.4045,-56.3981,-0.00201836,0
47.5368,-56.5288,-0.00702324,0
47.6738,-56.6556,-0.0128045,0
47.8205,-56.7671,-0.0217449,0
47.9698,-56.8768,-0.0308123,0
48.122,-56.9844,-0.0400213,0
48.277,-57.09,-0.0493523,0
48.4346,-57.1935,-0.0588055,0
48.595,-57.2948,-0.0683953,0
48.7537,-57.4089,-0.075202,0
48.9148,-57.525,-0.0814568,0
49.0796,-57.6392,-0.0878777,0
49.248,-57.7517,-0.0944353,0
49.42,-57.8623,-0.101159,0
49.5957,-57.9709,-0.108034,0
49.7752,-58.0774,-0.115085,0
49.9584,-58.1818,-0.122272,0
50.1462,-58.2757,-0.131017,0
50.3405,-58.3352,-0.145192,0
50.537,-58.3872,-0.160143,0
50.7353,-58.4356,-0.175182,0
50.9355,-58.4805,-0.190304,0
51.1374,-58.5217,-0.205519,0
51.3411,-58.5593,-0.220807,0
51.5465,-58.5931,-0.236174,0
51.7535,-58.6231,-0.251613,0
51.9621,-58.6492,-0.267116,0
52.1723,-58.6714,-0.282682,0
52.3877,-58.715,-0.294714,0
52.6058,-58.7556,-0.30674,0
52.8184,-58.7486,-0.324928,0
53.0314,-58.7368,-0.3432,0
53.2447,-58.7201,-0.361511,0
53.4582,-58.6986,-0.37988,0
53.6719,-58.6721,-0.398293,0
53.8855,-58.6407,-0.416725,0
54.0989,-58.6044,-0.435173,0
54.3121,-58.563,-0.453639,0
54.5249,-58.5166,-0.472116,0
54.7373,-58.4652,-0.490563,0
54.9498,-58.4107,-0.508776,0
55.1739,-58.377,-0.523805,0
55.3854,-58.3114,-0.542077,0
55.5972,-58.2431,-0.560021,0
55.808,-58.1697,-0.577907,0
56.017,-58.0899,-0.59589,0
56.224,-58.0036,-0.613952,0
56.4287,-57.9109,-0.632062,0
56.6309,-57.8118,-0.650212,0
56.8302,-57.7064,-0.668366,0
57.0265,-57.5948,-0.686535,0
57.2196,-57.477,-0.704675,0
57.4091,-57.3531,-0.722775,0
57.5834,-57.2097,-0.742316,0
57.7324,-57.0375,-0.764313,0
57.8764,-56.8622,-0.785895,0
58.0155,-56.6838,-0.807072,0
58.1498,-56.5025,-0.827819,0
58.2792,-56.3185,-0.848122,0
58.4036,-56.1319,-0.86798,0
58.5229,-55.943,-0.887385,0
58.6251,-55.7419,-0.907424,0
58.701,-55.5231,-0.928737,0
58.7709,-55.3041,-0.949416,0
58.835,-55.085,-0.969455,0
58.8931,-54.866,-0.988869,0
58.9455,-54.6473,-1.00765,0
58.9923,-54.4291,-1.02578,0
59.0254,-54.2068,-1.04384,0
59.0474,-53.9827,-1.06159,0
59.0637,-53.7601,-1.07868,0
59.0745,-53.5392,-1.0951,0
59.088,-53.324,-1.11039,0
59.1418,-53.1302,-1.1224,0
59.1906,-52.9357,-1.13396,0
59.2346,-52.7407,-1.14505,0
59.2735,-52.5454,-1.15566,0
59.3076,-52.3498,-1.16579,0
59.3366,-52.154,-1.17546,0
59.361,-51.9583,-1.18466,0
59.3805,-51.7627,-1.19338,0
59.3952,-51.5674,-1.20162,0
59.4177,-51.3751,-1.2088,0
59.4458,-51.1846,-1.21509,0
59.4697,-50.9939,-1.22091,0
59.488,-50.8026,-1.22633,0
46.6608,-55.6628,0.0375861,0
46.778,-55.7969,0.0323322,0
46.9037,-55.9219,0.0249055,0
47.0333,-56.0435,0.0168879,0
47.1654,-56.1637,0.00879707,0
47.2966,-56.2884,0.00208809,0
47.4263,-56.4199,-0.00284843,0
47.5591,-56.5505,-0.00786797,0
47.6981,-56.6743,-0.0142937,0
47.8452,-56.7855,-0.0232488,0
47.995,-56.8948,-0.0323406,0
48.1477,-57.0021,-0.0415594,0
48.303,-57.1074,-0.05091,0
48.4611,-57.2105,-0.0603924,0
48.622,-57.3115,-0.0700066,0
48.7803,-57.4284,-0.0762371,0
48.9421,-57.5441,-0.0825262,0
49.1074,-57.6581,-0.0889568,0
49.2764,-57.7703,-0.0955437,0
49.4491,-57.8805,-0.102292,0
49.6253,-57.9888,-0.109201,0
49.8055,-58.0949,-0.116266,0
49.9892,-58.199,-0.123498,0
50.1783,-58.2879,-0.133039,0
50.373,-58.3441,-0.147678,0
50.5698,-58.3955,-0.162643,0
50.7685,-58.4433,-0.177697,0
50.969,-58.4876,-0.192844,0
51.1712,-58.5282,-0.208058,0
51.3752,-58.5652,-0.223366,0
51.5809,-58.5983,-0.238742,0
51.7882,-58.6277,-0.254186,0
51.997,-58.6532,-0.269709,0
52.2076,-58.6747,-0.285285,0
52.4239,-58.7227,-0.296613,0
52.6412,-58.7548,-0.309772,0
52.8538,-58.747,-0.327971,0
53.067,-58.7343,-0.346242,0
53.2803,-58.7169,-0.364572,0
53.4938,-58.6945,-0.382946,0
53.7074,-58.6672,-0.401354,0
53.921,-58.635,-0.419802,0
54.1345,-58.5978,-0.438254,0
54.3476,-58.5556,-0.456725,0
54.5604,-58.5084,-0.475187,0
54.7727,-58.4562,-0.493639,0
54.9895,-58.4105,-0.510651,0
55.2092,-58.3666,-0.526833,0
55.4204,-58.2998,-0.545148,0
55.6324,-58.2313,-0.563005,0
55.843,-58.1569,-0.5809,0
56.0516,-58.076,-0.598898,0
56.2583,-57.9886,-0.616965,0
56.4626,-57.8948,-0.63508,0
56.6642,-57.7947,-0.653229,0
56.8631,-57.6883,-0.671393,0
57.0589,-57.5756,-0.689553,0
57.2514,-57.4568,-0.707692,0
57.4405,-57.3319,-0.725778,0
57.6087,-57.1812,-0.746013,0
57.7566,-57.0085,-0.767936,0
57.8999,-56.8326,-0.789455,0
58.0384,-56.6537,-0.810558,0
58.1718,-56.472,-0.831232,0
58.3002,-56.2876,-0.851457,0
58.4238,-56.1006,-0.871242,0
58.5423,-55.9113,-0.890573,0
58.6381,-55.7054,-0.911022,0
58.713,-55.4867,-0.932219,0
58.782,-55.2676,-0.952795,0
58.8451,-55.0485,-0.972741,0
58.9023,-54.8296,-0.992043,0
58.9537,-54.6109,-1.01071,0
58.9995,-54.3928,-1.02874,0
59.0295,-54.1693,-1.04685,0
59.0505,-53.9455,-1.06449,0
59.0659,-53.7232,-1.08146,0
59.0758,-53.5026,-1.09778,0
59.0973,-53.2917,-1.11242,0
59.1503,-53.0978,-1.12436,0
59.1983,-52.9033,-1.13583,0
59.2413,-52.7082,-1.14685,0
59.2795,-52.5128,-1.15737,0
59.3127,-52.3171,-1.16745,0
59.3411,-52.1214,-1.17703,0
59.3645,-51.9257,-1.18615,0
59.3833,-51.7301,-1.19478,0
59.3972,-51.5349,-1.20295,0
59.4227,-51.3434,-1.20989,0
59.45,-51.1529,-1.2161,0
59.4733,-50.962,-1.22184,0
46.7913,-55.3986,0.0330549,0
46.9042,-55.5271,0.0280061,0
47.0198,-55.6545,0.0228449,0
47.1384,-55.7807,0.0175715,0
47.2637,-55.8996,0.0106086,0
47.3934,-56.0138,0.00274727,0
47.5203,-56.1361,-0.00283867,0
47.6484,-56.2607,-0.00769218,0
47.787,-56.3691,-0.0161639,0
47.928,-56.4756,-0.0247674,0
48.0719,-56.5801,-0.0334881,0
48.2183,-56.6826,-0.0423211,0
48.3673,-56.7831,-0.0512957,0
48.519,-56.8816,-0.0603728,0
48.6732,-56.9778,-0.0695916,0
48.8301,-57.0719,-0.0789178,0
48.9855,-57.1784,-0.0854607,0
49.1436,-57.2857,-0.0916131,0
49.3049,-57.3912,-0.0979217,0
49.4698,-57.4947,-0.104372,0
49.638,-57.5962,-0.110964,0
49.8097,-57.6956,-0.117702,0
49.9848,-57.7928,-0.124606,0
50.1653,-57.8725,-0.134328,0
50.3527,-57.9043,-0.151999,0
50.5402,-57.9417,-0.168122,0
50.7279,-57.9993,-0.180319,0
50.9179,-58.0526,-0.192785,0
51.11,-58.1016,-0.205519,0
51.3041,-58.1462,-0.218517,0
51.5003,-58.1863,-0.231764,0
51.6984,-58.2217,-0.245265,0
51.898,-58.2524,-0.259015,0
52.0993,-58.2783,-0.273,0
52.302,-58.2982,-0.287394,0
52.5055,-58.3106,-0.30235,0
52.7091,-58.3122,-0.318366,0
52.9116,-58.3005,-0.335724,0
53.1144,-58.284,-0.353176,0
53.3172,-58.2626,-0.370695,0
53.5199,-58.2365,-0.388254,0
53.7227,-58.2055,-0.405856,0
53.9251,-58.1698,-0.423478,0
54.1273,-58.1292,-0.44112,0
54.3288,-58.0838,-0.458776,0
54.5299,-58.0335,-0.476418,0
54.7302,-57.9784,-0.49404,0
54.9298,-57.9184,-0.511647,0
55.1258,-57.8482,-0.529889,0
55.3155,-57.7637,-0.549289,0
55.5033,-57.6748,-0.568542,0
55.6891,-57.5814,-0.587653,0
55.8734,-57.4843,-0.606511,0
56.0645,-57.397,-0.623454,0
56.2534,-57.3039,-0.640417,0
56.4395,-57.205,-0.657404,0
56.623,-57.1004,-0.674387,0
56.8034,-56.9901,-0.691349,0
56.9807,-56.8742,-0.708259,0
57.1545,-56.7528,-0.725134,0
57.3247,-56.626,-0.741921,0
57.4911,-56.4939,-0.758615,0
57.6315,-56.334,-0.777941,0
57.7605,-56.164,-0.797726,0
57.8851,-55.9915,-0.817116,0
58.0038,-55.8154,-0.836213,0
58.0909,-55.614,-0.857678,0
58.1723,-55.4117,-0.878591,0
58.248,-55.2087,-0.898928,0
58.3162,-55.0037,-0.918884,0
58.3712,-54.7931,-0.938913,0
58.4202,-54.5827,-0.958356,0
58.4633,-54.3727,-0.977199,0
58.5006,-54.1632,-0.995427,0
58.5323,-53.9545,-1.01306,0
58.5585,-53.7468,-1.03007,0
58.5793,-53.5403,-1.04648,0
58.599,-53.337,-1.062,0
58.6569,-53.1553,-1.074,0
58.7101,-52.9726,-1.08556,0
58.7585,-52.7893,-1.09669,0
58.8023,-52.6053,-1.10737,0
58.8415,-52.4209,-1.11763,0
58.8759,-52.2362,-1.12744,0
58.9059,-52.0513,-1.1368,0
58.9407,-51.869,-1.14518,0
58.9801,-51.6887,-1.15264,0
59.0155,-51.5078,-1.15966,0
59.0472,-51.3264,-1.16622,0
59.0751,-51.1446,-1.17236,0
59.099,-50.9625,-1.17803,0
59.1171,-50.7798,-1.18337,0
46.8099,-55.4201,0.032215,0
46.9233,-55.5484,0.0271564,0
47.0394,-55.6756,0.0219758,0
47.1584,-55.8017,0.0166779,0
47.2851,-55.9187,0.0093,0
47.4152,-56.0326,0.00142891,0
47.5414,-56.157,-0.00362968,0
47.6712,-56.2789,-0.00909843,0
47.8103,-56.387,-0.0175896,0
47.9519,-56.4931,-0.0262078,0
48.096,-56.5973,-0.034948,0
48.2429,-56.6995,-0.0438201,0
48.3923,-56.7997,-0.0527996,0
48.5445,-56.8978,-0.0619012,0
48.6991,-56.9937,-0.0711346,0
48.8565,-57.0876,-0.0804461,0
49.0116,-57.1964,-0.0864812,0
49.1702,-57.3034,-0.092658,0
49.3322,-57.4086,-0.0989812,0
49.4976,-57.5117,-0.105456,0
49.6664,-57.6129,-0.112072,0
49.8386,-57.7119,-0.118845,0
50.0145,-57.8088,-0.125759,0
50.1964,-57.8781,-0.137258,0
50.384,-57.9092,-0.154948,0
50.5713,-57.9516,-0.170134,0
50.7595,-58.0085,-0.18238,0
50.9498,-58.0611,-0.194885,0
51.1422,-58.1094,-0.207663,0
51.3367,-58.1532,-0.220705,0
51.5332,-58.1925,-0.234001,0
51.7314,-58.2272,-0.247536,0
51.9315,-58.2571,-0.261325,0
52.133,-58.2822,-0.275353,0
52.3358,-58.3005,-0.28988,0
52.5396,-58.3123,-0.304855,0
52.7428,-58.3106,-0.321257,0
52.9454,-58.2981,-0.338625,0
53.1481,-58.2808,-0.356095,0
53.3509,-58.2586,-0.37362,0
53.5537,-58.2316,-0.391183,0
53.7564,-58.1999,-0.408791,0
53.9588,-58.1633,-0.426423,0
54.1609,-58.122,-0.444064,0
54.3624,-58.0757,-0.461716,0
54.5634,-58.0247,-0.479352,0
54.7636,-57.9687,-0.496979,0
54.9629,-57.9079,-0.514577,0
55.1575,-57.8345,-0.533127,0
55.347,-57.7492,-0.552507,0
55.5345,-57.6595,-0.571735,0
55.72,-57.5654,-0.590822,0
55.9055,-57.4702,-0.609328,0
56.0962,-57.3819,-0.626281,0
56.2845,-57.2879,-0.643249,0
56.4703,-57.188,-0.660231,0
56.6533,-57.0824,-0.677214,0
56.8332,-56.9711,-0.694172,0
57.0098,-56.8543,-0.711081,0
57.1831,-56.732,-0.727941,0
57.3527,-56.6043,-0.744709,0
57.5185,-56.4714,-0.761393,0
57.6533,-56.3058,-0.781262,0
57.7816,-56.1355,-0.800988,0
57.9053,-55.9624,-0.820314,0
58.0187,-55.7819,-0.839831,0
58.1048,-55.5803,-0.861203,0
58.1853,-55.3779,-0.882018,0
58.2602,-55.1748,-0.902258,0
58.3258,-54.9686,-0.922258,0
58.3798,-54.758,-0.942199,0
58.4277,-54.5477,-0.96154,0
58.4698,-54.3377,-0.980275,0
58.5062,-54.1284,-0.998415,0
58.5371,-53.9199,-1.01593,0
58.5623,-53.7123,-1.03285,0
58.5823,-53.506,-1.04916,0
58.609,-53.3068,-1.06403,0
58.6661,-53.1249,-1.07595,0
58.7184,-52.9421,-1.08744,0
58.7662,-52.7587,-1.0985,0
58.8091,-52.5746,-1.10912,0
58.8475,-52.3902,-1.1193,0
58.8812,-52.2054,-1.12903,0
58.9104,-52.0204,-1.13832,0
58.9476,-51.839,-1.14645,0
58.9863,-51.6586,-1.15384,0
59.0212,-51.4776,-1.16078,0
59.0521,-51.2961,-1.16728,0
59.0794,-51.1143,-1.17333,0
59.1027,-50.9321,-1.17894,0
59.1195,-50.7493,-1.18423,0
46.8286,-55.4416,0.0313801,0
46.9424,-55.5697,0.026302,0
47.0591,-55.6967,0.0210969,0
47.1785,-55.8225,0.0157893,0
47.3066,-55.9378,0.00799141,0
47.4366,-56.0524,0.000344925,0
47.5627,-56.1778,-0.00443047,0
47.6943,-56.2971,-0.0104949,0
47.8337,-56.4048,-0.0190203,0
47.9757,-56.5106,-0.027658,0
48.1204,-56.6145,-0.0364178,0
48.2677,-56.7164,-0.0453045,0
48.4175,-56.8162,-0.0543035,0
48.5701,-56.9139,-0.0634392,0
48.7252,-57.0095,-0.0726824,0
48.8821,-57.1059,-0.0814373,0
49.0378,-57.2143,-0.0875017,0
49.197,-57.3211,-0.0937029,0
49.3595,-57.4259,-0.100055,0
49.5254,-57.5287,-0.10654,0
49.6948,-57.6295,-0.113195,0
49.8677,-57.7282,-0.119987,0
50.0441,-57.8247,-0.12693,0
50.2277,-57.8835,-0.140202,0
50.4153,-57.914,-0.157907,0
50.6025,-57.9614,-0.172165,0
50.791,-58.0175,-0.18444,0
50.9817,-58.0694,-0.196999,0
51.1745,-58.117,-0.209826,0
51.3694,-58.1601,-0.222902,0
51.5661,-58.1986,-0.236237,0
51.7647,-58.2325,-0.249821,0
51.9649,-58.2616,-0.263649,0
52.1668,-58.2859,-0.277712,0
52.3697,-58.3028,-0.29237,0
52.5737,-58.3146,-0.307253,0
52.7766,-58.3088,-0.324147,0
52.9791,-58.2956,-0.341525,0
53.1819,-58.2774,-0.359001,0
53.3848,-58.2544,-0.376545,0
53.5876,-58.2267,-0.394118,0
53.7902,-58.1941,-0.411725,0
53.9925,-58.1568,-0.429367,0
54.1945,-58.1146,-0.447004,0
54.3959,-58.0676,-0.464645,0
54.5968,-58.0157,-0.482292,0
54.7969,-57.9589,-0.499914,0
54.9961,-57.8973,-0.517507,0
55.1892,-57.8205,-0.536369,0
55.3783,-57.7346,-0.555724,0
55.5655,-57.6441,-0.574929,0
55.7507,-57.5493,-0.593986,0
55.9373,-57.4559,-0.612155,0
56.1278,-57.3667,-0.629098,0
56.3157,-57.2716,-0.646081,0
56.501,-57.1708,-0.663058,0
56.6834,-57.0643,-0.680046,0
56.8628,-56.9521,-0.696984,0
57.039,-56.8343,-0.713888,0
57.2116,-56.7111,-0.730739,0
57.3805,-56.5825,-0.747502,0
57.5428,-56.4457,-0.764523,0
57.675,-56.2776,-0.784577,0
57.8026,-56.1068,-0.804235,0
57.9255,-55.9334,-0.823488,0
58.0334,-55.7484,-0.843429,0
58.1187,-55.5466,-0.864709,0
58.1982,-55.3441,-0.885431,0
58.2721,-55.1409,-0.905578,0
58.3352,-54.9335,-0.925622,0
58.3881,-54.7229,-0.945471,0
58.4352,-54.5127,-0.964704,0
58.4763,-54.3028,-0.983342,0
58.5117,-54.0936,-1.00137,0
58.5417,-53.8852,-1.0188,0
58.566,-53.6779,-1.03561,0
58.5851,-53.4717,-1.05182,0
58.6188,-53.2765,-1.06605,0
58.6752,-53.0945,-1.0779,0
58.7267,-52.9116,-1.08931,0
58.7736,-52.728,-1.1003,0
58.8159,-52.5439,-1.11085,0
58.8534,-52.3594,-1.12094,0
58.8864,-52.1746,-1.13061,0
58.9148,-51.9896,-1.13983,0
58.9542,-51.809,-1.14772,0
58.9923,-51.6285,-1.15503,0
59.0266,-51.4474,-1.1619,0
59.057,-51.2659,-1.16832,0
59.0835,-51.084,-1.1743,0
59.1061,-50.9017,-1.17983,0
46.9487,-55.1944,0.0272248,0
47.0583,-55.3174,0.0223322,0
47.1705,-55.4392,0.0173322,0
47.2856,-55.5599,0.0122199,0
47.4034,-55.6793,0.0070002,0
47.524,-55.7975,0.00166817,0
47.6489,-55.9119,-0.00441093,0
47.7804,-56.0171,-0.0124725,0
47.9144,-56.1205,-0.0206561,0
48.0508,-56.222,-0.0289568,0
48.1898,-56.3216,-0.0373748,0
48.3312,-56.4192,-0.0459051,0
48.4752,-56.5148,-0.0545428,0
48.6216,-56.6083,-0.0633074,0
48.7706,-56.6996,-0.0721844,0
48.922,-56.7888,-0.0811687,0
49.0758,-56.8765,-0.0901238,0
49.228,-56.9773,-0.0960711,0
49.3835,-57.0762,-0.102145,0
49.5422,-57.1731,-0.108361,0
49.7041,-57.268,-0.114714,0
49.8692,-57.3607,-0.121208,0
50.0375,-57.4512,-0.127844,0
50.2124,-57.5105,-0.139938,0
50.3916,-57.5405,-0.156847,0
50.5716,-57.5667,-0.173835,0
50.7523,-57.5889,-0.190915,0
50.9333,-57.6268,-0.204679,0
51.1158,-57.6713,-0.216823,0
51.3001,-57.7115,-0.229211,0
51.4862,-57.7474,-0.241833,0
51.6739,-57.7789,-0.254694,0
51.8631,-57.8059,-0.267775,0
52.0538,-57.8283,-0.281076,0
52.2459,-57.8461,-0.294592,0
52.4391,-57.8591,-0.308312,0
52.6335,-57.8684,-0.322077,0
52.8297,-57.8761,-0.335529,0
53.0263,-57.8766,-0.349518,0
53.2193,-57.8552,-0.366208,0
53.4123,-57.8292,-0.382922,0
53.6051,-57.7986,-0.399679,0
53.7977,-57.7635,-0.416447,0
53.9898,-57.7238,-0.433234,0
54.1815,-57.6795,-0.450021,0
54.3726,-57.6306,-0.466799,0
54.563,-57.5771,-0.483556,0
54.7524,-57.519,-0.50029,0
54.941,-57.4562,-0.516984,0
55.1259,-57.3839,-0.534303,0
55.3048,-57.2988,-0.552648,0
55.4818,-57.2094,-0.570856,0
55.6569,-57.116,-0.588903,0
55.8299,-57.0184,-0.606789,0
56.0008,-56.9167,-0.624504,0
56.1693,-56.811,-0.642028,0
56.3355,-56.7013,-0.659357,0
56.4992,-56.5877,-0.676486,0
56.6604,-56.4702,-0.6934,0
56.8189,-56.3488,-0.710085,0
56.9747,-56.2238,-0.72654,0
57.1276,-56.095,-0.742746,0
57.2775,-55.9626,-0.758703,0
57.4245,-55.8266,-0.774401,0
57.5158,-55.6378,-0.796305,0
57.6,-55.4465,-0.817868,0
57.6783,-55.2539,-0.838942,0
57.7507,-55.0605,-0.859499,0
57.8173,-54.8663,-0.879543,0
57.8783,-54.6717,-0.899059,0
57.9336,-54.4768,-0.918029,0
57.9833,-54.2818,-0.936481,0
58.0277,-54.0869,-0.954372,0
58.0666,-53.8924,-0.97172,0
58.1002,-53.6984,-0.988512,0
58.1287,-53.5051,-1.00475,0
58.1609,-53.3172,-1.01974,0
58.2213,-53.1463,-1.03161,0
58.2774,-52.9744,-1.04309,0
58.3291,-52.8017,-1.05416,0
58.3762,-52.6281,-1.06483,0
58.4201,-52.4544,-1.07501,0
58.4729,-52.285,-1.08387,0
58.5221,-52.1147,-1.09232,0
58.5676,-51.9436,-1.10034,0
58.6093,-51.7717,-1.10795,0
58.6473,-51.5993,-1.11512,0
58.6817,-51.4263,-1.12189,0
58.7124,-51.2528,-1.12822,0
58.7394,-51.0788,-1.13412,0
58.7627,-50.9045,-1.1396,0
58.7794,-50.7296,-1.14481,0
46.9668,-55.215,0.0264143,0
47.0768,-55.3378,0.021507,0
47.1895,-55.4594,0.0164875,0
47.3051,-55.5799,0.0113605,0
47.4234,-55.6991,0.00611641,0
47.5445,-55.8171,0.000759964,0
47.6706,-55.9295,-0.00574394,0
47.8025,-56.0345,-0.0138299,0
47.9369,-56.1376,-0.0220379,0
48.0738,-56.2388,-0.0303484,0
48.2132,-56.338,-0.0387859,0
48.3551,-56.4353,-0.0473406,0
48.4995,-56.5305,-0.0560076,0
48.6463,-56.6236,-0.064782,0
48.7956,-56.7147,-0.0736687,0
48.9475,-56.8035,-0.0826824,0
49.1009,-56.8934,-0.0911053,0
49.2537,-56.9939,-0.0970721,0
49.4098,-57.0925,-0.103176,0
49.569,-57.1891,-0.109411,0
49.7314,-57.2836,-0.115788,0
49.897,-57.376,-0.122302,0
50.0659,-57.4661,-0.128967,0
50.2422,-57.5157,-0.142751,0
50.4215,-57.5451,-0.159665,0
50.6017,-57.5706,-0.176677,0
50.7825,-57.5922,-0.193766,0
50.9636,-57.6345,-0.206686,0
51.1463,-57.6782,-0.218869,0
51.3309,-57.7178,-0.231296,0
51.5173,-57.7529,-0.243957,0
51.7053,-57.7837,-0.256857,0
51.8948,-57.8099,-0.269972,0
52.0857,-57.8316,-0.283312,0
52.278,-57.8486,-0.296862,0
52.4714,-57.8608,-0.310617,0
52.6661,-57.87,-0.324304,0
52.8624,-57.8769,-0.337795,0
53.0584,-57.8734,-0.352297,0
53.2515,-57.8512,-0.368986,0
53.4445,-57.8244,-0.38572,0
53.6373,-57.7931,-0.402477,0
53.8297,-57.7572,-0.41925,0
54.0218,-57.7168,-0.436037,0
54.2134,-57.6717,-0.452824,0
54.4043,-57.6221,-0.469592,0
54.5945,-57.5678,-0.486345,0
54.7839,-57.5088,-0.503078,0
54.9723,-57.4453,-0.519762,0
55.1558,-57.37,-0.53737,0
55.3344,-57.2842,-0.5557,0
55.5111,-57.1942,-0.573869,0
55.6859,-57.1,-0.591896,0
55.8586,-57.0017,-0.609748,0
56.0291,-56.8994,-0.627433,0
56.1972,-56.793,-0.644929,0
56.363,-56.6826,-0.662228,0
56.5262,-56.5684,-0.679313,0
56.687,-56.4502,-0.696193,0
56.8451,-56.3283,-0.712839,0
57.0003,-56.2026,-0.729255,0
57.1527,-56.0732,-0.745427,0
57.3022,-55.9402,-0.761344,0
57.441,-55.7962,-0.777966,0
57.5302,-55.606,-0.799933,0
57.6134,-55.4145,-0.821413,0
57.6907,-55.2218,-0.842399,0
57.7622,-55.0282,-0.862873,0
57.8279,-54.8339,-0.882829,0
57.8879,-54.6392,-0.902258,0
57.9423,-54.4443,-0.921144,0
57.9911,-54.2493,-0.939494,0
58.0345,-54.0545,-0.957306,0
58.0725,-53.8601,-0.974557,0
58.1053,-53.6662,-0.991257,0
58.1329,-53.473,-1.0074,0
58.1712,-53.2888,-1.02174,0
58.231,-53.1178,-1.03355,0
58.2863,-52.9457,-1.04496,0
58.3372,-52.7728,-1.05597,0
58.3837,-52.5992,-1.06657,0
58.4291,-52.4262,-1.07652,0
58.4814,-52.2566,-1.08531,0
58.5298,-52.0862,-1.09368,0
58.5747,-51.915,-1.10164,0
58.6159,-51.743,-1.10918,0
58.6534,-51.5705,-1.11628,0
58.6871,-51.3974,-1.12297,0
58.7171,-51.2238,-1.12923,0
58.7435,-51.0498,-1.13506,0
58.7661,-50.8755,-1.14048,0
58.7817,-50.7004,-1.14564,0
46.9849,-55.2355,0.0256086,0
47.0954,-55.3581,0.020677,0
47.2087,-55.4796,0.0156379,0
47.3246,-55.5998,0.0104963,0
47.4434,-55.7189,0.00523262,0
47.5654,-55.8356,-0.000382614,0
47.6923,-55.9471,-0.00707695,0
47.8248,-56.0518,-0.0151873,0
47.9596,-56.1546,-0.02341,0
48.0969,-56.2554,-0.0317547,0
48.2366,-56.3544,-0.0402068,0
48.3789,-56.4513,-0.0487713,0
48.5238,-56.5462,-0.0574578,0
48.671,-56.639,-0.0662518,0
48.8208,-56.7296,-0.0751678,0
48.973,-56.8181,-0.0841961,0
49.1262,-56.9103,-0.0920965,0
49.2795,-57.0105,-0.0980828,0
49.4361,-57.1087,-0.104206,0
49.5959,-57.205,-0.110466,0
49.7587,-57.2991,-0.116862,0
49.9249,-57.3911,-0.12341,0
50.0944,-57.4809,-0.130085,0
50.272,-57.5209,-0.145558,0
50.4515,-57.5496,-0.162502,0
50.6318,-57.5745,-0.179523,0
50.8127,-57.5954,-0.196618,0
50.9939,-57.6421,-0.208698,0
51.177,-57.6851,-0.220925,0
51.362,-57.7239,-0.233395,0
51.5485,-57.7583,-0.246095,0
51.7368,-57.7884,-0.25903,0
51.9266,-57.8139,-0.272184,0
52.1177,-57.8347,-0.285563,0
52.3101,-57.851,-0.299138,0
52.5037,-57.8624,-0.312931,0
52.6987,-57.8715,-0.32654,0
52.8952,-57.8776,-0.340055,0
53.0906,-57.87,-0.355075,0
53.2836,-57.847,-0.371774,0
53.4766,-57.8195,-0.388508,0
53.6693,-57.7874,-0.405275,0
53.8618,-57.7508,-0.422053,0
54.0538,-57.7096,-0.43883,0
54.2452,-57.6638,-0.455612,0
54.4361,-57.6133,-0.472389,0
54.6262,-57.5583,-0.489138,0
54.8154,-57.4986,-0.505861,0
55.0036,-57.4343,-0.522541,0
55.1856,-57.356,-0.540431,0
55.364,-57.2695,-0.558732,0
55.5404,-57.1787,-0.576891,0
55.7148,-57.0839,-0.594885,0
55.8871,-56.9849,-0.612712,0
56.0572,-56.8819,-0.630363,0
56.225,-56.7749,-0.647824,0
56.3903,-56.6639,-0.66509,0
56.5532,-56.5489,-0.682145,0
56.7135,-56.4302,-0.698981,0
56.8711,-56.3076,-0.715593,0
57.0259,-56.1812,-0.73197,0
57.1778,-56.0513,-0.748097,0
57.3268,-55.9176,-0.763971,0
57.4563,-55.7646,-0.781662,0
57.5445,-55.5742,-0.803547,0
57.6266,-55.3824,-0.824943,0
57.703,-55.1896,-0.845846,0
57.7735,-54.9958,-0.866237,0
57.8383,-54.8015,-0.886105,0
57.8973,-54.6067,-0.905446,0
57.9508,-54.4118,-0.924245,0
57.9987,-54.2168,-0.942502,0
58.0412,-54.0221,-0.960212,0
58.0783,-53.8277,-0.97738,0
58.1102,-53.6339,-0.993981,0
58.137,-53.4409,-1.01005,0
58.1815,-53.2604,-1.02374,0
58.2405,-53.0891,-1.03548,0
58.2952,-52.9169,-1.04683,0
58.3453,-52.7439,-1.05777,0
58.391,-52.5702,-1.06829,0
58.4381,-52.398,-1.07801,0
58.4897,-52.2283,-1.08674,0
58.5376,-52.0577,-1.09504,0
58.5819,-51.8864,-1.10293,0
58.6223,-51.7143,-1.11038,0
58.6592,-51.5417,-1.11742,0
58.6923,-51.3685,-1.12404,0
58.7218,-51.1948,-1.13023,0
58.7475,-51.0208,-1.13599,0
58.7689,-50.8463,-1.14137,0
47.0957,-55.0037,0.0217854,0
47.2022,-55.1216,0.0170393,0
47.3112,-55.2383,0.0121857,0
47.423,-55.3539,0.00722969,0
47.5373,-55.4681,0.00216133,0
47.6549,-55.5803,-0.00322929,0
47.782,-55.6786,-0.0119793,0
47.9048,-55.7873,-0.0176775,0
48.033,-55.8891,-0.0248455,0
48.1651,-55.986,-0.0328631,0
48.2995,-56.0811,-0.040993,0
48.4364,-56.1742,-0.0492303,0
48.5755,-56.2652,-0.0575799,0
48.7172,-56.3542,-0.066032,0
48.8611,-56.4411,-0.0745916,0
49.0074,-56.5258,-0.0832635,0
49.156,-56.6083,-0.0920379,0
49.3062,-56.6921,-0.100182,0
49.4562,-56.7851,-0.106056,0
49.6091,-56.8761,-0.112057,0
49.7651,-56.9651,-0.11818,0
49.9241,-57.0518,-0.124445,0
50.0861,-57.1364,-0.130842,0
50.2556,-57.1781,-0.14509,0
50.4273,-57.2065,-0.161291,0
50.5998,-57.2312,-0.177575,0
50.7729,-57.2522,-0.193932,0
50.9467,-57.2694,-0.210363,0
51.1209,-57.2827,-0.226852,0
51.2963,-57.318,-0.238888,0
51.4734,-57.3503,-0.250949,0
51.6518,-57.3785,-0.263215,0
51.8316,-57.4023,-0.27569,0
52.0127,-57.4218,-0.288371,0
52.1951,-57.4369,-0.301252,0
52.3784,-57.4475,-0.314313,0
52.5627,-57.4535,-0.327565,0
52.7484,-57.4583,-0.340451,0
52.9352,-57.459,-0.353425,0
53.1227,-57.4549,-0.366574,0
53.3108,-57.4461,-0.37988,0
53.498,-57.4278,-0.39405,0
53.6815,-57.3933,-0.410051,0
53.8646,-57.3545,-0.426056,0
54.0473,-57.3113,-0.442057,0
54.2292,-57.2638,-0.458049,0
54.4105,-57.2118,-0.474015,0
54.5909,-57.1554,-0.489948,0
54.7705,-57.0947,-0.505856,0
54.9488,-57.0296,-0.521706,0
55.1235,-56.9555,-0.538141,0
55.2926,-56.8699,-0.555519,0
55.4596,-56.7804,-0.572751,0
55.6248,-56.6869,-0.589821,0
55.7878,-56.5896,-0.60673,0
55.9487,-56.4884,-0.623459,0
56.1073,-56.3834,-0.640002,0
56.2635,-56.2746,-0.656349,0
56.4173,-56.1622,-0.672487,0
56.5685,-56.0461,-0.68841,0
56.7171,-55.9264,-0.704108,0
56.8559,-55.7957,-0.720641,0
56.9544,-55.6237,-0.742258,0
57.0473,-55.4496,-0.763473,0
57.1347,-55.2739,-0.784264,0
57.2166,-55.0967,-0.804631,0
57.2931,-54.9183,-0.824543,0
57.3642,-54.7388,-0.843996,0
57.43,-54.5585,-0.862985,0
57.4905,-54.3775,-0.881491,0
57.5455,-54.1962,-0.899523,0
57.5956,-54.0146,-0.917053,0
57.6405,-53.833,-0.934089,0
57.6805,-53.6515,-0.950627,0
57.7153,-53.4704,-0.966657,0
57.7584,-53.2968,-0.981008,0
57.8211,-53.1359,-0.992746,0
57.8825,-52.9752,-1.00388,0
57.9476,-52.8171,-1.01399,0
58.0091,-52.6578,-1.02371,0
58.0671,-52.4975,-1.03304,0
58.1217,-52.3362,-1.04197,0
58.1727,-52.1739,-1.05051,0
58.2202,-52.0108,-1.05864,0
58.2641,-51.8469,-1.06637,0
58.3045,-51.6823,-1.0737,0
58.3413,-51.5171,-1.08063,0
58.3747,-51.3513,-1.08715,0
58.4044,-51.185,-1.09325,0
58.4306,-51.0183,-1.09896,0
58.4527,-50.8512,-1.10427,0
58.4688,-50.6834,-1.10934,0
47.1133,-55.0234,0.0209992,0
47.2202,-55.1411,0.0162336,0
47.3297,-55.2577,0.0113654,0
47.4418,-55.373,0.00638496,0
47.5566,-55.4871,0.00131172,0
47.6759,-55.5968,-0.00467461,0
47.8025,-55.6963,-0.013034,0
47.9255,-55.8054,-0.018615,0
48.0548,-55.9054,-0.0261687,0
48.1873,-56.002,-0.0342107,0
48.3222,-56.0967,-0.0423602,0
48.4594,-56.1895,-0.050617,0
48.599,-56.2802,-0.0589812,0
48.741,-56.3689,-0.0674529,0
48.8853,-56.4554,-0.0760271,0
49.032,-56.5397,-0.0847185,0
49.1811,-56.6219,-0.0935076,0
49.3309,-56.7077,-0.101154,0
49.4815,-56.8004,-0.107043,0
49.6349,-56.8911,-0.113068,0
49.7914,-56.9797,-0.119216,0
49.9509,-57.0661,-0.125505,0
50.1134,-57.1503,-0.131916,0
50.2842,-57.1831,-0.147785,0
50.456,-57.2109,-0.163996,0
50.6286,-57.235,-0.18029,0
50.8019,-57.2553,-0.196667,0
50.9756,-57.2719,-0.213102,0
51.1501,-57.2879,-0.22902,0
51.3257,-57.3237,-0.24089,0
51.503,-57.3553,-0.252975,0
51.6816,-57.3827,-0.265275,0
51.8617,-57.4059,-0.27779,0
52.043,-57.4247,-0.2905,0
52.2255,-57.439,-0.303415,0
52.409,-57.4488,-0.316511,0
52.5934,-57.4542,-0.329777,0
52.7795,-57.4588,-0.342599,0
52.9664,-57.4587,-0.355602,0
53.154,-57.4538,-0.368776,0
53.3422,-57.4441,-0.382116,0
53.5286,-57.4223,-0.396716,0
53.712,-57.3872,-0.412712,0
53.8951,-57.3476,-0.428722,0
54.0777,-57.3037,-0.444723,0
54.2595,-57.2554,-0.460705,0
54.4406,-57.2027,-0.476672,0
54.6209,-57.1456,-0.492604,0
54.8002,-57.0841,-0.508498,0
54.9784,-57.0183,-0.524338,0
55.1518,-56.9415,-0.541042,0
55.3205,-56.8553,-0.5584,0
55.4873,-56.7651,-0.575607,0
55.6521,-56.671,-0.592653,0
55.8148,-56.573,-0.609533,0
55.9752,-56.4711,-0.626227,0
56.1334,-56.3655,-0.642736,0
56.2893,-56.2561,-0.659054,0
56.4427,-56.1431,-0.675158,0
56.5934,-56.0264,-0.691052,0
56.7416,-55.9062,-0.706706,0
56.8727,-55.7672,-0.72426,0
56.9702,-55.5948,-0.745822,0
57.0623,-55.4205,-0.766965,0
57.1488,-55.2445,-0.787687,0
57.2298,-55.0671,-0.807975,0
57.3053,-54.8884,-0.827814,0
57.3755,-54.7088,-0.847189,0
57.4404,-54.5284,-0.8661,0
57.4999,-54.3474,-0.884528,0
57.5543,-54.166,-0.902472,0
57.6034,-53.9844,-0.919924,0
57.6475,-53.8028,-0.936882,0
57.6866,-53.6213,-0.953337,0
57.7207,-53.4402,-0.969279,0
57.7691,-53.2701,-0.98299,0
57.8312,-53.109,-0.994665,0
57.8936,-52.949,-1.00559,0
57.958,-52.7906,-1.01564,0
58.0191,-52.6312,-1.0253,0
58.0765,-52.4707,-1.03456,0
58.1305,-52.3092,-1.04342,0
58.1809,-52.1468,-1.05189,0
58.2277,-51.9835,-1.05996,0
58.2711,-51.8195,-1.06762,0
58.3109,-51.6548,-1.07489,0
58.3472,-51.4895,-1.08174,0
58.3799,-51.3236,-1.08819,0
58.4091,-51.1573,-1.09423,0
58.4346,-50.9905,-1.09986,0
58.4555,-50.8232,-1.10515,0
58.4711,-50.6555,-1.11015,0
47.1309,-55.0431,0.020218,0
47.2382,-55.1606,0.0154279,0
47.3482,-55.277,0.0105402,0
47.4609,-55.3921,0.00554512,0
47.5761,-55.5059,0.000447464,0
47.697,-55.6133,-0.0061248,0
47.8228,-55.7146,-0.0139568,0
47.9463,-55.8233,-0.0195574,0
48.0767,-55.9216,-0.0275066,0
48.2097,-56.0179,-0.0355584,0
48.3448,-56.1123,-0.0437273,0
48.4825,-56.2048,-0.0519988,0
48.6226,-56.2951,-0.0603826,0
48.7649,-56.3834,-0.0688787,0
48.9096,-56.4696,-0.0774725,0
49.0566,-56.5536,-0.0861785,0
49.2061,-56.6353,-0.0949871,0
49.3559,-56.7233,-0.102131,0
49.5069,-56.8157,-0.108034,0
49.6608,-56.906,-0.114079,0
49.8177,-56.9942,-0.120251,0
49.9777,-57.0803,-0.126554,0
50.1416,-57.1571,-0.134343,0
50.3128,-57.188,-0.150475,0
50.4848,-57.2152,-0.166706,0
50.6574,-57.2387,-0.183014,0
50.8308,-57.2583,-0.199401,0
51.0047,-57.2742,-0.215846,0
51.1792,-57.2942,-0.230978,0
51.3552,-57.3292,-0.242887,0
51.5326,-57.3602,-0.255012,0
51.7116,-57.3869,-0.267355,0
51.8919,-57.4093,-0.279899,0
52.0734,-57.4273,-0.292643,0
52.256,-57.4409,-0.305588,0
52.4397,-57.45,-0.318713,0
52.6245,-57.4553,-0.331891,0
52.8105,-57.4591,-0.344748,0
52.9977,-57.4582,-0.357785,0
53.1853,-57.4525,-0.370993,0
53.3736,-57.4421,-0.384352,0
53.5592,-57.4168,-0.399377,0
53.7427,-57.3809,-0.415378,0
53.9255,-57.3406,-0.431384,0
54.108,-57.296,-0.447385,0
54.2898,-57.2469,-0.463371,0
54.4707,-57.1935,-0.479328,0
54.6509,-57.1357,-0.495256,0
54.83,-57.0735,-0.511139,0
55.008,-57.0069,-0.526969,0
55.1801,-56.9274,-0.543952,0
55.3484,-56.8405,-0.561276,0
55.5149,-56.7497,-0.578464,0
55.6794,-56.6549,-0.59548,0
55.8416,-56.5563,-0.612331,0
56.0018,-56.4538,-0.629001,0
56.1596,-56.3475,-0.645475,0
56.315,-56.2375,-0.66175,0
56.4679,-56.1239,-0.677819,0
56.6184,-56.0066,-0.693674,0
56.7659,-55.8858,-0.709294,0
56.8893,-55.7386,-0.727883,0
56.9859,-55.5659,-0.749367,0
57.077,-55.3912,-0.770456,0
57.1626,-55.215,-0.7911,0
57.2427,-55.0374,-0.81131,0
57.3174,-54.8586,-0.831071,0
57.3868,-54.6788,-0.850378,0
57.4507,-54.4982,-0.869206,0
57.5094,-54.3171,-0.887555,0
57.5628,-54.1357,-0.905417,0
57.6112,-53.9541,-0.922785,0
57.6544,-53.7725,-0.93965,0
57.6926,-53.5911,-0.956027,0
57.7259,-53.4101,-0.971891,0
57.7798,-53.2433,-0.984963,0
57.8411,-53.082,-0.996584,0
57.9046,-52.9226,-1.00729,0
57.9684,-52.7641,-1.01728,0
58.0288,-52.6045,-1.02686,0
58.0858,-52.4438,-1.03606,0
58.1391,-52.2822,-1.04487,0
58.1889,-52.1196,-1.05326,0
58.2353,-51.9563,-1.06126,0
58.278,-51.7921,-1.06886,0
58.3173,-51.6273,-1.07605,0
58.3529,-51.4619,-1.08284,0
58.385,-51.2959,-1.08922,0
58.4135,-51.1295,-1.0952,0
58.4385,-50.9627,-1.10076,0
58.4584,-50.7953,-1.10601,0
47.2333,-54.8251,0.0166975,0
47.3368,-54.9383,0.0120832,0
47.4429,-55.0504,0.00736153,0
47.5515,-55.1612,0.00255196,0
47.6636,-55.2691,-0.00281425,0
47.7842,-55.3652,-0.0111297,0
47.907,-55.4593,-0.0195867,0
48.0288,-55.5577,-0.0265203,0
48.1501,-55.6601,-0.0320672,0
48.2741,-55.7608,-0.0377752,0
48.402,-55.8567,-0.044367,0
48.5344,-55.9456,-0.0523357,0
48.6692,-56.0325,-0.0604021,0
48.8062,-56.1174,-0.0685711,0
48.9455,-56.2002,-0.0768426,0
49.0869,-56.2808,-0.0852166,0
49.2307,-56.3593,-0.0936883,0
49.3766,-56.4355,-0.102262,0
49.5235,-56.5152,-0.10967,0
49.6712,-56.6009,-0.115475,0
49.8216,-56.6845,-0.121393,0
49.9748,-56.766,-0.127433,0
50.1316,-56.8413,-0.134382,0
50.2955,-56.8719,-0.149841,0
50.4602,-56.8989,-0.165387,0
50.6258,-56.9223,-0.181012,0
50.792,-56.942,-0.196716,0
50.9586,-56.9582,-0.212477,0
51.1259,-56.9707,-0.228303,0
51.2934,-56.9795,-0.244172,0
51.4616,-56.9894,-0.25923,0
51.6317,-57.0147,-0.270964,0
51.803,-57.0358,-0.282883,0
51.9755,-57.0528,-0.294992,0
52.149,-57.0656,-0.307292,0
52.3234,-57.0741,-0.319758,0
52.4986,-57.0783,-0.332399,0
52.6748,-57.0799,-0.344909,0
52.8523,-57.0788,-0.357267,0
53.0303,-57.0732,-0.369797,0
53.2087,-57.0631,-0.382468,0
53.3876,-57.0484,-0.395285,0
53.5667,-57.029,-0.408234,0
53.7459,-57.0049,-0.42131,0
53.9245,-56.9745,-0.434762,0
54.0982,-56.9282,-0.450036,0
54.2712,-56.8777,-0.465285,0
54.4434,-56.8231,-0.480505,0
54.6145,-56.7643,-0.495676,0
54.7847,-56.7013,-0.510807,0
54.9537,-56.6341,-0.525866,0
55.1191,-56.5588,-0.541467,0
55.2789,-56.4728,-0.557951,0
55.4368,-56.3832,-0.574279,0
55.5927,-56.2898,-0.590451,0
55.7465,-56.1927,-0.606452,0
55.8981,-56.0921,-0.622262,0
56.0475,-55.9878,-0.637897,0
56.1945,-55.88,-0.653332,0
56.322,-55.7486,-0.671564,0
56.427,-55.5933,-0.692668,0
56.527,-55.4357,-0.713434,0
56.6218,-55.2759,-0.733849,0
56.7116,-55.1142,-0.753903,0
56.7962,-54.9507,-0.773576,0
56.8759,-54.7858,-0.792848,0
56.9505,-54.6196,-0.811735,0
57.0201,-54.4523,-0.830187,0
57.0848,-54.2841,-0.848229,0
57.1444,-54.1151,-0.865827,0
57.1991,-53.9457,-0.88298,0
57.249,-53.7759,-0.899694,0
57.2941,-53.6059,-0.915949,0
57.3514,-53.4461,-0.929982,0
57.4141,-53.2913,-0.942619,0
57.4827,-53.141,-0.953893,0
57.5493,-52.9903,-0.96467,0
57.6155,-52.8399,-0.974777,0
57.6783,-52.6883,-0.984523,0
57.7377,-52.5356,-0.993893,0
57.7938,-52.3819,-1.00289,0
57.8466,-52.2271,-1.0115,0
57.8959,-52.0715,-1.01972,0
57.9418,-51.915,-1.02757,0
57.9843,-51.7578,-1.03504,0
58.0234,-51.5998,-1.04211,0
58.0591,-51.4412,-1.0488,0
58.0913,-51.2821,-1.05508,0
58.1202,-51.1225,-1.06098,0
58.1455,-50.9625,-1.06649,0
58.1662,-50.8019,-1.0717,0
58.182,-50.6408,-1.07661,0
47.2503,-54.8441,0.0159357,0
47.3543,-54.9571,0.011302,0
47.4608,-55.0689,0.00656563,0
47.5698,-55.1795,0.00173653,0
47.6836,-55.2852,-0.00419609,0
47.8045,-55.381,-0.0125311,0
47.9277,-55.4748,-0.0210125,0
48.0488,-55.5749,-0.0274334,0
48.1705,-55.677,-0.0330047,0
48.2949,-55.7774,-0.038742,0
48.4239,-55.8717,-0.0456902,0
48.5567,-55.9602,-0.0536736,0
48.6918,-56.0468,-0.0617547,0
48.8292,-56.1314,-0.069948,0
48.9688,-56.2138,-0.0782342,0
49.1107,-56.2941,-0.0866228,0
49.2548,-56.3721,-0.0951092,0
49.4012,-56.448,-0.103693,0
49.5479,-56.5296,-0.110632,0
49.696,-56.615,-0.116447,0
49.847,-56.6983,-0.122389,0
50.0007,-56.7793,-0.128459,0
50.1587,-56.8467,-0.13695,0
50.3229,-56.8766,-0.152424,0
50.4877,-56.903,-0.16799,0
50.6534,-56.9258,-0.18362,0
50.8197,-56.945,-0.199333,0
50.9864,-56.9605,-0.215114,0
51.1537,-56.9724,-0.230944,0
51.3214,-56.9806,-0.246828,0
51.4899,-56.9939,-0.261174,0
51.6602,-57.0185,-0.272931,0
51.8317,-57.0389,-0.284889,0
52.0043,-57.0553,-0.297033,0
52.178,-57.0673,-0.309357,0
52.3525,-57.0751,-0.321857,0
52.5278,-57.0786,-0.334518,0
52.7045,-57.08,-0.346955,0
52.8819,-57.0782,-0.359352,0
53.06,-57.0719,-0.371896,0
53.2385,-57.061,-0.384592,0
53.4174,-57.0455,-0.397429,0
53.5966,-57.0253,-0.410407,0
53.7758,-57.0005,-0.423503,0
53.9534,-56.967,-0.437311,0
54.1271,-56.9201,-0.45258,0
54.3,-56.8689,-0.467824,0
54.472,-56.8136,-0.483039,0
54.643,-56.7541,-0.498205,0
54.813,-56.6904,-0.513322,0
54.9817,-56.6225,-0.528376,0
55.1459,-56.5447,-0.544221,0
55.3054,-56.4582,-0.56068,0
55.463,-56.3679,-0.576989,0
55.6185,-56.2739,-0.593132,0
55.772,-56.1762,-0.609094,0
55.9233,-56.0749,-0.624889,0
56.0723,-55.9701,-0.640485,0
56.2188,-55.8617,-0.655886,0
56.3398,-55.7229,-0.675104,0
56.4439,-55.5672,-0.696149,0
56.543,-55.4092,-0.716862,0
56.6371,-55.2491,-0.737219,0
56.7261,-55.087,-0.757209,0
56.8099,-54.9234,-0.776808,0
56.8887,-54.7582,-0.796032,0
56.9624,-54.5918,-0.814836,0
57.0312,-54.4243,-0.83322,0
57.095,-54.256,-0.851188,0
57.1538,-54.0869,-0.868718,0
57.2078,-53.9174,-0.885798,0
57.257,-53.7475,-0.902438,0
57.3018,-53.5779,-0.918552,0
57.361,-53.4197,-0.932233,0
57.4258,-53.2663,-0.944518,0
57.4938,-53.1159,-0.955739,0
57.5605,-52.9654,-0.966369,0
57.6262,-52.8147,-0.976427,0
57.6884,-52.663,-0.986115,0
57.7473,-52.5101,-0.995417,0
57.8028,-52.3562,-1.00434,0
57.855,-52.2012,-1.0129,0
57.9037,-52.0455,-1.02106,0
57.9491,-51.8889,-1.02884,0
57.991,-51.7315,-1.03624,0
58.0295,-51.5734,-1.04325,0
58.0647,-51.4148,-1.04987,0
58.0964,-51.2556,-1.05609,0
58.1247,-51.0959,-1.06193,0
58.1495,-50.9358,-1.06737,0
58.1691,-50.775,-1.07254,0
58.1844,-50.614,-1.07739,0
47.2675,-54.863,0.0151691,0
47.3719,-54.9758,0.0105207,0
47.4787,-55.0874,0.00576485,0
47.5882,-55.1978,0.000921097,0
47.7035,-55.3013,-0.00557304,0
47.8249,-55.3968,-0.0139324,0
47.9485,-55.4902,-0.0224334,0
48.0689,-55.592,-0.0283514,0
48.1911,-55.6939,-0.0339519,0
48.316,-55.7939,-0.0397088,0
48.4458,-55.8865,-0.0470184,0
48.5791,-55.9748,-0.0550115,0
48.7146,-56.0611,-0.0631121,0
48.8523,-56.1453,-0.0713103,0
48.9923,-56.2273,-0.0796258,0
49.1346,-56.3072,-0.0880242,0
49.2791,-56.3849,-0.096535,0
49.4258,-56.4604,-0.105138,0
49.5724,-56.544,-0.111594,0
49.721,-56.629,-0.117429,0
49.8724,-56.7119,-0.12339,0
50.0266,-56.7926,-0.129474,0
50.186,-56.8519,-0.139523,0
50.3503,-56.8813,-0.155012,0
50.5154,-56.9071,-0.170588,0
50.6811,-56.9293,-0.186242,0
50.8474,-56.9478,-0.201955,0
51.0143,-56.9628,-0.217741,0
51.1816,-56.974,-0.233591,0
51.3494,-56.9816,-0.249479,0
51.5182,-56.9983,-0.263117,0
51.6887,-57.0222,-0.274914,0
51.8604,-57.042,-0.286896,0
52.0332,-57.0576,-0.299074,0
52.207,-57.0689,-0.311423,0
52.3816,-57.076,-0.323957,0
52.5572,-57.0788,-0.336642,0
52.7339,-57.08,-0.349006,0
52.9116,-57.0775,-0.361428,0
53.0897,-57.0704,-0.374006,0
53.2683,-57.0587,-0.386721,0
53.4473,-57.0425,-0.399587,0
53.6265,-57.0215,-0.41258,0
53.8057,-56.9959,-0.4257,0
53.9824,-56.9595,-0.439855,0
54.1559,-56.9118,-0.455119,0
54.3287,-56.86,-0.470358,0
54.5005,-56.804,-0.485563,0
54.6713,-56.7437,-0.500724,0
54.8412,-56.6793,-0.515832,0
55.0098,-56.6108,-0.530871,0
55.1725,-56.5306,-0.54697,0
55.3318,-56.4434,-0.56341,0
55.4891,-56.3525,-0.579689,0
55.6442,-56.2579,-0.595798,0
55.7973,-56.1596,-0.61174,0
55.9482,-56.0577,-0.627497,0
56.0968,-55.9523,-0.643063,0
56.243,-55.8433,-0.65843,0
56.3574,-55.6971,-0.67863,0
56.4609,-55.541,-0.699626,0
56.5591,-55.3826,-0.72028,0
56.6523,-55.2222,-0.740573,0
56.7404,-55.0599,-0.760505,0
56.8234,-54.8959,-0.780041,0
56.9013,-54.7306,-0.799191,0
56.9743,-54.564,-0.817922,0
57.0422,-54.3963,-0.836247,0
57.1052,-54.2279,-0.854137,0
57.1631,-54.0587,-0.871594,0
57.2163,-53.8891,-0.8886,0
57.2646,-53.7192,-0.905158,0
57.3119,-53.5515,-0.920861,0
57.3705,-53.3933,-0.934465,0
57.4373,-53.2413,-0.946423,0
57.5049,-53.0907,-0.957565,0
57.5718,-52.9403,-0.968078,0
57.6368,-52.7895,-0.978068,0
57.6984,-52.6376,-0.987687,0
57.7568,-52.4845,-0.99693,0
57.8118,-52.3304,-1.0058,0
57.8634,-52.1753,-1.01429,0
57.9116,-52.0194,-1.02239,0
57.9563,-51.8627,-1.0301,0
57.9977,-51.7052,-1.03744,0
58.0356,-51.547,-1.04438,0
58.0702,-51.3883,-1.05094,0
58.1013,-51.229,-1.0571,0
58.1291,-51.0692,-1.06286,0
58.1534,-50.9091,-1.06823,0
58.1719,-50.7482,-1.07338,0
47.3623,-54.6576,0.0119172,0
47.4631,-54.7665,0.00743477,0
47.5662,-54.8741,0.00284981,0
47.6734,-54.9781,-0.0025457,0
47.788,-55.0723,-0.0104559,0
47.9048,-55.1646,-0.0185027,0
48.0237,-55.2549,-0.0266863,0
48.1441,-55.3441,-0.034743,0
48.2616,-55.4417,-0.0401287,0
48.3816,-55.5377,-0.0456707,0
