20.5113,4.45856,0.0765949,0
19.5789,4.64661,0.0258137,0
18.9116,4.87541,-0.0113055,0
14.152,3.71978,-0.234488,174
13.8929,3.93439,-0.249633,174
13.9513,4.26227,-0.249758,174
13.5592,4.41409,-0.26968,174
13.1648,4.54972,-0.289098,0
12.7108,4.64214,-0.310524,0
12.3233,4.74827,-0.328386,0
11.9506,4.84659,-0.345085,0
11.6205,4.95351,-0.359362,0
11.2993,5.05303,-0.3728,0
10.9867,5.14556,-0.385427,0
10.6823,5.23146,-0.397272,0
10.4678,5.36666,-0.404665,0
10.2917,5.52341,-0.409889,0
10.0666,5.64057,-0.41696,0
9.81726,5.73241,-0.424802,0
9.57259,5.8198,-0.432096,0
9.33237,5.90295,-0.438874,0
9.10137,5.98648,-0.444909,0
8.87813,6.07004,-0.45027,0
8.65775,6.14963,-0.455202,0
8.4401,6.22541,-0.459733,0
8.21377,6.28527,-0.46446,0
7.99974,6.35145,-0.468307,0
7.79579,6.42301,-0.471354,0
7.59382,6.4914,-0.47405,0
7.39373,6.55675,-0.476403,0
7.19545,6.61911,-0.478415,0
7.85567,-12.7237,0.705638,0
8.19008,-12.6914,0.703314,0
8.53631,-12.6705,0.703011,0
8.88738,-12.6451,0.702864,0
9.24347,-12.615,0.702874,0
9.59443,-12.5633,0.700999,0
9.94611,-12.5009,0.698597,0
10.302,-12.4337,0.696361,0
10.6633,-12.3628,0.694476,0
11.0329,-12.2918,0.693392,0
11.4078,-12.2155,0.692513,0
11.7882,-12.1336,0.691849,0
12.1742,-12.046,0.69139,0
12.5606,-11.9462,0.690364,0
12.9421,-11.829,0.688118,0
13.3497,-11.727,0.688851,0
13.7741,-11.628,0.691087,0
14.2071,-11.5224,0.693665,0
14.6491,-11.4099,0.696585,0
15.0983,-11.2882,0.699603,0
15.5549,-11.1569,0.702747,0
16.0155,-11.0132,0.705638,0
16.4795,-10.8562,0.708226,0
16.9533,-10.6905,0.711214,0
17.4375,-10.5158,0.714612,0
17.9327,-10.3314,0.718441,0
18.3319,-10.072,0.712796,0
18.7181,-9.79418,0.705931,0
19.1078,-9.50798,0.699388,0
19.5009,-9.2131,0.693177,0
19.8978,-8.90912,0.687308,0
20.1727,-8.5379,0.671614,0
20.4318,-8.15519,0.655228,0
20.6773,-7.7627,0.638392,0
20.9167,-7.36407,0.621732,0
21.1517,-6.95984,0.605374,0
21.3823,-6.55,0.589339,0
21.6726,-6.15389,0.578118,0
21.9945,-5.75876,0.569456,0
22.3165,-5.35395,0.561146,0
22.6384,-4.93922,0.553167,0
22.9609,-4.51426,0.545589,0
23.2905,-4.07985,0.538812,0
23.4457,-3.60663,0.521693,0
23.3777,-3.09985,0.491946,0
23.2068,-2.58793,0.457415,0
23.027,-2.08566,0.423851,0
22.85,-1.59376,0.391859,0
22.898,-1.12074,0.373773,0
23.0059,-0.647578,0.359886,0
23.1209,-0.169844,0.347142,0
23.224,0.31292,0.334486,0
23.315,0.800381,0.321976,0
23.4324,1.29508,0.311585,0
23.5034,1.7923,0.299593,0
23.487,2.28457,0.284027,0
23.4523,2.77619,0.268489,0
23.3996,3.26641,0.252972,0
23.3287,3.7545,0.237542,0
22.4187,4.06458,0.18304,0
21.5823,4.35328,0.133773,0
20.3147,4.49385,0.0659016,0
19.4081,4.68109,0.0165949,0
14.4991,3.58345,-0.21543,174
14.0976,3.76054,-0.237665,174
13.8472,3.97656,-0.252283,174
13.7288,4.23588,-0.260298,174
13.5326,4.46212,-0.271243,174
13.0339,4.55002,-0.295212,0
12.6347,4.66335,-0.314069,0
12.25,4.76783,-0.331716,0
11.886,4.86788,-0.347927,0
11.5577,4.97331,-0.362028,0
11.2382,5.07146,-0.3753,0
10.9272,5.16268,-0.38777,0
10.6243,5.24736,-0.399489,0
10.4338,5.39726,-0.4057,0
10.2576,5.55333,-0.410846,0
10.018,5.65868,-0.418512,0
9.76957,5.74967,-0.426247,0
9.52577,5.83623,-0.433454,0
9.2864,5.91854,-0.440114,0
9.05795,6.00296,-0.445964,0
8.83527,6.08575,-0.451266,0
8.61543,6.16459,-0.45611,0
8.39746,6.23879,-0.460612,0
8.17007,6.29609,-0.465348,0
7.96012,6.36555,-0.468923,0
7.75656,6.43649,-0.471911,0
7.55495,6.50429,-0.474528,0
7.35523,6.56905,-0.476823,0
7.91971,-12.717,0.705071,0
8.25671,-12.6877,0.703245,0
8.60385,-12.6659,0.702982,0
8.95587,-12.6396,0.702864,0
9.31298,-12.6087,0.702904,0
9.66214,-12.5516,0.700521,0
10.0146,-12.4883,0.698148,0
10.3714,-12.4201,0.69595,0
10.7344,-12.3495,0.694251,0
11.1051,-12.2775,0.693206,0
11.481,-12.2001,0.692366,0
11.8624,-12.1171,0.691741,0
12.2496,-12.0284,0.691331,0
12.634,-11.924,0.689905,0
13.0165,-11.8056,0.687718,0
13.4311,-11.7084,0.689261,0
13.8572,-11.6081,0.691556,0
14.2919,-11.5012,0.694202,0
14.7357,-11.3873,0.697191,0
15.186,-11.2634,0.700189,0
15.6443,-11.1306,0.703402,0
16.1045,-10.9834,0.706116,0
16.5704,-10.8248,0.708773,0
17.0462,-10.6574,0.711849,0
17.5325,-10.4808,0.715316,0
18.0226,-10.2902,0.718568,0
18.4064,-10.0189,0.711439,0
18.7933,-9.73946,0.704632,0
19.1836,-9.4516,0.698157,0
19.5773,-9.155,0.692015,0
19.9606,-8.84232,0.685032,0
20.2231,-8.46428,0.668411,0
20.4809,-8.08024,0.652044,0
20.7239,-7.68601,0.63514,0
20.9626,-7.28629,0.618548,0
21.1966,-6.88103,0.602259,0
21.4263,-6.47005,0.586273,0
21.7349,-6.0782,0.576429,0
22.0569,-5.68119,0.567825,0
22.3787,-5.27452,0.559593,0
22.7007,-4.85783,0.551683,0
23.0246,-4.43106,0.544261,0
23.3544,-3.99452,0.537542,0
23.4596,-3.5122,0.517493,0
23.3454,-3.00008,0.485189,0
23.1727,-2.48999,0.450843,0
22.9912,-1.98957,0.417464,0
22.8312,-1.50066,0.386702,0
22.9157,-1.02943,0.370862,0
23.0291,-0.555527,0.357405,0
23.1418,-0.0768066,0.344681,0
23.2426,0.406904,0.332054,0
23.3312,0.895186,0.319573,0
23.4589,1.3919,0.309857,0
23.5016,1.88758,0.296566,0
23.4816,2.37978,0.281009,0
23.4435,2.87118,0.265482,0
23.3873,3.36101,0.249984,0
23.294,3.84498,0.233655,0
22.2542,4.1226,0.173255,0
21.4244,4.40604,0.124603,0
20.1345,4.53186,0.0560383,0
19.2409,4.71515,0.00761055,0
14.3377,3.59248,-0.223642,174
14.0436,3.80104,-0.240799,174
13.8224,4.0261,-0.253967,174
13.6879,4.27888,-0.262594,174
13.5344,4.52208,-0.271502,174
12.9555,4.57267,-0.298952,0
12.5592,4.68424,-0.317575,0
12.1771,4.78707,-0.335007,0
11.8218,4.88887,-0.35072,0
11.4952,4.99288,-0.364675,0
11.1774,5.08963,-0.37777,0
10.868,5.17955,-0.390095,0
10.5755,5.26886,-0.401266,0
10.3997,5.42771,-0.406725,0
10.2218,5.58197,-0.411872,0
9.96954,5.67664,-0.420046,0
9.72205,5.76675,-0.427682,0
9.47911,5.85247,-0.434772,0
9.24057,5.93402,-0.441364,0
9.01464,6.01931,-0.447038,0
8.79252,6.10129,-0.452223,0
8.57322,6.1794,-0.457009,0
8.35316,6.25013,-0.46155,0
8.12652,6.30678,-0.466198,0
7.92058,6.37953,-0.469538,0
7.7174,6.44984,-0.472448,0
7.51617,6.51705,-0.475007,0
7.31679,6.58123,-0.477223,0
7.53395,-12.1502,0.731458,0
7.84831,-12.112,0.728939,0
8.16701,-12.0721,0.726888,0
8.4972,-12.043,0.726946,0
8.83169,-12.0094,0.727161,0
9.17059,-11.9711,0.727552,0
9.51407,-11.9279,0.728099,0
9.86229,-11.8798,0.728821,0
10.2108,-11.8198,0.728861,0
10.5544,-11.7417,0.727386,0
10.9061,-11.6636,0.72678,0
11.2627,-11.5806,0.726478,0
11.6242,-11.492,0.72638,0
11.9907,-11.3977,0.726517,0
12.3615,-11.2966,0.726771,0
12.7369,-11.1884,0.727142,0
13.1216,-11.0778,0.728323,0
13.5304,-10.9775,0.732171,0
13.9364,-10.8607,0.734964,0
14.3498,-10.7367,0.738089,0
14.7709,-10.6054,0.741585,0
15.2001,-10.4662,0.745433,0
15.6378,-10.319,0.749652,0
16.0842,-10.1633,0.75428,0
16.5398,-9.99879,0.75932,0
17.0051,-9.82492,0.764808,0
17.4707,-9.63538,0.769769,0
17.944,-9.43457,0.774984,0
18.3231,-9.1658,0.770657,0
18.6911,-8.88079,0.765306,0
18.9423,-8.52846,0.749427,0
19.1894,-8.17064,0.733792,0
19.4322,-7.8074,0.71845,0
19.6707,-7.43855,0.703353,0
19.9048,-7.06414,0.688558,0
20.1298,-6.68239,0.673646,0
20.3519,-6.29559,0.659154,0
20.6082,-5.91512,0.647982,0
20.8802,-5.53273,0.638529,0
21.1477,-5.14174,0.629222,0
21.4107,-4.74215,0.620081,0
21.669,-4.33379,0.611087,0
21.9019,-3.91287,0.600833,0
21.7962,-3.43031,0.567894,0
21.6818,-2.95493,0.535794,0
21.6116,-2.49288,0.50803,0
21.5654,-2.03865,0.48307,0
21.5111,-1.58786,0.458734,0
21.5597,-1.14571,0.442044,0
21.6398,-0.702969,0.428187,0
21.7118,-0.257031,0.414671,0
21.7027,0.190312,0.397093,0
21.6777,0.636963,0.379525,0
21.6509,1.0833,0.362806,0
21.6509,1.53228,0.348607,0
21.6405,1.98187,0.334739,0
21.152,2.36732,0.294603,0
20.2116,2.6597,0.230579,0
19.2399,2.9053,0.166702,0
15.4853,2.52682,-0.0487664,0
15.2481,2.79146,-0.0677801,0
14.9592,3.03477,-0.0888055,0
14.4753,3.21268,-0.119518,0
14.0131,3.37729,-0.14818,0
13.6256,3.54772,-0.171999,0
13.328,3.73502,-0.190329,0
12.8214,3.83154,-0.219069,0
12.4574,3.96487,-0.239577,0
12.105,4.08895,-0.258874,0
11.7636,4.20435,-0.277038,0
11.4327,4.31161,-0.294147,0
11.1388,4.42526,-0.308815,0
10.8518,4.53191,-0.322673,0
10.5783,4.6358,-0.335378,0
10.4145,4.79688,-0.341823,0
10.2499,4.95449,-0.347868,0
10.0847,5.10872,-0.353512,0
9.91873,5.25958,-0.358757,0
9.68522,5.35737,-0.367321,0
9.45304,5.44872,-0.375466,0
9.22478,5.5358,-0.383083,0
9.00026,5.61876,-0.390182,0
8.7793,5.69778,-0.396784,0
8.56178,5.77303,-0.402917,0
8.34752,5.84462,-0.408591,0
8.13638,5.9127,-0.413825,0
7.93772,5.98763,-0.418014,0
7.74318,6.06172,-0.421706,0
7.55037,6.13263,-0.425026,0
7.35921,6.20048,-0.427995,0
7.16962,6.26533,-0.430622,0
6.98154,6.32728,-0.432897,0
7.59455,-12.1432,0.73096,0
7.90948,-12.1041,0.72846,0
8.23057,-12.0668,0.726888,0
8.56158,-12.0369,0.726986,0
8.89691,-12.0023,0.72723,0
9.23669,-11.9631,0.72764,0
9.58108,-11.919,0.728236,0
9.93023,-11.8699,0.728988,0
10.2769,-11.8051,0.728568,0
10.6218,-11.7266,0.727191,0
10.9747,-11.6479,0.726712,0
11.3323,-11.5639,0.726439,0
11.6947,-11.4742,0.72639,0
12.0622,-11.3788,0.726566,0
12.4337,-11.2761,0.72682,0
12.8101,-11.1668,0.727249,0
13.2011,-11.0599,0.729173,0
13.6084,-10.9555,0.732679,0
14.0158,-10.8373,0.73554,0
14.4307,-10.7119,0.738743,0
14.8533,-10.579,0.742288,0
15.2841,-10.4384,0.746214,0
15.7234,-10.2896,0.750521,0
16.1716,-10.1322,0.755218,0
16.6291,-9.96588,0.760355,0
17.0961,-9.79007,0.765902,0
17.5615,-9.5973,0.770736,0
18.0279,-9.38947,0.775189,0
18.3941,-9.11136,0.769603,0
18.7399,-8.81306,0.76221,0
18.9905,-8.45964,0.74637,0
19.2366,-8.10081,0.730804,0
19.4787,-7.73648,0.715511,0
19.7163,-7.36654,0.700462,0
19.9496,-6.99103,0.685716,0
20.1716,-6.60745,0.670696,0
20.398,-6.22131,0.656673,0
20.6611,-5.8418,0.646136,0
20.9323,-5.45773,0.636712,0
21.199,-5.0651,0.627445,0
21.4611,-4.66381,0.618323,0
21.7184,-4.25377,0.609359,0
21.8821,-3.81895,0.594398,0
21.7746,-3.33779,0.561614,0
21.6587,-2.8638,0.529681,0
21.6033,-2.40471,0.503148,0
21.5555,-1.95115,0.478314,0
21.4996,-1.50105,0.454095,0
21.5759,-1.06029,0.439339,0
21.6543,-0.616934,0.42555,0
21.7153,-0.17043,0.411527,0
21.6987,0.276797,0.393655,0
21.6716,0.723291,0.376165,0
21.6516,1.17009,0.360052,0
21.6497,1.61919,0.345902,0
21.6373,2.06895,0.332073,0
20.9991,2.43125,0.283695,0
19.8209,2.67687,0.206712,0
19.1245,2.96171,0.158587,0
15.4395,2.57868,-0.0525164,0
15.2021,2.8417,-0.0713641,0
14.8638,3.07028,-0.0949187,0
14.3842,3.24552,-0.125212,0
13.926,3.40769,-0.153493,0
13.5679,3.58477,-0.175612,0
13.1862,3.73948,-0.198259,0
12.75,3.85809,-0.223132,0
12.3884,3.98957,-0.243395,0
12.0381,4.11192,-0.262468,0
11.6988,4.22572,-0.280436,0
11.3751,4.33409,-0.297067,0
11.0827,4.44646,-0.311569,0
10.797,4.55174,-0.325241,0
10.5466,4.66725,-0.336667,0
10.3827,4.82766,-0.343034,0
10.218,4.98461,-0.349001,0
10.0526,5.13815,-0.354557,0
9.87545,5.28045,-0.360339,0
9.63998,5.3754,-0.368942,0
9.40858,5.46591,-0.376989,0
9.18105,5.55217,-0.384499,0
8.95724,5.63435,-0.391491,0
8.73696,5.71263,-0.398005,0
8.52007,5.78714,-0.40404,0
8.30643,5.85805,-0.409626,0
8.0971,5.92674,-0.414694,0
7.89994,6.00223,-0.418766,0
7.70575,6.07569,-0.42238,0
7.51326,6.146,-0.425632,0
7.3224,6.21325,-0.428532,0
7.13311,6.27754,-0.431081,0
7.65525,-12.136,0.730472,0
7.97075,-12.096,0.727991,0
8.29428,-12.0614,0.726898,0
8.62611,-12.0305,0.727015,0
8.96232,-11.9951,0.727298,0
9.30295,-11.9549,0.727747,0
9.64826,-11.9099,0.728363,0
9.99835,-11.8598,0.729154,0
10.3433,-11.7902,0.728265,0
10.6897,-11.7118,0.727083,0
11.0435,-11.6321,0.726634,0
11.402,-11.547,0.726409,0
11.7654,-11.4562,0.726409,0
12.1339,-11.3596,0.726634,0
12.5061,-11.2555,0.726888,0
12.8835,-11.1449,0.727357,0
13.2808,-11.0417,0.730032,0
13.6867,-10.9331,0.733206,0
14.0955,-10.8136,0.736136,0
14.5118,-10.6868,0.739398,0
14.936,-10.5525,0.74303,0
15.3685,-10.4103,0.747015,0
15.8094,-10.2598,0.75139,0
16.2594,-10.1007,0.756185,0
16.7187,-9.93263,0.76139,0
17.1854,-9.75354,0.7668,0
17.6526,-9.55888,0.771722,0
18.0985,-9.33629,0.774075,0
18.4653,-9.05659,0.768568,0
18.7888,-8.74509,0.759134,0
19.0384,-8.39067,0.743353,0
19.2838,-8.03072,0.727835,0
19.525,-7.66533,0.712571,0
19.7619,-7.29434,0.697601,0
19.9942,-6.91774,0.682904,0
20.2131,-6.5323,0.667747,0
20.4438,-6.14678,0.654202,0
20.7139,-5.76818,0.64431,0
20.9842,-5.38244,0.634905,0
21.2501,-4.98813,0.625657,0
21.5112,-4.58518,0.616575,0
21.7677,-4.17341,0.60765,0
21.862,-3.72531,0.588001,0
21.7529,-3.24552,0.555374,0
21.6358,-2.77302,0.523646,0
21.5947,-2.31669,0.498294,0
21.5454,-1.86379,0.473587,0
21.5068,-1.41553,0.450687,0
21.5916,-0.974775,0.436644,0
21.6686,-0.530771,0.422913,0
21.7129,-0.0838574,0.40804,0
21.6942,0.363262,0.390247,0
21.6652,0.809551,0.372825,0
21.6521,1.25696,0.357278,0
21.6481,1.70618,0.343196,0
21.6337,2.15603,0.329427,0
20.8475,2.49408,0.272952,0
19.6082,2.72094,0.192933,0
19.0096,3.01728,0.15055,0
15.3936,2.63021,-0.0562176,0
15.1561,2.89166,-0.0749383,0
14.7693,3.10525,-0.100934,0
14.2939,3.27787,-0.130837,0
13.8397,3.43765,-0.158737,0
13.5103,3.62142,-0.179196,0
13.0504,3.74496,-0.205856,0
12.6791,3.88425,-0.227136,0
12.3197,4.01396,-0.247184,0
11.9716,4.13459,-0.266032,0
11.6344,4.24678,-0.283776,0
11.318,4.3564,-0.299929,0
11.0269,4.46736,-0.314274,0
10.7425,4.57135,-0.327819,0
10.515,4.69856,-0.337927,0
10.3509,4.85829,-0.344216,0
10.186,5.01458,-0.350095,0
10.0205,5.16749,-0.355593,0
9.82957,5.29918,-0.362048,0
9.59489,5.39324,-0.370534,0
9.36427,5.48292,-0.378483,0
9.13745,5.56838,-0.385886,0
8.91434,5.64979,-0.39279,0
8.69473,5.72732,-0.399206,0
8.47848,5.80114,-0.405163,0
8.26547,5.87136,-0.410651,0
8.05789,5.94066,-0.415573,0
7.86224,6.01669,-0.419499,0
7.66837,6.08953,-0.423034,0
7.4762,6.15925,-0.426218,0
7.28565,6.22593,-0.429059,0
7.09666,6.28965,-0.43155,0
7.23101,-11.4717,0.734329,0
7.55908,-11.5011,0.741497,0
7.89355,-11.5261,0.748821,0
8.20487,-11.4914,0.748802,0
8.52092,-11.4542,0.749212,0
8.84078,-11.4124,0.749798,0
9.16457,-11.3658,0.75054,0
9.48935,-11.3096,0.750814,0
9.81655,-11.2464,0.75098,0
10.1472,-11.1774,0.751243,0
10.4813,-11.1025,0.751614,0
10.8426,-11.0509,0.756273,0
11.1873,-10.9664,0.757279,0
11.5306,-10.8694,0.757532,0
11.8781,-10.7666,0.758021,0
12.2299,-10.6577,0.758724,0
12.5862,-10.5426,0.759681,0
12.9472,-10.421,0.760892,0
13.3307,-10.3086,0.764808,0
13.7288,-10.1962,0.77014,0
14.1343,-10.0763,0.775823,0
14.543,-9.94514,0.781321,0
14.9485,-9.79783,0.785863,0
15.3613,-9.64241,0.790794,0
15.7816,-9.47853,0.796126,0
16.2099,-9.30578,0.801898,0
16.6463,-9.12378,0.808118,0
17.0913,-8.93213,0.814818,0
17.4522,-8.67913,0.812298,0
17.7806,-8.39926,0.806517,0
18.0745,-8.09416,0.797542,0
18.2987,-7.75032,0.78223,0
18.518,-7.40139,0.767132,0
18.732,-7.04729,0.752259,0
18.9409,-6.68813,0.73763,0
19.1502,-6.32597,0.723763,0
19.3733,-5.96469,0.711771,0
19.5918,-5.59737,0.700013,0
19.8057,-5.22397,0.688528,0
20.0148,-4.84439,0.677279,0
20.219,-4.45867,0.666302,0
20.4184,-4.06667,0.655579,0
20.4762,-3.64325,0.634593,0
20.4616,-3.2091,0.609124,0
20.4371,-2.7775,0.584134,0
20.4037,-2.34866,0.559622,0
20.3612,-1.92284,0.535667,0
20.233,-1.49487,0.506722,0
20.2358,-1.08006,0.488284,0
20.2449,-0.666123,0.471263,0
20.24,-0.252207,0.454251,0
20.2212,0.161143,0.437249,0
20.1884,0.573438,0.420296,0
19.0182,0.906406,0.329271,0
16.6607,1.0774,0.163333,0
15.3626,1.26315,0.0698273,0
15.1599,1.54209,0.0487434,0
14.9553,1.8132,0.0284016,0
14.749,2.0766,0.00881172,0
14.5411,2.33242,-0.0100359,0
14.179,2.54521,-0.0376727,0
13.7574,2.72831,-0.068073,0
13.3524,2.89885,-0.0965887,0
12.9664,3.05878,-0.123132,0
12.5976,3.2089,-0.147897,0
12.2314,3.34527,-0.171794,0
11.8794,3.4724,-0.194206,0
11.5687,3.6025,-0.213512,0
11.2662,3.72434,-0.231784,0
10.9717,3.83835,-0.249069,0
10.7081,3.95641,-0.263971,0
10.5067,4.09736,-0.274665,0
10.354,4.25929,-0.281911,0
10.2006,4.41776,-0.288737,0
10.0462,4.57289,-0.295163,0
9.89105,4.72473,-0.301198,0
9.73502,4.8733,-0.306823,0
9.55911,5.00518,-0.313288,0
9.33865,5.10004,-0.322223,0
9.12161,5.1906,-0.330593,0
8.90787,5.27703,-0.338425,0
8.69727,5.3595,-0.345759,0
8.4897,5.43818,-0.352604,0
8.28502,5.51321,-0.359001,0
8.08528,5.58682,-0.364772,0
7.89809,5.66739,-0.369391,0
7.70762,5.73958,-0.373981,0
7.51791,5.80733,-0.378259,0
7.33018,5.87211,-0.382155,0
7.14434,5.93402,-0.385671,0
6.96375,5.99763,-0.388542,0
6.78492,6.059,-0.391042,0
7.294,-11.4777,0.735706,0
7.6233,-11.5063,0.742904,0
7.95713,-11.5267,0.749769,0
8.26573,-11.4845,0.74887,0
8.58251,-11.4464,0.74931,0
8.90312,-11.4037,0.749925,0
9.22768,-11.3562,0.750696,0
9.55239,-11.2978,0.750843,0
9.88025,-11.2335,0.751028,0
10.2116,-11.1634,0.751302,0
10.5464,-11.0873,0.751693,0
10.9134,-11.0404,0.75723,0
11.2534,-10.9481,0.757318,0
11.5975,-10.85,0.757611,0
11.9458,-10.746,0.758138,0
12.2985,-10.6359,0.75889,0
12.6557,-10.5196,0.759896,0
13.0176,-10.3967,0.761155,0
13.4071,-10.2874,0.765814,0
13.8066,-10.1736,0.771214,0
14.2136,-10.0522,0.776966,0
14.6209,-9.91726,0.782171,0
15.0278,-9.7684,0.78678,0
15.442,-9.61137,0.79179,0
15.8639,-9.44582,0.79722,0
16.2937,-9.27131,0.80307,0
16.7317,-9.08747,0.809368,0
17.1784,-8.89388,0.816165,0
17.5159,-8.62573,0.811175,0
17.8438,-8.344,0.805394,0
18.1182,-8.02805,0.794564,0
18.3416,-7.6832,0.77928,0
18.5598,-7.33328,0.764232,0
18.7729,-6.97821,0.749417,0
18.9806,-6.61805,0.734827,0
19.1937,-6.25652,0.721419,0
19.4159,-5.89408,0.709466,0
19.6334,-5.52561,0.697777,0
19.8465,-5.151,0.686321,0
20.0547,-4.77022,0.67512,0
20.258,-4.38331,0.664202,0
20.4562,-3.99012,0.653548,0
20.4742,-3.55908,0.629632,0
20.4577,-3.12539,0.604241,0
20.4314,-2.6943,0.579349,0
20.3961,-2.26604,0.554954,0
20.352,-1.8408,0.531077,0
20.2184,-1.41357,0.501995,0
20.2387,-0.99999,0.485003,0
20.2451,-0.586016,0.467962,0
20.2375,-0.172168,0.45095,0
20.2159,0.241006,0.433978,0
20.1805,0.653027,0.417034,0
18.7111,0.958828,0.306653,0
15.5245,1.03235,0.0874152,0
15.3235,1.31774,0.0656867,0
15.1205,1.59515,0.044759,0
14.9155,1.86476,0.0245637,0
14.7089,2.12669,0.00512032,0
14.5007,2.38109,-0.0136199,0
14.0961,2.58166,-0.0437078,0
13.6778,2.76226,-0.0737371,0
13.2759,2.93047,-0.101901,0
12.8954,3.08907,-0.127956,0
12.5256,3.23604,-0.152634,0
12.1622,3.37056,-0.176257,0
11.8186,3.49825,-0.198034,0
11.5095,3.62671,-0.217136,0
11.2086,3.74698,-0.235192,0
10.9195,3.86136,-0.252057,0
10.6579,3.97855,-0.266764,0
10.4772,4.12895,-0.2761,0
10.3244,4.29021,-0.283259,0
10.1708,4.44806,-0.290026,0
10.0163,4.60253,-0.296364,0
9.86092,4.75371,-0.302311,0
9.70474,4.90169,-0.307878,0
9.51618,5.02388,-0.315065,0
9.29639,5.11789,-0.323874,0
9.08001,5.20762,-0.332136,0
8.86688,5.29328,-0.33988,0
8.65688,5.37504,-0.347136,0
8.44987,5.453,-0.353893,0
8.24574,5.5273,-0.360182,0
8.04893,5.60265,-0.36569,0
7.86206,5.68264,-0.370231,0
7.67075,5.75291,-0.374831,0
7.48144,5.82008,-0.37904,0
7.29408,5.88432,-0.382868,0
7.1089,5.94606,-0.386296,0
6.92906,6.00973,-0.389059,0
7.35722,-11.4836,0.737083,0
7.68775,-11.5113,0.744319,0
8.01581,-11.5174,0.749378,0
8.32671,-11.4775,0.748948,0
8.64426,-11.4385,0.749417,0
8.9656,-11.3949,0.750062,0
9.29044,-11.3456,0.750755,0
9.61557,-11.2858,0.750872,0
9.94406,-11.2204,0.751068,0
10.2761,-11.1491,0.75138,0
10.6139,-11.0749,0.7522,0
10.9789,-11.023,0.75723,0
11.3197,-10.9295,0.757357,0
11.6646,-10.8303,0.757698,0
12.0138,-10.7252,0.758265,0
12.3673,-10.6139,0.759075,0
12.7254,-10.4963,0.76012,0
13.0901,-10.374,0.761702,0
13.4838,-10.266,0.766829,0
13.8848,-10.1507,0.772298,0
14.2932,-10.0278,0.778128,0
14.6991,-9.88908,0.78303,0
15.1074,-9.73866,0.787718,0
15.5231,-9.58001,0.792806,0
15.9464,-9.41274,0.798314,0
16.3777,-9.23648,0.804251,0
16.8174,-9.0508,0.810648,0
17.2495,-8.84597,0.815804,0
17.5796,-8.57198,0.810071,0
17.9069,-8.28838,0.804271,0
18.1618,-7.96174,0.791595,0
18.3842,-7.61589,0.776361,0
18.6014,-7.26499,0.761351,0
18.8134,-6.90894,0.746575,0
19.0202,-6.54776,0.732015,0
19.237,-6.18688,0.719085,0
19.4584,-5.82327,0.7072,0
19.6751,-5.45361,0.69554,0
19.8872,-5.07779,0.684134,0
20.0945,-4.69587,0.673001,0
20.2967,-4.30773,0.662122,0
20.4804,-3.91056,0.650433,0
20.472,-3.47503,0.6247,0
20.4533,-3.04178,0.599388,0
20.4253,-2.61121,0.574583,0
20.3882,-2.18352,0.550286,0
20.3423,-1.75887,0.526527,0
20.2234,-1.33363,0.498714,0
20.241,-0.919902,0.481693,0
20.2447,-0.505918,0.464681,0
20.2344,-0.0921484,0.447659,0
20.2102,0.32085,0.430687,0
20.0539,0.726025,0.405911,0
18.4148,1.00941,0.284866,0
15.4858,1.08821,0.0831477,0
15.2844,1.37204,0.0615754,0
15.081,1.64793,0.0407844,0
14.8757,1.91603,0.0207355,0
14.6687,2.17651,0.00141914,0
14.4461,2.42633,-0.018034,0
14.0138,2.6176,-0.0496551,0
13.5988,2.79574,-0.079323,0
13.2,2.96164,-0.107136,0
12.8248,3.11897,-0.132731,0
12.4542,3.26281,-0.157321,0
12.0935,3.39548,-0.180641,0
11.7581,3.52375,-0.201804,0
11.4507,3.6506,-0.2207,0
11.1513,3.76936,-0.238571,0
10.8685,3.88457,-0.254958,0
10.6079,4.00045,-0.269528,0
10.4477,4.16042,-0.277507,0
10.2948,4.32102,-0.284596,0
10.1409,4.47821,-0.291286,0
9.98629,4.63203,-0.297546,0
9.83076,4.78261,-0.303425,0
9.67443,4.92996,-0.308923,0
9.47338,5.0424,-0.316813,0
9.25426,5.13557,-0.325505,0
9.03853,5.22451,-0.333679,0
8.826,5.30942,-0.341335,0
8.6166,5.3904,-0.348473,0
8.41015,5.46764,-0.355134,0
8.20656,5.54127,-0.361345,0
8.01266,5.61837,-0.366598,0
7.82493,5.69653,-0.371149,0
7.63397,5.76613,-0.375671,0
7.44503,5.83274,-0.379821,0
7.25804,5.8964,-0.383552,0
7.074,5.95861,-0.386852,0
6.8944,6.02172,-0.389557,0
6.92,-10.7765,0.724173,0
7.22464,-10.7973,0.731048,0
7.53456,-10.8134,0.738011,0
7.84983,-10.8244,0.745062,0
8.17052,-10.8303,0.752191,0
8.49667,-10.8307,0.759417,0
8.81088,-10.7978,0.762669,0
9.11482,-10.738,0.762855,0
9.42156,-10.6727,0.763109,0
9.73112,-10.6019,0.76348,0
10.0435,-10.5253,0.763948,0
10.3588,-10.4429,0.764505,0
10.6859,-10.3651,0.76681,0
11.0411,-10.3085,0.773489,0
11.4022,-10.2455,0.780403,0
11.769,-10.1751,0.787454,0
12.1036,-10.06,0.788675,0
12.4421,-9.93869,0.79015,0
12.7846,-9.81091,0.791878,0
13.1361,-9.68069,0.794593,0
13.5119,-9.55964,0.800335,0
13.894,-9.4311,0.806429,0
14.2826,-9.2948,0.812894,0
14.678,-9.15039,0.819739,0
15.0804,-8.99754,0.826986,0
15.4702,-8.82319,0.832269,0
15.7785,-8.58651,0.827581,0
16.078,-8.3374,0.822093,0
16.3772,-8.08112,0.81681,0
16.6734,-7.8162,0.811487,0
16.9663,-7.54257,0.806116,0
17.2558,-7.26017,0.800687,0
17.5415,-6.96897,0.795228,0
17.8231,-6.66896,0.7897,0
18.0744,-6.35016,0.781585,0
18.2723,-6.00651,0.768841,0
18.4626,-5.65692,0.756097,0
18.6466,-5.30209,0.743499,0
18.8242,-4.94209,0.731077,0
18.9955,-4.57693,0.718802,0
19.16,-4.20674,0.706693,0
19.2742,-3.82256,0.691048,0
19.2742,-3.41576,0.666605,0
19.2654,-3.011,0.64262,0
19.201,-2.60196,0.615237,0
18.9434,-2.17642,0.573519,0
18.6813,-1.76449,0.533148,0
18.4942,-1.37131,0.500247,0
18.5152,-0.997305,0.484886,0
17.8108,-0.607031,0.414886,0
17.4011,-0.249189,0.369446,0
16.5088,0.0785449,0.289534,0
15.2765,0.35,0.186761,0
14.9564,0.628906,0.153421,0
14.6664,0.896836,0.123402,0
14.4466,1.16068,0.0995148,0
14.2685,1.42168,0.0795051,0
14.0881,1.67574,0.0602082,0
13.8687,1.91618,0.0389777,0
13.4864,2.11448,0.00721992,0
13.1174,2.3002,-0.0226922,0
12.7714,2.47688,-0.0501531,0
12.4382,2.64337,-0.0759539,0
12.1059,2.79696,-0.100954,0
11.7778,2.9388,-0.124977,0
11.4606,3.07158,-0.147643,0
11.1535,3.19583,-0.168991,0
10.8562,3.3121,-0.189128,0
10.5701,3.4218,-0.207995,0
10.4283,3.58748,-0.216491,0
10.2865,3.75019,-0.224499,0
10.1436,3.90952,-0.232096,0
9.99977,4.06553,-0.239284,0
9.85493,4.21828,-0.246061,0
9.70912,4.36784,-0.252448,0
9.56234,4.51426,-0.258444,0
9.4146,4.65758,-0.264059,0
9.22872,4.77145,-0.271989,0
9.02228,4.86511,-0.281042,0
8.81871,4.95467,-0.289567,0
8.61789,5.04024,-0.297565,0
8.41973,5.12202,-0.305075,0
8.22412,5.20012,-0.312096,0
8.03635,5.27977,-0.318249,0
7.85691,5.36232,-0.323444,0
7.67889,5.44176,-0.328259,0
7.49787,5.51345,-0.333014,0
7.31721,5.58068,-0.337507,0
7.13826,5.64504,-0.341618,0
6.96094,5.7066,-0.345358,0
6.78517,5.76541,-0.348727,0
6.61089,5.82157,-0.351745,0
6.97854,-10.7809,0.725501,0
7.28419,-10.8008,0.732396,0
7.59514,-10.8159,0.739368,0
7.91145,-10.826,0.746439,0
8.2332,-10.8308,0.753597,0
8.56042,-10.8301,0.760823,0
8.86948,-10.7866,0.762698,0
9.17395,-10.7258,0.762894,0
9.48123,-10.6594,0.763177,0
9.79133,-10.5875,0.763568,0
10.1043,-10.5099,0.764046,0
10.4201,-10.4263,0.764632,0
10.7542,-10.3546,0.768079,0
11.1105,-10.2969,0.774818,0
11.4728,-10.2325,0.781761,0
11.8334,-10.1533,0.787669,0
12.1688,-10.0371,0.788948,0
12.5081,-9.91449,0.790472,0
12.8513,-9.78542,0.792249,0
13.2083,-9.65784,0.795677,0
13.5853,-9.53536,0.801488,0
13.9687,-9.40536,0.807659,0
14.3586,-9.26751,0.814183,0
14.7553,-9.1215,0.821116,0
15.1591,-8.96695,0.828441,0
15.5356,-8.78162,0.832044,0
15.8366,-8.53895,0.826517,0
16.1361,-8.28849,0.821068,0
16.4347,-8.03056,0.815794,0
16.7303,-7.76396,0.810462,0
17.0226,-7.4886,0.805071,0
17.3114,-7.20452,0.799642,0
17.5963,-6.91161,0.794154,0
17.8771,-6.60988,0.788626,0
18.1143,-6.28455,0.779232,0
18.3095,-5.9393,0.76637,0
18.4987,-5.58869,0.753655,0
18.6814,-5.23284,0.741077,0
18.8579,-4.87184,0.728685,0
19.0278,-4.50568,0.716439,0
19.1909,-4.13457,0.704388,0
19.2748,-3.7437,0.686292,0
19.2732,-3.33728,0.661927,0
19.2627,-2.93294,0.63803,0
19.1516,-2.51857,0.607073,0
18.893,-2.09565,0.565609,0
18.6302,-1.68635,0.525491,0
18.4992,-1.29901,0.497288,0
18.4215,-0.920928,0.474437,0
17.7312,-0.536328,0.40596,0
17.3224,-0.182119,0.360892,0
15.7613,0.121172,0.231458,0
15.2114,0.404883,0.179984,0
14.8998,0.681689,0.147484,0
14.6109,0.947314,0.117767,0
14.4123,1.21173,0.0955793,0
14.2338,1.47136,0.0757355,0
14.053,1.72413,0.0565363,0
13.7936,1.95558,0.0326887,0
13.414,2.15137,0.00130196,0
13.0479,2.33483,-0.0282293,0
12.7061,2.50991,-0.0552703,0
12.3749,2.67439,-0.0807781,0
12.0416,2.82514,-0.10572,0
11.7156,2.96519,-0.12947,0
11.4004,3.09625,-0.151852,0
11.0952,3.21894,-0.172975,0
10.7997,3.33371,-0.192887,0
10.5379,3.45199,-0.210007,0
10.4009,3.61924,-0.218083,0
10.2589,3.78128,-0.226012,0
10.1159,3.93996,-0.233512,0
9.97182,4.09532,-0.240612,0
9.8268,4.24746,-0.247331,0
9.68079,4.39642,-0.253649,0
9.53383,4.54222,-0.259548,0
9.38592,4.68497,-0.265104,0
9.18855,4.78989,-0.273776,0
8.98267,4.88275,-0.282731,0
8.77965,4.97153,-0.291159,0
8.57935,5.05636,-0.29905,0
8.38169,5.13742,-0.306471,0
8.18655,5.21483,-0.313425,0
8.00152,5.29599,-0.319284,0
7.82236,5.37793,-0.324411,0
7.6446,5.45677,-0.329128,0
7.46278,5.52671,-0.333932,0
7.28246,5.59338,-0.338346,0
7.10383,5.65717,-0.34237,0
6.9268,5.71818,-0.346042,0
6.75134,5.77646,-0.349333,0
7.03727,-10.7851,0.726829,0
7.34394,-10.8041,0.733734,0
7.65591,-10.8183,0.740736,0
7.97326,-10.8273,0.747816,0
8.2961,-10.8311,0.754993,0
8.62436,-10.8294,0.762239,0
8.92817,-10.7753,0.762728,0
9.23319,-10.7134,0.762943,0
9.54099,-10.6459,0.763245,0
9.85169,-10.5729,0.763655,0
10.1652,-10.4942,0.764144,0
10.4816,-10.4094,0.764759,0
10.8226,-10.344,0.769368,0
11.1801,-10.2849,0.776146,0
11.5436,-10.2193,0.783138,0
11.898,-10.1313,0.787903,0
12.2341,-10.0138,0.789222,0
12.5742,-9.89003,0.790784,0
12.9181,-9.75969,0.79262,0
13.2808,-9.63471,0.796771,0
13.659,-9.51081,0.80265,0
14.0436,-9.3793,0.80888,0
14.4348,-9.23991,0.815501,0
14.8329,-9.09227,0.822493,0
15.238,-8.93604,0.829915,0
15.594,-8.7353,0.83097,0
15.8946,-8.49103,0.825433,0
16.1941,-8.23925,0.820052,0
16.4922,-7.97964,0.814769,0
16.7871,-7.71135,0.809427,0
17.0788,-7.43434,0.804017,0
17.3668,-7.1485,0.798577,0
17.6509,-6.85392,0.793079,0
17.9309,-6.5505,0.787562,0
18.1525,-6.21816,0.776732,0
18.3466,-5.87188,0.7639,0
18.5345,-5.52021,0.751204,0
18.716,-5.16339,0.738665,0
18.8912,-4.80139,0.726312,0
19.0599,-4.43427,0.714095,0
19.2217,-4.06217,0.702064,0
19.2752,-3.66489,0.681536,0
19.2718,-3.25889,0.657259,0
19.2597,-2.85494,0.63346,0
19.102,-2.43568,0.598948,0
18.8425,-2.01542,0.557747,0
18.5789,-1.60868,0.517874,0
18.5038,-1.22667,0.4943,0
18.1852,-0.840312,0.453089,0
17.6518,-0.466309,0.397073,0
17.2438,-0.115742,0.352396,0
15.485,0.1725,0.208724,0
15.1466,0.459238,0.173265,0
14.8435,0.734033,0.141614,0
14.5556,0.997373,0.112191,0
14.3779,1.26249,0.0917023,0
14.199,1.5208,0.071966,0
14.0177,1.77223,0.0529133,0
13.7191,1.99447,0.026468,0
13.3421,2.18779,-0.00455742,0
12.9809,2.36958,-0.0336004,0
12.6412,2.54255,-0.0603191,0
12.312,2.70503,-0.0855437,0
11.9776,2.85297,-0.110427,0
11.6538,2.99123,-0.133903,0
11.3406,3.12063,-0.156042,0
11.0373,3.24175,-0.17693,0
10.7436,3.35506,-0.196618,0
10.5147,3.48605,-0.211393,0
10.3735,3.65084,-0.219645,0
10.2313,3.81225,-0.227497,0
10.0881,3.97028,-0.234929,0
9.94384,4.12503,-0.24196,0
9.79862,4.27652,-0.248571,0
9.65244,4.42486,-0.254811,0
9.50528,4.57009,-0.260651,0
9.35674,4.71192,-0.266149,0
9.14849,4.80818,-0.275544,0
8.94317,4.90025,-0.284411,0
8.74069,4.98823,-0.292712,0
8.54089,5.07234,-0.300534,0
8.34374,5.15269,-0.307848,0
8.14909,5.22939,-0.314704,0
7.96674,5.31208,-0.3203,0
7.78787,5.39342,-0.325348,0
7.60948,5.47075,-0.330075,0
7.42776,5.53982,-0.334811,0
7.24777,5.60595,-0.339147,0
7.06945,5.66919,-0.343112,0
6.89274,5.72966,-0.346696,0
6.71755,5.78744,-0.349928,0
6.63915,-10.1489,0.713323,0
6.92456,-10.166,0.720413,0
7.21216,-10.1735,0.726829,0
7.50421,-10.176,0.733314,0
7.80078,-10.1734,0.739857,0
8.10185,-10.1656,0.746478,0
8.40746,-10.1522,0.753157,0
8.71763,-10.1331,0.759896,0
9.03233,-10.1081,0.766702,0
9.35158,-10.0769,0.773577,0
9.64914,-10.0054,0.775062,0
9.94469,-9.92229,0.775706,0
10.2426,-9.83338,0.776439,0
10.5428,-9.73858,0.777288,0
10.8717,-9.66625,0.783011,0
11.2102,-9.59247,0.789749,0
11.5537,-9.51197,0.796712,0
11.9023,-9.42447,0.80389,0
12.2561,-9.32969,0.811273,0
12.6151,-9.22739,0.8189,0
12.9573,-9.09917,0.82346,0
13.3054,-8.965,0.828529,0
13.6463,-8.81447,0.832249,0
13.9576,-8.63274,0.831673,0
14.2686,-8.44265,0.831068,0
14.5791,-8.24405,0.830443,0
14.889,-8.03679,0.829769,0
15.1979,-7.82081,0.829105,0
15.5057,-7.5959,0.828392,0
15.7782,-7.34438,0.823665,0
16.0451,-7.08372,0.818626,0
16.3089,-6.81533,0.813587,0
16.5693,-6.53926,0.808607,0
16.8094,-6.24855,0.801829,0
17.0305,-5.94509,0.793538,0
17.2457,-5.63484,0.785218,0
17.455,-5.31788,0.776907,0
17.658,-4.99429,0.768577,0
17.8545,-4.66419,0.760257,0
18.0368,-4.32573,0.751214,0
18.1882,-3.9758,0.739925,0
18.1462,-3.58255,0.711361,0
17.9549,-3.16745,0.670384,0
17.7425,-2.76121,0.629222,0
17.5237,-2.3668,0.589183,0
17.2274,-1.97598,0.543919,0
16.7766,-1.58673,0.486966,0
16.4254,-1.22644,0.44056,0
16.1126,-0.88502,0.399085,0
15.2675,-0.546953,0.314534,0
14.9583,-0.247354,0.2768,0
14.6559,0.0383008,0.240921,0
14.3877,0.311992,0.209095,0
14.1286,0.574639,0.179105,0
13.8732,0.826572,0.150511,0
13.6485,1.07144,0.125355,0
13.4907,1.31657,0.10637,0
13.2005,1.53456,0.0778937,0
12.8732,1.73393,0.0474641,0
12.5599,1.9229,0.0189875,0
12.2549,2.10125,-0.00798515,0
11.958,2.26958,-0.0335711,0
11.6577,2.42528,-0.0586883,0
11.363,2.57088,-0.0826726,0
11.0767,2.7078,-0.105387,0
10.7985,2.83651,-0.126872,0
10.5343,2.9599,-0.146764,0
10.2973,3.08445,-0.164059,0
10.1657,3.24653,-0.172809,0
10.0693,3.42215,-0.178366,0
9.94532,3.58354,-0.185544,0
9.81047,3.73716,-0.193044,0
9.6745,3.88766,-0.200163,0
9.53745,4.03503,-0.206862,0
9.39931,4.17939,-0.2132,0
9.26012,4.32073,-0.219128,0
9.11988,4.45916,-0.224714,0
8.92626,4.55747,-0.234167,0
8.73232,4.64979,-0.243298,0
8.54077,4.73817,-0.251911,0
8.35153,4.82274,-0.260026,0
8.16453,4.90364,-0.267653,0
7.9882,4.98865,-0.274059,0
7.81612,5.07305,-0.279821,0
7.64527,5.15429,-0.285153,0
7.47561,5.23249,-0.290095,0
7.30321,5.30358,-0.295007,0
7.13083,5.37022,-0.299675,0
6.95991,5.43404,-0.303962,0
6.7904,5.4951,-0.307858,0
6.62221,5.55347,-0.311393,0
6.45531,5.60927,-0.314587,0
6.69421,-10.153,0.714749,0
6.97986,-10.1679,0.721654,0
7.26831,-10.1744,0.728079,0
7.56124,-10.1759,0.734573,0
7.85868,-10.1723,0.741136,0
8.16063,-10.1634,0.747767,0
8.46713,-10.1489,0.754456,0
8.77817,-10.1287,0.761214,0
9.09374,-10.1025,0.76803,0
9.41247,-10.0683,0.774612,0
9.70614,-9.98976,0.775179,0
10.0021,-9.90553,0.775833,0
10.3005,-9.81553,0.776605,0
10.6024,-9.72098,0.777708,0
10.9368,-9.65249,0.7843,0
11.2763,-9.57744,0.791087,0
11.6207,-9.4956,0.798079,0
11.9703,-9.4067,0.805296,0
12.3251,-9.31051,0.812737,0
12.6851,-9.20669,0.820394,0
13.0212,-9.07133,0.823978,0
13.3747,-8.93928,0.829759,0
13.7065,-8.77995,0.832132,0
14.0178,-8.59662,0.831556,0
14.3287,-8.4049,0.83096,0
14.6391,-8.20464,0.830325,0
14.9489,-7.9957,0.829652,0
15.2576,-7.77799,0.828968,0
15.5609,-7.54908,0.827757,0
15.8301,-7.29455,0.822679,0
16.0964,-7.03239,0.81764,0
16.3595,-6.76252,0.81262,0
16.6193,-6.48495,0.80764,0
16.8526,-6.19036,0.800218,0
17.0726,-5.88557,0.791917,0
17.2867,-5.57402,0.783616,0
17.4948,-5.25578,0.775286,0
17.6966,-4.93093,0.766976,0
17.8918,-4.59957,0.758636,0
18.0666,-4.25838,0.749017,0
18.2042,-3.90476,0.736585,0
18.1105,-3.50152,0.703421,0
17.9143,-3.08793,0.662337,0
17.7006,-2.68397,0.62138,0
17.4807,-2.29183,0.581556,0
17.1393,-1.89881,0.532659,0
16.6907,-1.51412,0.476302,0
16.3654,-1.15922,0.432464,0
15.522,-0.799326,0.346429,0
15.2072,-0.487881,0.307093,0
14.8993,-0.191006,0.26971,0
14.5995,0.0920312,0.23432,0
14.3373,0.363662,0.203187,0
14.0789,0.624199,0.17348,0
13.8242,0.874121,0.14514,0
13.6182,1.11935,0.121634,0
13.4598,1.36331,0.102767,0
13.1351,1.57383,0.0717609,0
12.8119,1.77134,0.0418391,0
12.5002,1.95821,0.0136652,0
12.1969,2.13458,-0.0130437,0
11.9015,2.30104,-0.038366,0
11.6,2.45413,-0.0634051,0
11.3069,2.59805,-0.0871746,0
11.0222,2.73333,-0.109645,0
10.7456,2.86053,-0.130905,0
10.488,2.98451,-0.150173,0
10.252,3.1078,-0.167302,0
10.1472,3.28067,-0.173913,0
10.0503,3.45594,-0.17943,0
9.91932,3.61351,-0.187028,0
9.78425,3.76652,-0.19445,0
9.64807,3.91639,-0.201471,0
9.51081,4.06318,-0.208112,0
9.37246,4.20696,-0.214372,0
9.23307,4.34776,-0.220251,0
9.08448,4.48004,-0.226413,0
8.88854,4.57566,-0.235983,0
8.69507,4.66722,-0.245016,0
8.50398,4.75482,-0.253522,0
8.31518,4.83869,-0.26155,0
8.1286,4.9189,-0.269079,0
7.9548,5.00523,-0.275212,0
7.78297,5.08899,-0.280876,0
7.61236,5.16966,-0.286149,0
7.44291,5.24728,-0.291003,0
7.26974,5.31673,-0.295954,0
7.09765,5.38279,-0.300534,0
6.92701,5.44606,-0.304743,0
6.75774,5.50661,-0.308581,0
6.58982,5.56448,-0.312057,0
6.74944,-10.1569,0.716185,0
7.03532,-10.1695,0.722884,0
7.32463,-10.1751,0.729339,0
7.61842,-10.1756,0.735843,0
7.91677,-10.171,0.742415,0
8.21957,-10.161,0.749056,0
8.52695,-10.1455,0.755765,0
8.83888,-10.1241,0.762523,0
9.15531,-10.0968,0.769359,0
9.46913,-10.0535,0.77472,0
9.76323,-9.97391,0.775296,0
10.0597,-9.88858,0.77598,0
10.3585,-9.79741,0.776761,0
10.6667,-9.70823,0.778968,0
11.0021,-9.63848,0.785589,0
11.3425,-9.56215,0.792425,0
11.688,-9.47896,0.799456,0
12.0386,-9.38868,0.806722,0
12.3943,-9.29103,0.814202,0
12.7554,-9.18571,0.821907,0
13.0871,-9.04469,0.824759,0
13.4442,-8.91326,0.830989,0
13.7667,-8.74514,0.832034,0
14.078,-8.56018,0.831439,0
14.3888,-8.36681,0.830833,0
14.6991,-8.16489,0.830189,0
15.0087,-7.95428,0.829534,0
15.3172,-7.73484,0.828831,0
15.6132,-7.50041,0.826771,0
15.8819,-7.24443,0.821722,0
16.1475,-6.98079,0.816663,0
16.4101,-6.70941,0.811663,0
16.6692,-6.43036,0.806683,0
16.8956,-6.13193,0.798626,0
17.1145,-5.82582,0.790316,0
17.3274,-5.51298,0.782005,0
17.5343,-5.19343,0.773685,0
17.7348,-4.86732,0.765355,0
17.9288,-4.53472,0.757034,0
18.0962,-4.19083,0.74681,0
18.2071,-3.83075,0.732025,0
18.0746,-3.42091,0.69553,0
17.8735,-3.00886,0.65432,0
17.6585,-2.60721,0.613607,0
17.4375,-2.21731,0.573978,0
17.0516,-1.82256,0.521527,0
16.6153,-1.44315,0.466614,0
16.3053,-1.09258,0.424407,0
15.4605,-0.7379,0.338655,0
15.1471,-0.429326,0.29971,0
14.8405,-0.135195,0.262698,0
14.5485,0.145508,0.228167,0
14.287,0.414912,0.197327,0
14.0293,0.673379,0.167884,0
13.7753,0.921299,0.139798,0
13.5878,1.16703,0.117933,0
13.4104,1.40706,0.0977375,0
13.0701,1.61263,0.0657063,0
12.751,1.80835,0.0362629,0
12.4409,1.99312,0.0083918,0
12.1391,2.16754,-0.0180535,0
11.8428,2.33148,-0.0432879,0
11.5426,2.48268,-0.0681219,0
11.2512,2.62485,-0.0916082,0
10.9681,2.75855,-0.113845,0
10.693,2.88425,-0.134889,0
10.442,3.00888,-0.153561,0
10.2234,3.13785,-0.169245,0
10.1287,3.31475,-0.175007,0
10.0274,3.48776,-0.180739,0
9.89327,3.64336,-0.188493,0
9.75799,3.79577,-0.195856,0
9.62159,3.94503,-0.20279,0
9.48411,4.09124,-0.209352,0
9.34558,4.23444,-0.215544,0
9.20597,4.37467,-0.221345,0
9.04638,4.49888,-0.228307,0
8.85092,4.59367,-0.237761,0
8.65791,4.68446,-0.246696,0
8.46728,4.77135,-0.255114,0
8.27889,4.8545,-0.263044,0
8.09431,4.93538,-0.270358,0
7.92146,5.0217,-0.276354,0
7.74986,5.10484,-0.28193,0
7.57949,5.18489,-0.287106,0
7.40962,5.2613,-0.29195,0
7.23634,5.32972,-0.296862,0
7.06453,5.39525,-0.301374,0
6.89415,5.458,-0.305524,0
6.72515,5.51802,-0.309274,0
6.55747,5.57539,-0.312692,0
6.38297,-9.57662,0.701419,0
6.64968,-9.58802,0.708265,0
6.92051,-9.59478,0.715179,0
7.19542,-9.59674,0.722161,0
7.47359,-9.59217,0.728939,0
7.75302,-9.57787,0.735032,0
8.0362,-9.55824,0.741175,0
8.32311,-9.53312,0.747376,0
8.61371,-9.50229,0.753616,0
8.90799,-9.46558,0.759896,0
9.2059,-9.42275,0.766214,0
9.5074,-9.37366,0.772581,0
9.81243,-9.31804,0.778978,0
10.1209,-9.25572,0.785413,0
10.4152,-9.16749,0.788529,0
10.7119,-9.0729,0.791732,0
11.0295,-8.99001,0.798333,0
11.3513,-8.90042,0.80512,0
11.655,-8.78409,0.808392,0
11.9542,-8.65496,0.810677,0
12.2534,-8.51745,0.812796,0
12.5525,-8.37146,0.814759,0
12.8511,-8.21682,0.816546,0
13.1489,-8.05341,0.818148,0
13.4456,-7.88109,0.819573,0
13.7409,-7.69977,0.820804,0
14.0345,-7.50933,0.821839,0
14.3258,-7.30968,0.822659,0
14.6147,-7.10072,0.823255,0
14.9006,-6.88243,0.823636,0
15.1832,-6.65475,0.823782,0
15.462,-6.41759,0.823685,0
15.6681,-6.14123,0.815267,0
15.8583,-5.85448,0.805579,0
16.0399,-5.56119,0.795599,0
16.2126,-5.26161,0.785325,0
16.3761,-4.956,0.774749,0
16.5301,-4.64472,0.763929,0
16.6743,-4.32803,0.752816,0
16.8085,-4.00628,0.741458,0
16.7185,-3.63031,0.707943,0
16.5661,-3.24953,0.669661,0
16.3383,-2.86545,0.625501,0
15.9858,-2.47502,0.570902,0
15.637,-2.10402,0.518665,0
15.3356,-1.75664,0.472845,0
15.183,-1.43828,0.442718,0
14.9011,-1.11947,0.40181,0
14.624,-0.814756,0.362816,0
14.3516,-0.523447,0.325677,0
14.0953,-0.244863,0.291282,0
13.8612,0.0225586,0.260091,0
13.6296,0.279648,0.230277,0
13.4004,0.526875,0.201732,0
13.1737,0.764609,0.174417,0
12.9086,0.988516,0.144769,0
12.6161,1.19762,0.113743,0
12.3325,1.39611,0.0844074,0
12.0552,1.58422,0.0565266,0
11.7841,1.76252,0.0299738,0
11.5189,1.93146,0.00471016,0
11.2467,2.08822,-0.0204168,0
10.9813,2.23622,-0.0442547,0
10.7225,2.37598,-0.0669109,0
10.482,2.51193,-0.0874383,0
10.2598,2.64536,-0.105856,0
10.0416,2.77233,-0.123405,0
9.89716,2.92179,-0.134264,0
9.8084,3.09176,-0.139938,0
9.71694,3.25981,-0.145319,0
9.62279,3.42593,-0.150397,0
9.50364,3.57842,-0.157077,0
9.37479,3.72374,-0.164098,0
9.24477,3.8661,-0.170729,0
9.11359,4.00559,-0.176989,0
8.98128,4.14218,-0.182858,0
8.83309,4.26601,-0.189704,0
8.64829,4.36082,-0.199411,0
8.46555,4.45169,-0.208571,0
8.2848,4.53883,-0.217262,0
8.10672,4.62285,-0.225358,0
7.9406,4.71207,-0.232028,0
7.77556,4.79812,-0.238288,0
7.61157,4.88103,-0.244128,0
7.44858,4.96094,-0.249577,0
7.28657,5.03788,-0.254606,0
7.12205,5.1083,-0.259645,0
6.95726,5.17423,-0.26443,0
6.79372,5.23742,-0.268854,0
6.63138,5.29792,-0.272917,0
6.47018,5.35579,-0.276589,0
6.31008,5.41113,-0.279929,0
6.43425,-9.57918,0.702738,0
6.70177,-9.58971,0.709593,0
6.97337,-9.59555,0.716527,0
7.24909,-9.59654,0.723519,0
7.52736,-9.58982,0.73012,0
7.80752,-9.57451,0.736224,0
8.09143,-9.55384,0.742376,0
8.37905,-9.52761,0.748577,0
8.67036,-9.49564,0.754818,0
8.96535,-9.45777,0.761116,0
9.26396,-9.41377,0.767444,0
9.56615,-9.36341,0.773812,0
9.87185,-9.30651,0.780218,0
10.181,-9.24286,0.786654,0
10.4703,-9.14741,0.788743,0
10.773,-9.05737,0.793001,0
11.0915,-8.97319,0.799632,0
11.414,-8.88228,0.806448,0
11.7129,-8.75976,0.808851,0
12.0121,-8.62901,0.811107,0
12.3113,-8.48987,0.813196,0
12.6103,-8.34225,0.81513,0
12.9088,-8.1859,0.816878,0
13.2064,-8.02076,0.818441,0
13.5029,-7.84672,0.819827,0
13.7979,-7.66363,0.821028,0
14.091,-7.47141,0.822005,0
14.3819,-7.26996,0.822786,0
14.6702,-7.05922,0.823343,0
14.9555,-6.83911,0.823675,0
15.2374,-6.60958,0.823773,0
15.5065,-6.36652,0.822571,0
15.7056,-6.08629,0.813411,0
15.8941,-5.79824,0.803675,0
16.074,-5.5037,0.793636,0
16.2449,-5.20294,0.783304,0
16.4066,-4.89621,0.772689,0
16.5588,-4.58383,0.76178,0
16.7011,-4.26615,0.750638,0
16.8333,-3.94348,0.739241,0
16.6896,-3.55594,0.700462,0
16.5356,-3.17689,0.662337,0
16.2698,-2.78837,0.614749,0
15.918,-2.40175,0.560609,0
15.57,-2.03442,0.508831,0
15.2889,-1.6925,0.465286,0
15.1281,-1.37546,0.434642,0
14.8471,-1.05945,0.394124,0
14.5709,-0.757363,0.355501,0
14.2995,-0.468584,0.318695,0
14.0498,-0.192285,0.28514,0
13.8162,0.0730859,0.254232,0
13.5851,0.328242,0.224652,0
13.3564,0.573604,0.196351,0
13.1302,0.809541,0.16928,0
12.8495,1.02962,0.13847,0
12.5607,1.23687,0.107943,0
12.2783,1.43329,0.0789094,0
12.0023,1.61946,0.0512824,0
11.7323,1.79591,0.0249934,0
11.4657,1.96248,-0.000241013,0
11.1948,2.11752,-0.0251238,0
10.9307,2.2639,-0.0487371,0
10.6731,2.4021,-0.071159,0
10.4387,2.53825,-0.0910613,0
10.2172,2.67043,-0.109323,0
9.99979,2.79617,-0.126706,0
9.88019,2.95483,-0.135387,0
9.79092,3.12443,-0.141003,0
9.69893,3.2921,-0.146315,0
9.60427,3.45784,-0.151345,0
9.4788,3.60677,-0.158464,0
9.34972,3.7515,-0.165407,0
9.21948,3.89333,-0.171979,0
9.08808,4.03224,-0.178151,0
8.95555,4.16832,-0.183971,0
8.79717,4.28466,-0.191618,0
8.61277,4.37871,-0.201227,0
8.43042,4.46885,-0.21029,0
8.25006,4.55522,-0.218864,0
8.07449,4.64037,-0.226686,0
7.90859,4.72896,-0.233268,0
7.74375,4.81438,-0.23944,0
7.57995,4.89672,-0.245202,0
7.41716,4.97604,-0.250573,0
7.25533,5.05246,-0.255554,0
7.09006,5.12126,-0.260593,0
6.92553,5.18666,-0.265309,0
6.76222,5.24932,-0.269665,0
6.6001,5.30932,-0.273649,0
6.43912,5.36669,-0.277262,0
6.48569,-9.58157,0.704066,0
6.75401,-9.5912,0.710931,0
7.02639,-9.59612,0.717874,0
7.3029,-9.59617,0.724876,0
7.58129,-9.58726,0.731292,0
7.86216,-9.57092,0.737405,0
8.14678,-9.54919,0.743568,0
8.43514,-9.52187,0.749779,0
8.72714,-9.48881,0.756038,0
9.02286,-9.44974,0.762337,0
9.32215,-9.40453,0.768675,0
9.62502,-9.35293,0.775052,0
9.9314,-9.29475,0.781458,0
10.2411,-9.22971,0.787903,0
10.5254,-9.12708,0.788958,0
10.8343,-9.04159,0.794261,0
11.1535,-8.95612,0.800921,0
11.4718,-8.8592,0.806917,0
11.7707,-8.73513,0.8093,0
12.07,-8.60274,0.811517,0
12.3692,-8.46198,0.813577,0
12.6681,-8.31266,0.815472,0
12.9664,-8.15465,0.8172,0
13.2639,-7.98778,0.818724,0
13.5601,-7.81201,0.820081,0
13.8547,-7.62718,0.821234,0
14.1475,-7.43316,0.822181,0
14.4379,-7.22993,0.822913,0
14.7257,-7.01736,0.823421,0
15.0103,-6.79543,0.823714,0
15.2915,-6.56409,0.823773,0
15.5475,-6.31365,0.821038,0
15.7427,-6.03106,0.811536,0
15.9296,-5.74175,0.801751,0
16.1078,-5.44599,0.791663,0
16.2769,-5.14406,0.781273,0
16.4368,-4.8362,0.770599,0
16.5871,-4.5228,0.759661,0
16.7275,-4.20409,0.74845,0
16.8077,-3.86819,0.731829,0
16.6605,-3.48191,0.69303,0
16.5049,-3.10459,0.655052,0
16.2015,-2.71203,0.604085,0
15.8504,-2.32919,0.550413,0
15.508,-1.96615,0.499554,0
15.268,-1.63152,0.460218,0
15.0733,-1.31318,0.426644,0
14.7933,-0.999951,0.386507,0
14.518,-0.700498,0.348245,0
14.2475,-0.41418,0.31178,0
14.0044,-0.140127,0.279056,0
13.7713,0.123242,0.248411,0
13.5406,0.376455,0.219085,0
13.3124,0.61999,0.191019,0
13.0867,0.85415,0.164173,0
12.7931,1.07059,0.132445,0
12.5056,1.27568,0.10222,0
12.2245,1.47009,0.0734699,0
11.9496,1.65437,0.0460871,0
11.6808,1.82897,0.020052,0
11.4128,1.99318,-0.00516289,0
11.1432,2.14649,-0.0297918,0
10.8804,2.29126,-0.0531707,0
10.624,2.42794,-0.075368,0
10.3955,2.56435,-0.0946648,0
10.1749,2.69524,-0.112741,0
9.95818,2.81978,-0.129968,0
9.86313,2.98779,-0.136501,0
9.77332,3.15702,-0.142048,0
9.68083,3.32431,-0.147311,0
9.58204,3.48784,-0.152575,0
9.45392,3.63499,-0.159831,0
9.32461,3.77917,-0.166706,0
9.19414,3.92042,-0.17319,0
9.06253,4.05876,-0.179294,0
8.92977,4.19431,-0.185046,0
8.76133,4.30319,-0.193532,0
8.57733,4.39644,-0.203014,0
8.39537,4.48585,-0.211989,0
8.21539,4.57152,-0.220475,0
8.0423,4.65778,-0.228005,0
7.87661,4.74574,-0.234499,0
7.71198,4.83056,-0.240593,0
7.54838,4.91231,-0.246286,0
7.38578,4.99104,-0.251559,0
7.2237,5.06645,-0.256501,0
7.05814,5.13414,-0.26155,0
6.89384,5.19899,-0.266179,0
6.73076,5.26113,-0.270456,0
6.56886,5.32062,-0.274382,0
6.40809,5.3775,-0.277927,0
6.15429,-9.06582,0.690784,0
6.40374,-9.07085,0.697142,0
6.65665,-9.07136,0.703548,0
6.91301,-9.06714,0.709984,0
7.17282,-9.05812,0.716478,0
7.43603,-9.04402,0.723001,0
7.70264,-9.02474,0.729554,0
7.97261,-9.0001,0.736146,0
8.24276,-8.96547,0.741995,0
8.51551,-8.92463,0.747777,0
8.79021,-8.8767,0.753353,0
9.05649,-8.80896,0.756468,0
9.32311,-8.73354,0.75928,0
9.58979,-8.65033,0.761771,0
9.8562,-8.55914,0.7639,0
10.122,-8.45988,0.765706,0
10.3869,-8.35244,0.767152,0
10.6598,-8.24543,0.769935,0
10.9626,-8.15745,0.777806,0
11.2658,-8.05983,0.785286,0
11.5606,-7.94561,0.790989,0
11.832,-7.80402,0.792601,0
12.1024,-7.65455,0.794027,0
12.3716,-7.49711,0.795296,0
12.6394,-7.33166,0.796419,0
12.9053,-7.15799,0.797308,0
13.1692,-6.97614,0.79804,0
13.4306,-6.78603,0.798568,0
13.6893,-6.58756,0.79888,0
13.9389,-6.37767,0.798196,0
14.1487,-6.14196,0.792571,0
14.3516,-5.89881,0.786566,0
14.5471,-5.64841,0.78015,0
14.7349,-5.39096,0.773343,0
14.9146,-5.12671,0.766165,0
15.0858,-4.85592,0.758607,0
15.2482,-4.5788,0.750648,0
15.4014,-4.29574,0.742327,0
15.5436,-4.00655,0.73347,0
15.4106,-3.64438,0.694671,0
15.1959,-3.27366,0.648577,0
14.9778,-2.91589,0.603958,0
14.7567,-2.57092,0.560794,0
14.5941,-2.24824,0.525472,0
14.5128,-1.94645,0.500032,0
14.4254,-1.64955,0.47514,0
14.2738,-1.3524,0.444866,0
14.031,-1.0573,0.406712,0
13.7911,-0.774336,0.370237,0
13.5797,-0.503525,0.337864,0
13.3715,-0.242617,0.306995,0
13.1646,0.0087793,0.277396,0
12.9374,0.250029,0.246937,0
12.6905,0.480029,0.215657,0
12.406,0.695928,0.181898,0
12.1099,0.898389,0.14805,0
11.8396,1.09192,0.117611,0
11.5937,1.27829,0.0903547,0
11.3523,1.45559,0.0643098,0
11.1121,1.6236,0.0391633,0
10.8676,1.78116,0.0143781,0
10.6283,1.93055,-0.00925468,0
10.4135,2.07762,-0.0299676,0
10.2062,2.21901,-0.0494012,0
10.002,2.35392,-0.0679559,0
9.80096,2.48264,-0.0856902,0
9.64723,2.62238,-0.0985809,0
9.56557,2.78712,-0.104352,0
9.48122,2.95002,-0.109831,0
9.39423,3.1111,-0.115026,0
9.3046,3.27033,-0.119938,0
9.21239,3.42769,-0.124557,0
9.09771,3.5722,-0.130759,0
8.97408,3.70986,-0.137302,0
8.84923,3.84477,-0.143473,0
8.72318,3.97693,-0.149294,0
8.56628,4.08633,-0.157663,0
8.39193,4.17946,-0.16736,0
8.21928,4.26884,-0.17653,0
8.05261,4.35798,-0.184782,0
7.8934,4.44871,-0.19194,0
7.73509,4.53626,-0.198659,0
7.57765,4.62073,-0.204968,0
7.42106,4.70221,-0.210886,0
7.26528,4.78074,-0.216393,0
7.11029,4.85645,-0.22154,0
