52.5789,-30.5918,-0.164792,0
52.6912,-30.2591,-0.166218,0
52.7985,-29.9267,-0.167389,0
52.9015,-29.595,-0.168259,0
53.0004,-29.2637,-0.168845,0
53.095,-28.9328,-0.169157,0
53.1887,-28.6035,-0.169011,0
53.2994,-28.2814,-0.167546,0
53.4063,-27.9583,-0.165798,0
53.505,-27.6326,-0.164001,0
53.5928,-27.3039,-0.162272,0
53.6767,-26.9742,-0.16029,0
53.7567,-26.6436,-0.158034,0
53.8328,-26.312,-0.155495,0
53.905,-25.9791,-0.152692,0
53.4847,-25.5721,-0.173703,174
54.0379,-25.3096,-0.146276,0
54.0986,-24.9727,-0.142663,0
54.1554,-24.6342,-0.138766,0
54.2008,-24.2937,-0.134948,0
54.2415,-23.9517,-0.130915,0
54.2836,-23.6084,-0.126315,0
54.336,-23.2629,-0.12072,0
54.3845,-22.9149,-0.114831,0
29.5547,-44.9736,0.414188,0
30.0239,-45.2982,0.413607,0
30.5023,-45.6139,0.413128,0
30.9896,-45.9205,0.412733,0
31.4805,-46.232,0.413231,0
31.9808,-46.5349,0.413861,0
32.4905,-46.8275,0.414544,0
33.0124,-47.0993,0.414739,0
33.548,-47.3408,0.413983,0
34.9803,-43.7536,0.212225,174
35.4965,-43.6819,0.198395,174
35.2195,-47.8831,0.406351,0
36.5856,-43.0288,0.147034,174
36.378,-48.0457,0.394808,0
36.9599,-48.1013,0.388939,0
37.942,-43.5747,0.153718,174
38.4624,-42.8852,0.113536,174
38.9454,-42.2773,0.0784224,174
39.3901,-42.1994,0.0704289,174
39.833,-42.4257,0.0780624,174
40.3198,-43.7165,0.138522,174
40.9398,-46.3201,0.263592,174
41.3055,-44.0818,0.15201,174
41.1473,-37.735,-0.159272,174
41.4642,-37.5506,-0.168674,174
41.7794,-37.3997,-0.175987,174
42.0994,-37.3047,-0.180115,174
43.7673,-44.0017,0.148542,174
44.4627,-44.8521,0.192332,0
44.8804,-44.3921,0.172659,0
45.277,-43.9171,0.152821,0
45.6438,-43.4006,0.131473,0
46.0004,-42.912,0.112015,0
46.342,-42.4316,0.0934406,0
46.6692,-41.9583,0.075677,0
46.9807,-41.4873,0.0584602,0
47.2789,-41.0237,0.0420148,0
47.5787,-40.5981,0.027884,0
47.8539,-40.1502,0.0129816,0
48.1134,-39.7013,-0.0016375,0
48.3623,-39.26,-0.0155535,0
48.6009,-38.8261,-0.0287859,0
48.836,-38.4096,-0.0407977,0
49.0766,-38.0219,-0.0509441,0
49.3091,-37.6384,-0.060573,0
49.5334,-37.2588,-0.0696844,0
49.7501,-36.8829,-0.0783172,0
49.9593,-36.5106,-0.0864715,0
50.1591,-36.1389,-0.0943328,0
50.3452,-35.763,-0.102223,0
50.5188,-35.3845,-0.110065,0
50.6856,-35.0101,-0.117458,0
50.8458,-34.6395,-0.124421,0
50.9996,-34.2726,-0.130964,0
51.1474,-33.9091,-0.137116,0
51.2924,-33.5516,-0.142673,0
51.4579,-33.2187,-0.146286,0
51.6184,-32.8869,-0.149567,0
51.7739,-32.556,-0.152516,0
51.9247,-32.2261,-0.155124,0
52.0708,-31.8969,-0.157429,0
52.2124,-31.5683,-0.159421,0
52.3409,-31.235,-0.161569,0
52.4645,-30.9023,-0.163434,0
52.5861,-30.5719,-0.16487,0
52.6977,-30.2389,-0.166305,0
52.8048,-29.9066,-0.167448,0
52.9077,-29.5749,-0.168298,0
53.0062,-29.2437,-0.168874,0
53.1006,-28.9128,-0.169167,0
53.1955,-28.584,-0.168932,0
53.306,-28.2619,-0.167448,0
53.4128,-27.9387,-0.16568,0
53.5104,-27.6127,-0.163903,0
53.598,-27.284,-0.162165,0
53.6816,-26.9543,-0.160163,0
53.7614,-26.6236,-0.157887,0
53.8373,-26.2919,-0.155339,0
53.9093,-25.959,-0.152526,0
53.4838,-25.5519,-0.173753,174
54.0416,-25.2892,-0.146071,0
54.1021,-24.9522,-0.142438,0
54.1587,-24.6137,-0.138512,0
54.2034,-24.273,-0.134723,0
54.2438,-23.931,-0.130661,0
54.287,-23.5875,-0.125983,0
54.339,-23.242,-0.120378,0
54.3873,-22.8938,-0.11446,0
29.5828,-44.9934,0.414144,0
30.0526,-45.3176,0.413582,0
30.5315,-45.6327,0.413099,0
31.0193,-45.9387,0.412713,0
31.5105,-46.2507,0.41327,0
32.0113,-46.5528,0.413895,0
32.5216,-46.8449,0.414588,0
33.0446,-47.1142,0.414691,0
33.5806,-47.355,0.413929,0
35.0332,-43.6567,0.206494,174
35.5205,-43.7114,0.199347,174
35.2537,-47.8925,0.40619,0
36.6112,-43.0475,0.147516,174
36.4131,-48.0494,0.394451,0
36.9952,-48.1041,0.388587,0
37.9707,-43.5771,0.153474,174
38.4954,-42.8004,0.108987,174
38.9726,-42.2683,0.0777113,174
39.4167,-42.2092,0.0706864,174
39.8603,-42.4555,0.079336,174
40.3489,-43.7229,0.138665,174
40.9729,-46.3291,0.263882,174
41.3322,-44.0458,0.150156,174
41.1666,-37.7237,-0.159859,174
41.4832,-37.5396,-0.169222,174
41.7984,-37.3915,-0.176369,174
42.1202,-37.3075,-0.179933,174
43.804,-44.033,0.15018,174
44.4884,-44.8241,0.191121,0
44.9052,-44.3645,0.171492,0
45.2997,-43.8853,0.151487,0
45.6659,-43.3708,0.130267,0
46.0214,-42.8827,0.110872,0
46.3623,-42.4028,0.0923469,0
46.6884,-41.9296,0.0746125,0
46.9991,-41.459,0.0574348,0
47.2967,-40.9962,0.041048,0
47.5965,-40.5726,0.0270637,0
47.8698,-40.1228,0.0120734,0
48.1288,-39.6744,-0.00249687,0
48.377,-39.2336,-0.0163738,0
48.615,-38.8001,-0.0295672,0
48.8508,-38.386,-0.0414324,0
49.091,-37.9986,-0.0515496,0
49.3228,-37.6153,-0.0611394,0
49.5467,-37.2359,-0.0702312,0
49.763,-36.8603,-0.078825,0
49.9718,-36.4882,-0.08695,0
50.1704,-36.1159,-0.0948406,0
50.356,-35.74,-0.102712,0
50.5291,-35.3618,-0.110514,0
50.6955,-34.9876,-0.117887,0
50.8552,-34.6172,-0.124831,0
51.0087,-34.2505,-0.131354,0
51.1562,-33.8872,-0.137477,0
51.3026,-33.5314,-0.142907,0
51.4677,-33.1986,-0.146501,0
51.6278,-32.8668,-0.149753,0
51.7831,-32.536,-0.152673,0
51.9337,-32.2061,-0.15528,0
52.0795,-31.877,-0.157555,0
52.2209,-31.5485,-0.159518,0
52.3483,-31.2147,-0.161706,0
52.472,-30.8823,-0.163532,0
52.5931,-30.5517,-0.164948,0
52.7044,-30.2188,-0.166374,0
52.8112,-29.8865,-0.167507,0
52.9137,-29.5549,-0.168346,0
53.012,-29.2237,-0.168903,0
53.1062,-28.8928,-0.169177,0
53.2023,-28.5646,-0.168854,0
53.3126,-28.2424,-0.16735,0
53.4191,-27.9191,-0.165563,0
53.5159,-27.5929,-0.163805,0
53.6031,-27.264,-0.162057,0
53.6866,-26.9343,-0.160036,0
53.7661,-26.6036,-0.157741,0
53.8418,-26.2718,-0.155173,0
53.9135,-25.9388,-0.152341,0
53.4828,-25.5316,-0.173802,174
54.0454,-25.2689,-0.145856,0
54.1056,-24.9318,-0.142204,0
54.1617,-24.5931,-0.138288,0
54.2059,-24.2524,-0.134479,0
54.2461,-23.9103,-0.130397,0
54.2902,-23.5667,-0.125651,0
54.3421,-23.221,-0.120026,0
54.3901,-22.8726,-0.114089,0
29.6109,-45.0133,0.41411,0
30.0813,-45.3369,0.413553,0
30.5607,-45.6515,0.413079,0
31.0487,-45.9577,0.412733,0
31.5406,-46.2692,0.413309,0
32.042,-46.5708,0.413934,0
32.5528,-46.8622,0.414632,0
33.0768,-47.1291,0.414642,0
33.6133,-47.3692,0.41389,0
35.0743,-43.61,0.203408,174
35.544,-43.7431,0.20042,174
35.288,-47.9018,0.406024,0
36.6368,-43.0663,0.148002,174
36.4484,-48.0532,0.394095,0
37.0304,-48.107,0.388236,0
37.9993,-43.5806,0.153286,174
38.5282,-42.7163,0.104481,174
38.9998,-42.2594,0.0770018,174
39.4433,-42.2191,0.0709469,174
39.8877,-42.487,0.0806916,174
40.3781,-43.7346,0.139071,174
41.0045,-46.3102,0.262814,174
41.3588,-44.0099,0.148311,174
41.186,-37.7125,-0.160443,174
41.5021,-37.5285,-0.169769,174
41.8174,-37.3833,-0.176751,174
42.1443,-37.3292,-0.178827,174
43.8409,-44.0643,0.151826,174
44.5141,-44.7962,0.189915,0
44.9298,-44.3368,0.170325,0
49.2393,-35.6342,-0.028493,0
49.432,-35.2957,-0.0363934,0
49.6178,-34.9593,-0.0438934,0
49.797,-34.6248,-0.0510027,0
49.9698,-34.2922,-0.0577215,0
50.1352,-33.9603,-0.0641375,0
50.2859,-33.6222,-0.0708269,0
50.4534,-33.3073,-0.0754754,0
50.6125,-32.9906,-0.0800066,0
50.7625,-32.6718,-0.0844598,0
50.9072,-32.354,-0.0885809,0
51.0466,-32.0371,-0.0923797,0
51.1808,-31.7212,-0.0958758,0
51.31,-31.406,-0.0990691,0
51.4348,-31.092,-0.101921,0
51.5613,-30.7827,-0.10405,0
51.6833,-30.4736,-0.105895,0
51.8006,-30.1647,-0.107458,0
51.9135,-29.8559,-0.108737,0
52.022,-29.5471,-0.109743,0
52.1261,-29.2384,-0.110466,0
52.2238,-28.9286,-0.111042,0
52.3155,-28.6181,-0.111452,0
52.4168,-28.3128,-0.110778,0
52.5141,-28.0068,-0.109841,0
52.6067,-27.6997,-0.108679,0
52.6937,-27.3912,-0.107341,0
52.7766,-27.0819,-0.105739,0
52.8557,-26.7717,-0.103874,0
52.9309,-26.4605,-0.101745,0
53.0021,-26.1482,-0.0993426,0
53.0695,-25.8349,-0.0966668,0
53.1301,-25.5199,-0.0938934,0
53.183,-25.2033,-0.0910613,0
53.2318,-24.8856,-0.0879656,0
53.2766,-24.5669,-0.084616,0
53.3173,-24.247,-0.0809832,0
53.3541,-23.9258,-0.0770965,0
53.3921,-23.6034,-0.0726238,0
53.4382,-23.2792,-0.0671844,0
53.4802,-22.9526,-0.0614617,0
30.6405,-42.6795,0.43053,0
31.0538,-42.9824,0.431517,0
31.4849,-43.2556,0.431155,0
31.9238,-43.5203,0.430867,0
32.3702,-43.7761,0.430662,0
32.8242,-44.0229,0.43053,0
33.292,-44.2391,0.429163,0
33.7661,-44.4449,0.427864,0
34.2463,-44.6403,0.426629,0
34.9987,-43.6808,0.356786,174
35.5037,-43.654,0.344364,174
35.7325,-45.0979,0.419573,0
36.9687,-40.6313,0.148277,174
36.9699,-43.6778,0.318303,174
37.2742,-45.2884,0.403743,0
37.9514,-43.4812,0.292659,174
38.4758,-42.6922,0.241609,174
39.0371,-40.008,0.0839471,174
39.3916,-42.1757,0.203008,174
39.8338,-42.3874,0.211425,174
40.3189,-43.6546,0.279873,174
40.8542,-44.7322,0.338026,0
41.2984,-43.9772,0.293978,174
41.1214,-37.4747,-0.0714268,174
41.4575,-37.4919,-0.0705865,174
41.7663,-37.3085,-0.0804816,174
42.079,-37.1847,-0.0865453,174
43.5735,-43.0221,0.243109,0
43.9693,-42.64,0.22429,0
44.3515,-42.2591,0.206165,0
44.7203,-41.8794,0.188695,0
45.0764,-41.5012,0.171878,0
45.4107,-41.0956,0.154027,0
45.7362,-40.7055,0.137562,0
46.0525,-40.3256,0.122161,0
46.3577,-39.9487,0.107405,0
46.6519,-39.5748,0.0932746,0
46.9353,-39.2027,0.0796613,0
47.2077,-38.8316,0.0664973,0
47.4712,-38.4653,0.0540266,0
47.7274,-38.1059,0.0423371,0
47.969,-37.7391,0.0305305,0
48.2017,-37.3755,0.0192707,0
48.4259,-37.015,0.00850899,0
48.6418,-36.6576,-0.00175468,0
48.8496,-36.3032,-0.0115398,0
49.0518,-35.9542,-0.0206805,0
49.2511,-35.6137,-0.0289812,0
49.4434,-35.2753,-0.0368719,0
49.6289,-34.939,-0.0443328,0
49.8077,-34.6046,-0.0514227,0
49.9801,-34.2721,-0.0581121,0
50.1445,-33.9398,-0.0645574,0
50.2948,-33.6018,-0.0712176,0
50.4636,-33.2884,-0.0757391,0
50.6216,-32.9713,-0.0802898,0
50.7714,-32.6525,-0.0847137,0
50.9157,-32.3348,-0.0888152,0
51.0548,-32.018,-0.0926141,0
51.1887,-31.7021,-0.0960809,0
51.3176,-31.387,-0.0992547,0
51.4426,-31.0733,-0.102057,0
51.5688,-30.764,-0.104177,0
51.6905,-30.4549,-0.106003,0
51.8076,-30.146,-0.107546,0
51.9202,-29.8372,-0.108805,0
52.0284,-29.5284,-0.109792,0
52.1323,-29.2197,-0.110495,0
52.2295,-28.9098,-0.111081,0
52.3218,-28.5997,-0.111413,0
52.4228,-28.2943,-0.110729,0
52.5198,-27.9882,-0.109782,0
52.612,-27.681,-0.1086,0
52.6987,-27.3725,-0.107253,0
52.7815,-27.0631,-0.105641,0
52.8603,-26.7529,-0.103757,0
52.9352,-26.4416,-0.101608,0
53.0063,-26.1293,-0.0991766,0
53.0735,-25.8159,-0.096491,0
53.1334,-25.5007,-0.0937273,0
53.1861,-25.1841,-0.0908855,0
53.2347,-24.8664,-0.0877801,0
53.2791,-24.5476,-0.0844012,0
53.3197,-24.2276,-0.0807586,0
53.3561,-23.9063,-0.0768621,0
53.3951,-23.5839,-0.0723016,0
53.4409,-23.2595,-0.0668426,0
53.4827,-22.9328,-0.0611004,0
30.665,-42.6986,0.430628,0
31.0796,-42.9991,0.431488,0
31.5112,-43.2719,0.431131,0
31.9506,-43.536,0.430853,0
32.3976,-43.7913,0.430643,0
32.8523,-44.0363,0.430447,0
33.3205,-44.2519,0.42909,0
33.7949,-44.4571,0.427786,0
34.2755,-44.6518,0.426556,0
35.0387,-43.6392,0.353611,174
35.5303,-43.6708,0.34474,174
35.7634,-45.1029,0.419246,0
36.9998,-40.5934,0.145608,174
37.0042,-43.6408,0.315672,174
37.3055,-45.2911,0.403436,0
37.9798,-43.4849,0.292484,174
38.5078,-42.6201,0.237167,174
39.0606,-40.0109,0.0838721,174
39.4181,-42.1848,0.203288,174
39.8609,-42.4048,0.212215,174
40.3478,-43.6562,0.2798,174
40.8838,-44.7184,0.337127,0
41.3229,-43.9156,0.290445,174
41.1412,-37.4717,-0.0716156,174
41.4761,-37.4789,-0.0713063,174
41.7849,-37.2978,-0.0810457,174
42.0997,-37.1874,-0.0863226,174
43.5979,-42.999,0.241946,0
43.9928,-42.6169,0.223177,0
44.3742,-42.236,0.205081,0
44.7423,-41.8565,0.187659,0
45.0976,-41.4784,0.170882,0
45.4302,-41.0705,0.152933,0
45.7557,-40.6824,0.136605,0
46.0712,-40.3027,0.121253,0
46.3757,-39.926,0.106536,0
46.6694,-39.5523,0.0924348,0
46.952,-39.1802,0.0788508,0
47.2237,-38.8092,0.065716,0
47.4871,-38.4438,0.0533137,0
47.7423,-38.0836,0.0416047,0
47.9834,-37.717,0.0298371,0
48.2155,-37.3536,0.0186066,0
48.4391,-36.9933,0.00787422,0
48.6545,-36.6361,-0.00235039,0
48.862,-36.2818,-0.012116,0
49.0641,-35.9335,-0.021198,0
49.263,-35.5932,-0.0294695,0
49.4548,-35.2549,-0.0373309,0
49.6399,-34.9187,-0.044782,0
49.8184,-34.5845,-0.0518328,0
49.9903,-34.2521,-0.0585027,0
50.1537,-33.9193,-0.0649773,0
50.3042,-33.5819,-0.0715789,0
50.4737,-33.2696,-0.075993,0
50.6309,-32.9519,-0.0805633,0
50.7803,-32.6333,-0.0849676,0
50.9243,-32.3156,-0.0890594,0
51.063,-31.9988,-0.0928289,0
51.1966,-31.683,-0.0962762,0
51.3253,-31.3679,-0.0994305,0
51.4504,-31.0546,-0.102184,0
51.5763,-30.7453,-0.104284,0
51.6977,-30.4362,-0.1061,0
51.8145,-30.1273,-0.107624,0
51.9269,-29.8185,-0.108874,0
52.0348,-29.5098,-0.109841,0
52.1384,-29.201,-0.110534,0
52.235,-28.891,-0.11112,0
52.328,-28.5812,-0.111384,0
52.4287,-28.2758,-0.11068,0
52.5255,-27.9697,-0.109714,0
52.6174,-27.6624,-0.108532,0
52.7039,-27.3538,-0.107165,0
52.7864,-27.0444,-0.105534,0
52.8649,-26.7341,-0.103639,0
52.9397,-26.4227,-0.101471,0
53.0105,-26.1104,-0.0990301,0
53.0774,-25.7969,-0.096325,0
53.1367,-25.4816,-0.0935613,0
53.1891,-25.1649,-0.0907,0
53.2375,-24.8471,-0.087575,0
53.2817,-24.5283,-0.0841863,0
53.322,-24.2082,-0.0805242,0
53.3582,-23.8869,-0.0766082,0
53.3979,-23.5643,-0.0719793,0
53.4434,-23.2398,-0.0665008,0
53.4851,-22.913,-0.0607391,0
30.6896,-42.7177,0.430726,0
31.1055,-43.0159,0.431468,0
31.5377,-43.2881,0.431112,0
31.9774,-43.5517,0.430833,0
32.4248,-43.8065,0.430643,0
32.8805,-44.0496,0.430364,0
33.3491,-44.2645,0.429007,0
33.8239,-44.4691,0.427708,0
34.3048,-44.6632,0.426488,0
35.0785,-43.5978,0.350453,174
35.5545,-43.6991,0.345798,174
35.7945,-45.1078,0.418919,0
37.0307,-40.5557,0.142956,174
37.0363,-43.6194,0.313954,174
37.3366,-45.2937,0.403123,0
38.0079,-43.4933,0.292586,174
38.538,-42.5728,0.23415,174
39.084,-40.0148,0.083856,174
39.4446,-42.1939,0.203571,174
39.8882,-42.4357,0.213768,174
40.3769,-43.6646,0.280114,174
40.9134,-44.7046,0.336229,0
40.8676,-37.9484,-0.0443308,174
41.1611,-37.4687,-0.0718031,174
41.4948,-37.4662,-0.0720078,174
41.8035,-37.2877,-0.0815697,174
42.1203,-37.1901,-0.0860985,174
43.6222,-42.9759,0.240794,0
44.0163,-42.5938,0.222064,0
44.3968,-42.2131,0.204017,0
48.6159,-34.8423,0.0209504,0
48.8015,-34.5326,0.0131281,0
48.9807,-34.2242,0.00569649,0
49.1537,-33.917,-0.00135429,0
49.3204,-33.611,-0.00803398,0
49.4867,-33.3116,-0.0138934,0
49.6479,-33.0134,-0.0193621,0
49.8034,-32.7158,-0.0244988,0
49.9538,-32.4189,-0.0293133,0
50.0987,-32.1227,-0.0337957,0
50.2385,-31.827,-0.0379656,0
50.3734,-31.5318,-0.041823,0
50.503,-31.2372,-0.045368,0
50.6317,-30.9454,-0.0483465,0
50.7581,-30.6556,-0.0508465,0
50.8801,-30.3657,-0.0530535,0
50.9938,-30.0737,-0.055241,0
51.1028,-29.7817,-0.0571551,0
51.2071,-29.4896,-0.058825,0
51.307,-29.1976,-0.0601922,0
51.4025,-28.9056,-0.061325,0
51.4952,-28.6142,-0.0620672,0
51.5955,-28.3274,-0.0617547,0
51.692,-28.0399,-0.0611785,0
51.7843,-27.7515,-0.0603484,0
51.8726,-27.4622,-0.0592547,0
51.957,-27.172,-0.0578973,0
52.0374,-26.8808,-0.0562859,0
52.1106,-26.5878,-0.0546258,0
52.1716,-26.2921,-0.0532293,0
52.2331,-25.9966,-0.0512859,0
52.2934,-25.7008,-0.0489227,0
52.3495,-25.404,-0.0463055,0
52.4013,-25.106,-0.0434344,0
52.4491,-24.807,-0.0403289,0
52.4926,-24.5068,-0.0369695,0
52.5319,-24.2054,-0.033366,0
52.5669,-23.9028,-0.0295086,0
52.5977,-23.599,-0.0253973,0
52.6244,-23.2939,-0.021032,0
52.6466,-22.9874,-0.0164227,0
31.5316,-40.7971,0.441478,0
31.9009,-41.0775,0.443568,0
32.282,-41.3429,0.44514,0
32.6779,-41.5832,0.445501,0
33.0913,-41.7859,0.443831,0
33.5145,-41.967,0.441351,0
33.9426,-42.1383,0.438909,0
34.3705,-42.3164,0.437669,0
35.0086,-41.6898,0.382436,174
35.2374,-42.6616,0.436585,0
35.6862,-42.7835,0.433714,0
36.1416,-42.8771,0.429739,0
37.0079,-40.3923,0.256863,174
37.0622,-43.0046,0.420198,0
37.5242,-43.0514,0.415511,0
38.0294,-42.6017,0.379567,174
38.4806,-42.6349,0.375748,174
39.0398,-39.963,0.199457,174
39.428,-39.9994,0.197988,174
39.8344,-42.328,0.343006,174
40.2932,-42.7904,0.369515,0
40.7377,-42.5798,0.354046,0
40.8279,-37.962,0.0604706,174
41.1034,-37.2921,0.0176646,174
41.4207,-37.1946,0.0116405,174
41.7419,-37.1418,0.00899521,174
42.061,-37.0773,0.0061628,174
43.1892,-41.0853,0.262659,0
43.5556,-40.7853,0.246634,0
43.9128,-40.4902,0.231566,0
44.2598,-40.1935,0.216976,0
44.5966,-39.8952,0.202894,0
44.9237,-39.5955,0.18928,0
45.2387,-39.2879,0.175687,0
45.5347,-38.9547,0.160941,0
45.8207,-38.623,0.146761,0
46.1002,-38.2999,0.133616,0
46.3719,-37.9808,0.121185,0
46.6347,-37.6625,0.109241,0
46.889,-37.3452,0.0977766,0
47.1349,-37.0288,0.0867805,0
47.3727,-36.7133,0.0762434,0
47.6027,-36.3989,0.0661359,0
47.8191,-36.0762,0.0558039,0
48.0313,-35.7606,0.046302,0
48.2369,-35.4469,0.0372785,0
48.4355,-35.1345,0.0286652,0
48.6273,-34.8236,0.0204719,0
48.8125,-34.5139,0.0126691,0
48.9913,-34.2056,0.00525703,0
49.1639,-33.8985,-0.00176445,0
49.3304,-33.5925,-0.00842461,0
49.4967,-33.2935,-0.0142254,0
49.6574,-32.9953,-0.0196844,0
49.8127,-32.6978,-0.0248016,0
49.9627,-32.401,-0.0295867,0
50.1073,-32.1048,-0.0340594,0
50.2468,-31.8091,-0.0382098,0
50.3813,-31.514,-0.0420379,0
50.5108,-31.2193,-0.045573,0
50.6395,-30.9279,-0.0485027,0
50.7657,-30.638,-0.050993,0
50.8873,-30.3482,-0.0531805,0
51.0005,-30.056,-0.055368,0
51.1092,-29.764,-0.0572723,0
51.2133,-29.472,-0.0589129,0
51.3129,-29.18,-0.0602703,0
51.4081,-28.8879,-0.0613738,0
51.5013,-28.5968,-0.0620574,0
51.6016,-28.31,-0.0617352,0
51.6976,-28.0225,-0.0611394,0
51.7897,-27.734,-0.0602898,0
51.8779,-27.4447,-0.0591766,0
51.962,-27.1544,-0.0578094,0
52.0421,-26.8632,-0.0561785,0
52.1145,-26.57,-0.0545379,0
52.1752,-26.2742,-0.0531316,0
52.2369,-25.9788,-0.0511492,0
52.2969,-25.6829,-0.0487664,0
52.3527,-25.386,-0.0461297,0
52.4044,-25.088,-0.0432586,0
52.4519,-24.7889,-0.0401238,0
52.4951,-24.4886,-0.0367547,0
52.5341,-24.1872,-0.0331414,0
52.5689,-23.8845,-0.0292645,0
52.5995,-23.5806,-0.0251434,0
52.6258,-23.2754,-0.0207586,0
52.6478,-22.9688,-0.0161297,0
31.5536,-40.8144,0.441614,0
31.9237,-41.0938,0.443665,0
32.3053,-41.3588,0.445237,0
32.7022,-41.597,0.445491,0
33.1167,-41.7971,0.443685,0
33.5402,-41.9776,0.441195,0
33.9686,-42.1483,0.438763,0
34.3964,-42.3274,0.43764,0
35.0336,-41.7003,0.382436,174
35.2641,-42.6714,0.436556,0
35.7135,-42.7902,0.433529,0
36.1693,-42.8817,0.429446,0
37.0384,-40.3555,0.253971,174
37.0902,-43.0077,0.419915,0
37.5523,-43.0539,0.415237,0
38.0558,-42.6143,0.379998,174
38.5094,-42.6118,0.373927,174
39.0633,-39.9636,0.199248,174
39.4512,-40.0198,0.199083,174
39.8614,-42.3468,0.34401,174
40.3203,-42.7779,0.368568,0
40.7643,-42.5669,0.353128,0
40.8349,-37.7895,0.0495108,174
41.1227,-37.2862,0.0172847,174
41.4398,-37.1887,0.0112936,174
41.7618,-37.1416,0.00904392,174
42.0796,-37.0696,0.00576546,174
43.2116,-41.0661,0.261605,0
43.5776,-40.7675,0.245716,0
43.9341,-40.4724,0.230667,0
44.2804,-40.1755,0.216116,0
44.6166,-39.8771,0.202054,0
44.9431,-39.5773,0.18847,0
45.2569,-39.2677,0.174788,0
45.5523,-38.9347,0.160071,0
45.8377,-38.6029,0.145921,0
46.1169,-38.2806,0.132855,0
46.388,-37.9615,0.120452,0
46.6503,-37.6433,0.108538,0
46.9041,-37.326,0.0971027,0
47.1495,-37.0097,0.0861457,0
47.3869,-36.6943,0.0756184,0
47.6164,-36.3799,0.0655402,0
47.8318,-36.0566,0.0551789,0
48.0441,-35.7416,0.0457453,0
48.2491,-35.4279,0.0367414,0
48.4473,-35.1157,0.0281574,0
48.6387,-34.8048,0.0199836,0
48.8234,-34.4952,0.0122102,0
49.002,-34.187,0.00482735,0
49.1741,-33.8799,-0.00218437,0
49.3405,-33.5744,-0.0087957,0
49.5066,-33.2755,-0.0145672,0
49.667,-32.9773,-0.0199969,0
49.822,-32.6799,-0.0251043,0
49.9716,-32.3831,-0.0298699,0
50.1159,-32.0869,-0.034323,0
50.2551,-31.7913,-0.0384441,0
50.3892,-31.4962,-0.0422625,0
50.5184,-31.2015,-0.0457684,0
50.6473,-30.9104,-0.048659,0
50.7731,-30.6205,-0.0511297,0
50.8943,-30.3305,-0.0533172,0
51.0073,-30.0384,-0.0554852,0
51.1156,-29.7463,-0.0573797,0
51.2195,-29.4543,-0.0590008,0
51.3188,-29.1623,-0.0603582,0
51.4137,-28.8702,-0.0614422,0
51.5075,-28.5795,-0.0620477,0
51.6074,-28.2927,-0.0617059,0
51.7033,-28.005,-0.0611004,0
51.7952,-27.7165,-0.0602312,0
51.883,-27.4272,-0.0590984,0
51.9669,-27.1368,-0.0577215,0
52.0468,-26.8455,-0.0560711,0
52.1182,-26.5521,-0.0544598,0
52.1787,-26.2562,-0.0530437,0
52.2406,-25.9609,-0.0510223,0
52.3004,-25.665,-0.0486199,0
52.3559,-25.368,-0.0459637,0
52.4073,-25.0699,-0.043073,0
52.4545,-24.7708,-0.0399285,0
52.4975,-24.4704,-0.0365398,0
52.5363,-24.1689,-0.032907,0
52.5709,-23.8662,-0.0290203,0
52.6012,-23.5621,-0.0248894,0
52.6272,-23.2568,-0.0204949,0
52.649,-22.9502,-0.0158465,0
31.5755,-40.8317,0.441761,0
31.9466,-41.11,0.443753,0
32.3286,-41.3746,0.445335,0
32.7266,-41.6108,0.445472,0
33.1423,-41.8083,0.443529,0
33.566,-41.9882,0.441058,0
33.9947,-42.1583,0.438626,0
34.4223,-42.3384,0.437611,0
35.0475,-41.7547,0.385427,174
35.2905,-42.6812,0.436517,0
35.7409,-42.7968,0.433333,0
36.197,-42.8861,0.429154,0
37.0661,-40.3358,0.252212,174
37.118,-43.0109,0.419632,0
37.5802,-43.0563,0.414964,0
38.0821,-42.6278,0.380491,174
38.5382,-42.5887,0.372113,174
39.0867,-39.9687,0.199327,174
39.4744,-40.0477,0.200657,174
39.8885,-42.3656,0.345018,174
40.3475,-42.7653,0.36762,0
40.7908,-42.5539,0.3522,0
40.8454,-37.6662,0.0416689,174
41.1419,-37.2803,0.0169069,174
41.4589,-37.1828,0.0109486,174
41.7817,-37.1415,0.00909451,174
42.0999,-37.0719,0.0060083,174
43.2337,-41.0469,0.26054,0
43.5994,-40.7497,0.244788,0
43.9554,-40.4544,0.229769,0
48.0684,-34.147,0.0643781,0
48.2471,-33.8618,0.056673,0
48.4201,-33.5775,0.0493684,0
48.5919,-33.2991,0.0429035,0
48.7581,-33.0211,0.0367805,0
48.9188,-32.7433,0.031009,0
49.0742,-32.4659,0.0255695,0
49.2245,-32.1888,0.0204523,0
49.3695,-31.9119,0.0156574,0
49.5077,-31.6338,0.011009,0
49.6399,-31.3553,0.00659492,0
49.768,-31.0776,0.00254219,0
49.896,-30.8036,-0.000817184,0
50.0192,-30.5295,-0.00389336,0
50.1378,-30.2554,-0.00667656,0
50.2519,-29.9812,-0.00919609,0
50.3613,-29.7068,-0.0114324,0
50.4664,-29.4324,-0.0134148,0
50.5671,-29.1578,-0.0151141,0
50.6634,-28.883,-0.0165594,0
50.7571,-28.6088,-0.0176043,0
50.8569,-28.3387,-0.0176336,0
50.9527,-28.0679,-0.0173895,0
51.0447,-27.7961,-0.0169012,0
51.1273,-27.5217,-0.0165301,0
51.2023,-27.2454,-0.0161785,0
51.2728,-26.9684,-0.0156023,0
51.3392,-26.6909,-0.0147723,0
51.4013,-26.4128,-0.0137176,0
51.4604,-26.1343,-0.0123602,0
51.521,-25.8562,-0.0103484,0
51.5777,-25.5772,-0.00808281,0
51.63,-25.2971,-0.00559257,0
51.6784,-25.0161,-0.00286797,0
51.7227,-24.734,0.00011055,0
51.7628,-24.4509,0.00333321,0
51.7987,-24.1666,0.00678047,0
51.8306,-23.8813,0.0104816,0
51.8584,-23.5949,0.014427,0
51.8818,-23.3073,0.0186262,0
51.9011,-23.0185,0.0230598,0
32.2877,-39.1993,0.446263,0
32.6252,-39.4486,0.448392,0
32.9749,-39.6798,0.449652,0
33.3378,-39.8874,0.449652,0
33.7069,-40.0866,0.449652,0
34.089,-40.256,0.448001,0
34.4762,-40.415,0.446273,0
34.8679,-40.5647,0.444564,0
35.2638,-40.7049,0.442864,0
35.7817,-40.329,0.403334,174
36.0749,-40.9211,0.436898,0
36.484,-41.0182,0.434261,0
37.0368,-40.2178,0.366798,174
37.3105,-41.1751,0.428529,0
37.7277,-41.2297,0.425101,0
38.2199,-40.4311,0.361202,174
38.5758,-41.1529,0.407298,0
39.0422,-39.9268,0.315048,174
39.43,-39.9311,0.311494,174
39.8252,-40.9518,0.380599,0
40.2107,-40.1026,0.31807,174
40.6359,-40.7007,0.358538,0
40.7885,-37.4498,0.128396,174
41.0864,-37.1194,0.104907,174
41.3998,-37.0239,0.0985783,174
41.7105,-36.9281,0.0928278,174
42.0197,-36.8372,0.0880059,174
42.8843,-39.5477,0.282279,0
43.2241,-39.2991,0.268021,0
43.555,-39.0473,0.254173,0
43.877,-38.7925,0.240726,0
44.1902,-38.535,0.227669,0
44.4977,-38.2835,0.215628,0
44.7971,-38.0296,0.203987,0
45.0884,-37.7733,0.192698,0
45.3645,-37.4966,0.180443,0
45.6291,-37.2112,0.16803,0
45.8853,-36.9255,0.156058,0
46.1334,-36.6397,0.144525,0
46.3737,-36.3537,0.133431,0
46.6063,-36.0678,0.122728,0
46.8395,-35.7961,0.113568,0
47.0662,-35.5244,0.104818,0
47.2863,-35.2521,0.0964387,0
47.4998,-34.9794,0.0884113,0
47.7041,-34.7022,0.0803938,0
47.8949,-34.4156,0.0719465,0
48.0794,-34.1297,0.0638996,0
48.2578,-33.8446,0.0562141,0
48.4306,-33.5607,0.048968,0
48.6021,-33.2823,0.0425227,0
48.768,-33.0043,0.0364289,0
48.9284,-32.7266,0.030677,0
49.0835,-32.4492,0.0252473,0
49.2334,-32.1721,0.0201496,0
49.3781,-31.8952,0.0153742,0
49.5159,-31.617,0.0107355,0
49.6478,-31.3384,0.00633125,0
49.7759,-31.061,0.00232735,0
49.9035,-30.787,-0.00100273,0
50.0265,-30.5129,-0.00406914,0
50.1448,-30.2388,-0.00684258,0
50.2586,-29.9646,-0.00933281,0
50.3678,-29.6902,-0.0115691,0
50.4727,-29.4158,-0.0135223,0
50.573,-29.1412,-0.0152117,0
50.6691,-28.8664,-0.0166277,0
50.7633,-28.5925,-0.0176238,0
50.8629,-28.3224,-0.0176238,0
50.9584,-28.0514,-0.0173797,0
51.05,-27.7797,-0.0168621,0
51.132,-27.505,-0.0165105,0
51.2066,-27.2286,-0.0161492,0
51.277,-26.9517,-0.0155535,0
51.343,-26.6741,-0.0147234,0
51.405,-26.3959,-0.0136492,0
51.4641,-26.1175,-0.012243,0
51.5245,-25.8394,-0.0102117,0
51.5809,-25.5603,-0.00795586,0
51.6331,-25.2802,-0.00543632,0
51.6812,-24.9991,-0.00269218,0
51.7252,-24.7169,0.000296097,0
51.7651,-24.4337,0.00352852,0
51.8008,-24.1494,0.00700508,0
51.8324,-23.864,0.010716,0
51.8598,-23.5775,0.0146809,0
51.8831,-23.2898,0.0188801,0
51.9021,-23.001,0.023343,0
32.3079,-39.2146,0.44639,0
32.6459,-39.4635,0.448519,0
32.9967,-39.6926,0.449652,0
33.36,-39.8997,0.449652,0
33.7295,-40.0982,0.449632,0
34.1123,-40.2658,0.447894,0
34.4998,-40.4243,0.446175,0
34.8917,-40.5734,0.444456,0
35.288,-40.7131,0.442767,0
35.8326,-40.2186,0.394435,174
36.0996,-40.9273,0.436741,0
36.6064,-40.4869,0.394624,174
37.06,-40.2259,0.366899,174
37.3356,-41.1792,0.428362,0
37.7532,-41.232,0.424847,0
38.1786,-41.1968,0.415814,0
38.6012,-41.1498,0.406741,0
39.0655,-39.9317,0.315141,174
39.4533,-39.9426,0.312101,174
39.8501,-40.9465,0.380052,0
40.2345,-40.1023,0.317928,174
40.6599,-40.6905,0.357728,0
40.8052,-37.4088,0.125473,174
41.1055,-37.1136,0.104507,174
41.4187,-37.0181,0.0982143,174
41.7292,-36.9223,0.0924985,174
42.0392,-36.8368,0.0880981,174
42.9051,-39.5328,0.281409,0
43.2444,-39.284,0.267181,0
43.5748,-39.0319,0.253343,0
43.8962,-38.777,0.239925,0
44.2091,-38.5196,0.226917,0
44.516,-38.2682,0.214915,0
44.8148,-38.0142,0.203284,0
45.1059,-37.7578,0.192034,0
45.3808,-37.4794,0.179681,0
45.6448,-37.1939,0.167298,0
45.9005,-36.9082,0.155355,0
46.1482,-36.6224,0.143851,0
46.388,-36.3364,0.132767,0
46.6203,-36.0509,0.122132,0
46.8534,-35.7797,0.11303,0
47.0798,-35.5079,0.1043,0
47.2995,-35.2356,0.0959309,0
47.5126,-34.9629,0.087923,0
47.7158,-34.6848,0.0798664,0
47.9062,-34.3983,0.0714484,0
48.0904,-34.1125,0.0634211,0
48.2684,-33.8274,0.0557648,0
48.4412,-33.5438,0.0485676,0
48.6123,-33.2655,0.0421418,0
48.7778,-32.9875,0.0360773,0
48.9379,-32.7098,0.0303352,0
49.0927,-32.4324,0.024925,0
49.2423,-32.1553,0.0198566,0
49.3868,-31.8785,0.015091,0
49.5241,-31.6001,0.0104621,0
49.6556,-31.3216,0.00607735,0
49.7837,-31.0444,0.00212227,0
49.9112,-30.7704,-0.00119804,0
50.0338,-30.4963,-0.00424492,0
50.1519,-30.2222,-0.00699882,0
50.2654,-29.948,-0.00947929,0
50.3743,-29.6736,-0.0116863,0
50.4788,-29.3991,-0.0136297,0
50.5789,-29.1245,-0.0152996,0
50.6748,-28.8497,-0.0167156,0
50.7694,-28.5762,-0.0176238,0
50.8687,-28.306,-0.0176141,0
50.9641,-28.035,-0.0173504,0
51.0555,-27.7632,-0.016823,0
51.1366,-27.4883,-0.0165008,0
51.2109,-27.2119,-0.0161199,0
51.2811,-26.9349,-0.0155145,0
51.3469,-26.6573,-0.0146648,0
51.4086,-26.3791,-0.0135809,0
51.4679,-26.1007,-0.0121258,0
51.5281,-25.8225,-0.0100848,0
51.5842,-25.5433,-0.00779961,0
51.6362,-25.2632,-0.00528008,0
51.684,-24.982,-0.0025164,0
51.7277,-24.6998,0.000481644,0
51.7673,-24.4165,0.00372383,0
51.8028,-24.1322,0.00721992,0
51.8342,-23.8467,0.0109504,0
51.8614,-23.5601,0.014925,0
51.8844,-23.2724,0.0191438,0
51.9031,-22.9834,0.0236262,0
32.3282,-39.2298,0.446517,0
32.6666,-39.4784,0.448655,0
33.0185,-39.7054,0.449652,0
33.3821,-39.912,0.449652,0
33.7525,-40.1086,0.449534,0
34.1355,-40.2757,0.447796,0
34.5234,-40.4336,0.446068,0
34.9155,-40.5821,0.444359,0
35.3124,-40.7198,0.442552,0
35.8634,-40.194,0.391957,174
36.1242,-40.9335,0.436585,0
36.6404,-40.4373,0.390434,174
37.0815,-40.2448,0.367789,174
37.3608,-41.1833,0.428196,0
37.7787,-41.232,0.424427,0
38.2042,-41.1943,0.415257,0
38.6268,-41.1466,0.406204,0
39.0888,-39.9368,0.315253,174
39.476,-40.002,0.316111,174
39.8749,-40.9412,0.379495,0
40.2582,-40.1039,0.317918,174
40.6839,-40.6802,0.356937,0
40.8219,-37.368,0.12257,174
41.1245,-37.1079,0.10411,174
41.4375,-37.0123,0.0978519,174
41.7479,-36.9165,0.0921707,174
42.059,-36.8379,0.0882956,174
42.9259,-39.5178,0.28054,0
43.2647,-39.2688,0.266331,0
43.5945,-39.0166,0.252523,0
47.5807,-33.5276,0.102425,0
47.7578,-33.2696,0.0954621,0
47.9272,-33.0089,0.0885871,0
48.0909,-32.7482,0.0820441,0
48.2493,-32.4874,0.0758234,0
48.4024,-32.2266,0.0699348,0
48.5502,-31.9658,0.0643488,0
48.6929,-31.705,0.0590754,0
48.8305,-31.4442,0.0540949,0
48.9633,-31.1834,0.0494172,0
49.0948,-30.9255,0.0454035,0
49.2227,-30.6684,0.0417707,0
49.3462,-30.411,0.0384211,0
49.4652,-30.1533,0.0353449,0
49.5796,-29.8953,0.032552,0
49.6897,-29.6371,0.0300227,0
49.7954,-29.3786,0.0277668,0
49.8967,-29.1197,0.0257551,0
49.9939,-28.8606,0.0240168,0
50.0855,-28.6005,0.022425,0
50.1781,-28.3425,0.0215266,0
50.2665,-28.0839,0.0208625,0
50.3506,-27.8247,0.0204426,0
50.4305,-27.5649,0.0202473,0
50.5063,-27.3045,0.0202961,0
50.578,-27.0434,0.0205695,0
50.6455,-26.7817,0.0210773,0
50.7089,-26.5195,0.0218195,0
50.7682,-26.2565,0.0227863,0
50.8276,-25.9939,0.0243195,0
50.8849,-25.7308,0.0262336,0
50.9381,-25.4667,0.028382,0
50.9874,-25.2017,0.0307648,0
51.0327,-24.9358,0.0333723,0
51.0739,-24.6688,0.0362238,0
51.1111,-24.4009,0.0393,0
51.1442,-24.132,0.0426301,0
51.1734,-23.8621,0.0461848,0
51.1984,-23.5912,0.0499738,0
51.2194,-23.3192,0.0540168,0
51.2362,-23.0462,0.0582844,0
32.909,-37.8866,0.451683,0
33.2337,-38.0801,0.451068,0
33.5638,-38.2663,0.450482,0
33.8992,-38.445,0.449925,0
34.2384,-38.6192,0.449652,0
34.5816,-38.7886,0.449652,0
34.9305,-38.9477,0.449476,0
35.2888,-39.082,0.447923,0
35.658,-39.1806,0.444134,0
36.0295,-39.2694,0.440335,0
36.403,-39.3489,0.436536,0
36.7784,-39.4189,0.432757,0
37.1533,-39.493,0.430081,0
37.5295,-39.5612,0.427698,0
37.9109,-39.5903,0.422972,0
38.2967,-39.5611,0.414427,0
38.6802,-39.5222,0.405941,0
39.0612,-39.4736,0.397513,0
39.4392,-39.4155,0.389144,0
39.8141,-39.3482,0.380843,0
40.1858,-39.2717,0.37262,0
40.5517,-39.1482,0.361517,0
40.7741,-37.2575,0.213892,174
41.0704,-36.9558,0.190459,174
41.3794,-36.8572,0.183458,174
41.6881,-36.7748,0.178352,174
42.0079,-36.7661,0.179636,174
42.6255,-38.2434,0.297757,0
42.9445,-38.0454,0.285892,0
43.2539,-37.8329,0.273538,0
43.5559,-37.6169,0.261546,0
43.8505,-37.3976,0.249886,0
44.1378,-37.1752,0.238568,0
44.418,-36.9498,0.227591,0
44.6911,-36.7216,0.216946,0
44.9571,-36.4907,0.206634,0
45.2148,-36.254,0.196351,0
45.4588,-36.0007,0.185208,0
45.7005,-35.7564,0.175296,0
45.9357,-35.511,0.165765,0
46.1643,-35.2645,0.156595,0
46.3866,-35.0169,0.147777,0
46.6025,-34.7682,0.13931,0
46.8123,-34.5187,0.131195,0
47.016,-34.2683,0.123411,0
47.2137,-34.017,0.11595,0
47.4056,-33.765,0.108831,0
47.5919,-33.5122,0.102015,0
47.7682,-33.2538,0.0950324,0
47.9372,-32.9931,0.088177,0
48.1006,-32.7324,0.0816535,0
48.2587,-32.4716,0.0754621,0
48.4114,-32.2108,0.0695832,0
48.559,-31.95,0.0640168,0
48.7013,-31.6892,0.0587629,0
48.8387,-31.4284,0.053802,0
48.9711,-31.1676,0.0491535,0
49.1026,-30.91,0.0451691,0
49.2304,-30.6528,0.0415559,0
49.3536,-30.3954,0.038216,0
49.4723,-30.1377,0.0351691,0
49.5864,-29.8797,0.0323859,0
49.6962,-29.6214,0.0298664,0
49.8016,-29.3629,0.0276301,0
49.9027,-29.1041,0.0256477,0
49.9997,-28.8449,0.0239191,0
50.0912,-28.5849,0.0223664,0
50.1835,-28.3269,0.0214777,0
50.2717,-28.0683,0.0208332,0
50.3556,-27.809,0.020423,0
50.4353,-27.5492,0.0202473,0
50.5108,-27.2887,0.0202961,0
50.5822,-27.0276,0.0205988,0
50.6495,-26.7659,0.0211164,0
50.7126,-26.5036,0.0218684,0
50.7716,-26.2406,0.0228547,0
50.8312,-25.978,0.024427,0
50.8882,-25.7148,0.0263605,0
50.9412,-25.4507,0.0285188,0
50.9903,-25.1856,0.0309113,0
51.0353,-24.9196,0.0335383,0
51.0762,-24.6527,0.0364094,0
51.1132,-24.3847,0.0394953,0
51.1462,-24.1157,0.0428352,0
51.175,-23.8457,0.0463996,0
51.1998,-23.5747,0.0502082,0
51.2205,-23.3027,0.0542609,0
51.237,-23.0296,0.0585578,0
32.9285,-37.8986,0.451654,0
33.2536,-38.0916,0.451028,0
33.584,-38.2773,0.450443,0
33.9196,-38.4556,0.449886,0
34.259,-38.6297,0.449652,0
34.6025,-38.7985,0.449652,0
34.952,-38.9561,0.449378,0
35.311,-39.0886,0.447728,0
35.6804,-39.1862,0.443909,0
36.052,-39.2745,0.440111,0
36.4257,-39.3534,0.436302,0
36.8013,-39.4228,0.432523,0
37.1759,-39.4974,0.429935,0
37.5523,-39.565,0.427552,0
37.9343,-39.5888,0.422454,0
38.32,-39.5591,0.413919,0
38.7034,-39.5195,0.405433,0
39.0841,-39.4703,0.397005,0
39.462,-39.4117,0.388636,0
39.8367,-39.3438,0.380345,0
40.2081,-39.2668,0.372122,0
40.5737,-39.1402,0.360823,0
40.7907,-37.2176,0.210772,174
41.0887,-36.9459,0.189711,174
41.3981,-36.8515,0.183078,174
41.7069,-36.7713,0.17818,174
42.0318,-36.791,0.18172,174
42.6454,-38.2336,0.297181,0
42.9634,-38.0327,0.28514,0
43.2723,-37.82,0.272816,0
43.5738,-37.6037,0.260833,0
43.868,-37.3842,0.249193,0
44.155,-37.1616,0.237894,0
44.4347,-36.936,0.226937,0
44.7073,-36.7077,0.216312,0
44.973,-36.4767,0.206019,0
45.2297,-36.2385,0.195648,0
45.4736,-35.9859,0.184593,0
45.7149,-35.7416,0.17471,0
45.9498,-35.4961,0.165198,0
46.178,-35.2495,0.156048,0
46.3998,-35.0019,0.147259,0
46.6153,-34.7532,0.138812,0
46.8248,-34.5036,0.130716,0
47.0281,-34.2531,0.122952,0
47.2255,-34.0018,0.115511,0
47.4171,-33.7497,0.108411,0
47.603,-33.4969,0.101614,0
47.7786,-33.2381,0.0946125,0
47.9473,-32.9774,0.0877766,0
48.1104,-32.7166,0.0812727,0
48.2681,-32.4558,0.0751008,0
48.4205,-32.195,0.0692316,0
48.5677,-31.9342,0.0636848,0
48.7098,-31.6734,0.0584504,0
48.8469,-31.4127,0.0535188,0
48.9789,-31.1519,0.0488801,0
49.1105,-30.8944,0.0449445,0
49.238,-30.6372,0.0413508,0
49.3609,-30.3798,0.0380305,0
49.4793,-30.1221,0.0349934,0
49.5932,-29.8641,0.0322297,0
49.7027,-29.6058,0.0297297,0
49.8078,-29.3472,0.0275031,0
49.9087,-29.0884,0.0255402,0
50.0054,-28.8292,0.0238215,0
50.097,-28.5693,0.0223078,0
50.189,-28.3112,0.0214289,0
50.2769,-28.0526,0.0208039,0
50.3605,-27.7933,0.0204035,0
50.44,-27.5334,0.0202375,0
50.5152,-27.2729,0.0203156,0
50.5864,-27.0118,0.0206184,0
50.6534,-26.7501,0.0211555,0
50.7163,-26.4877,0.021927,0
50.775,-26.2247,0.022923,0
50.8348,-25.9621,0.0245344,0
50.8915,-25.6989,0.0264875,0
50.9443,-25.4347,0.0286555,0
50.993,-25.1696,0.0310676,0
51.0379,-24.9035,0.0337043,0
51.0786,-24.6365,0.0365852,0
51.1153,-24.3684,0.0396906,0
51.148,-24.0994,0.0430402,0
51.1766,-23.8294,0.046634,0
51.2012,-23.5583,0.0504523,0
51.2216,-23.2862,0.0545148,0
51.2379,-23.0131,0.0588215,0
32.948,-37.9104,0.451605,0
33.2734,-38.103,0.450999,0
33.6042,-38.2883,0.450404,0
33.9401,-38.4661,0.449857,0
34.2796,-38.6402,0.449652,0
34.6234,-38.8085,0.449652,0
34.9736,-38.9645,0.44929,0
35.3333,-39.0947,0.447493,0
35.7027,-39.1918,0.443675,0
36.0745,-39.2795,0.439876,0
36.4484,-39.3579,0.436077,0
36.824,-39.4267,0.432298,0
37.1987,-39.5017,0.429788,0
37.5752,-39.5688,0.427405,0
37.9577,-39.5873,0.421937,0
38.3433,-39.5569,0.413402,0
38.7265,-39.5168,0.404925,0
39.107,-39.467,0.396497,0
39.4848,-39.4079,0.388138,0
39.8593,-39.3394,0.379857,0
40.2305,-39.2618,0.371634,0
40.5956,-39.1321,0.36013,0
40.8071,-37.1779,0.207671,174
41.1075,-36.9395,0.18924,174
41.4167,-36.8458,0.182699,174
41.7257,-36.7678,0.17801,174
42.0562,-36.8184,0.183999,174
42.6653,-38.2237,0.296614,0
42.9823,-38.0199,0.284378,0
43.2908,-37.807,0.272073,0
47.1287,-32.9534,0.133978,0
47.302,-32.718,0.12764,0
47.4701,-32.4817,0.121585,0
47.633,-32.2445,0.115843,0
47.7862,-32.0016,0.109798,0
47.9338,-31.7578,0.104007,0
48.0765,-31.5137,0.0985285,0
48.2143,-31.2694,0.093343,0
48.3488,-31.0262,0.0886164,0
48.4814,-30.7849,0.084466,0
48.6095,-30.5431,0.0805988,0
48.733,-30.3008,0.0770051,0
48.8523,-30.0581,0.073675,0
48.9671,-29.815,0.0706184,0
49.073,-29.5685,0.0673762,0
49.1736,-29.3212,0.0643195,0
49.2698,-29.0736,0.0614875,0
49.3614,-28.8259,0.0589191,0
49.4516,-28.5793,0.0568391,0
49.5446,-28.3361,0.055677,0
49.6337,-28.0921,0.0547492,0
49.7185,-27.8474,0.0540559,0
49.7993,-27.6021,0.0535969,0
49.8761,-27.3561,0.0533527,0
49.9487,-27.1094,0.0533527,0
50.0173,-26.8621,0.0535773,0
50.082,-26.6141,0.0540266,0
50.1427,-26.3654,0.0546906,0
50.2006,-26.1165,0.0557063,0
50.2588,-25.8677,0.057298,0
50.313,-25.618,0.0591145,0
50.3634,-25.3674,0.0611652,0
50.4098,-25.116,0.0634406,0
50.4523,-24.8636,0.0659406,0
50.4909,-24.6103,0.068675,0
50.5255,-24.356,0.071634,0
50.5563,-24.1009,0.0748273,0
50.583,-23.8448,0.0782453,0
50.6058,-23.5878,0.0818977,0
50.6245,-23.3299,0.0857844,0
50.6392,-23.0711,0.0898957,0
33.4398,-36.765,0.455228,0
33.7404,-36.9407,0.454671,0
34.0458,-37.1096,0.454134,0
34.3559,-37.2716,0.453626,0
34.6705,-37.4264,0.453138,0
34.9893,-37.574,0.452669,0
35.313,-37.7124,0.452054,0
35.6496,-37.8112,0.448548,0
35.9887,-37.9015,0.445042,0
36.3298,-37.9832,0.441546,0
36.6728,-38.0565,0.43807,0
37.0174,-38.121,0.434593,0
37.3636,-38.1769,0.431126,0
37.7109,-38.2241,0.427698,0
38.064,-38.2199,0.42057,0
38.4163,-38.1992,0.412825,0
38.7669,-38.17,0.405169,0
39.1154,-38.1322,0.397571,0
39.4615,-38.0861,0.390062,0
39.8051,-38.0317,0.38262,0
40.146,-37.9693,0.375277,0
40.4831,-37.8813,0.366527,0
40.7601,-37.0702,0.297153,174
41.0566,-36.8151,0.275704,174
41.3636,-36.7271,0.26914,174
41.673,-36.6702,0.265905,174
42.0083,-36.7648,0.276291,174
42.4072,-37.1425,0.311614,0
42.7103,-36.9956,0.302904,0
42.9995,-36.8072,0.291292,0
43.2821,-36.6151,0.279993,0
43.5583,-36.4195,0.269007,0
43.828,-36.2206,0.258323,0
44.0919,-36.0207,0.248148,0
44.353,-35.8265,0.239046,0
44.6082,-35.6292,0.230237,0
44.8578,-35.429,0.221722,0
45.1016,-35.2259,0.213499,0
45.3339,-35.0083,0.204476,0
45.5577,-34.7836,0.195296,0
45.7753,-34.5574,0.186439,0
45.9872,-34.3299,0.177933,0
46.1933,-34.101,0.169749,0
46.3936,-33.8709,0.161898,0
46.5883,-33.6396,0.154359,0
46.7773,-33.4072,0.147122,0
46.9611,-33.1737,0.140208,0
47.1394,-32.9392,0.133587,0
47.3123,-32.7038,0.127269,0
47.4802,-32.4674,0.121243,0
47.6427,-32.2301,0.115491,0
47.7952,-31.9868,0.109437,0
47.9426,-31.743,0.103675,0
48.085,-31.4989,0.0981965,0
48.2224,-31.2546,0.0930402,0
48.357,-31.0116,0.0883625,0
48.4893,-30.7702,0.0842219,0
48.6171,-30.5284,0.0803742,0
48.7404,-30.2862,0.0768,0
48.8594,-30.0435,0.0734895,0
48.9739,-29.8003,0.0704523,0
49.0792,-29.5535,0.0671906,0
49.1795,-29.3062,0.064134,0
49.2755,-29.0587,0.0613313,0
49.3669,-28.8109,0.0587629,0
49.4573,-28.5646,0.0567609,0
49.5502,-28.3213,0.0556184,0
49.6389,-28.0773,0.0547004,0
49.7236,-27.8326,0.0540168,0
49.8041,-27.5872,0.0535676,0
49.8806,-27.3412,0.0533527,0
49.953,-27.0945,0.0533625,0
50.0215,-26.8471,0.0535969,0
50.0859,-26.5991,0.0540559,0
50.1462,-26.3504,0.0547395,0
50.2043,-26.1014,0.0557844,0
50.2622,-25.8526,0.0573957,0
50.3162,-25.6029,0.0592316,0
50.3663,-25.3522,0.0612922,0
50.4125,-25.1007,0.0635773,0
50.4548,-24.8483,0.0660969,0
50.4931,-24.5949,0.068841,0
50.5275,-24.3406,0.0718195,0
50.558,-24.0854,0.0750227,0
50.5845,-23.8293,0.0784602,0
50.607,-23.5723,0.082132,0
50.6255,-23.3143,0.0860285,0
50.64,-23.0554,0.0901691,0
33.4578,-36.7758,0.455198,0
33.7588,-36.9512,0.454642,0
34.0644,-37.1196,0.454114,0
34.3748,-37.2812,0.453597,0
34.6896,-37.4356,0.453109,0
35.0088,-37.5827,0.45264,0
35.3334,-37.7186,0.451839,0
35.6702,-37.8169,0.448333,0
36.0092,-37.9067,0.444837,0
36.3505,-37.9879,0.441341,0
36.6935,-38.0606,0.437855,0
37.0384,-38.1246,0.434388,0
37.3845,-38.18,0.430921,0
37.7319,-38.2267,0.427484,0
38.0853,-38.2189,0.420101,0
38.4377,-38.1977,0.412366,0
38.788,-38.1679,0.4047,0
39.1363,-38.1296,0.397112,0
39.4823,-38.083,0.389603,0
39.8259,-38.0282,0.382171,0
40.1666,-37.9652,0.374827,0
40.5034,-37.8754,0.36596,0
40.7769,-37.0364,0.294276,174
41.0747,-36.8047,0.274857,174
41.3824,-36.7237,0.268926,174
41.6917,-36.6667,0.26573,174
42.0326,-36.7921,0.278783,174
42.4256,-37.1338,0.311087,0
42.728,-36.9843,0.3022,0
43.0168,-36.7956,0.290599,0
43.2991,-36.6034,0.279329,0
43.5748,-36.4076,0.268353,0
43.844,-36.2085,0.257698,0
44.1079,-36.009,0.247581,0
44.3686,-35.8146,0.238509,0
44.6235,-35.6172,0.22972,0
44.8727,-35.4168,0.221224,0
45.1162,-35.2135,0.213011,0
45.3477,-34.9947,0.203909,0
45.571,-34.77,0.194749,0
45.7884,-34.5437,0.185921,0
45.9998,-34.3161,0.177435,0
46.2055,-34.0871,0.169271,0
46.4055,-33.8569,0.161419,0
46.5999,-33.6256,0.153909,0
46.7887,-33.3931,0.146702,0
46.972,-33.1595,0.139798,0
47.15,-32.925,0.133196,0
47.3227,-32.6895,0.126898,0
47.4901,-32.4531,0.120882,0
47.6523,-32.2156,0.11513,0
47.8044,-31.9721,0.109085,0
47.9512,-31.7283,0.103333,0
48.0934,-31.4842,0.097884,0
48.2306,-31.2398,0.0927277,0
48.3652,-30.997,0.0880988,0
48.4972,-30.7556,0.0839875,0
48.6247,-30.5138,0.0801496,0
48.7477,-30.2715,0.0765852,0
48.8664,-30.0288,0.0732941,0
48.9807,-29.7856,0.0702668,0
49.0854,-29.5386,0.0669953,0
49.1855,-29.2912,0.0639582,0
49.2811,-29.0437,0.0611652,0
49.3722,-28.7959,0.0586164,0
49.463,-28.5499,0.0566828,0
49.5556,-28.3066,0.05555,0
49.6441,-28.0625,0.0546516,0
49.7285,-27.8178,0.0539973,0
49.8088,-27.5724,0.053548,0
49.8851,-27.3263,0.053343,0
49.9573,-27.0795,0.0533625,0
50.0255,-26.8321,0.0536164,0
50.0896,-26.584,0.0540852,0
50.1498,-26.3353,0.0547883,0
50.2079,-26.0864,0.055882,0
50.2655,-25.8375,0.0575031,0
50.3194,-25.5877,0.0593488,0
50.3692,-25.337,0.0614289,0
50.4152,-25.0855,0.0637336,0
50.4573,-24.8329,0.0662531,0
50.4953,-24.5795,0.0690168,0
50.5295,-24.3252,0.0720051,0
50.5597,-24.07,0.0752277,0
50.5859,-23.8138,0.0786652,0
50.6083,-23.5567,0.0823469,0
50.6265,-23.2986,0.0862629,0
50.6408,-23.0397,0.090423,0
33.4759,-36.7866,0.455159,0
33.7771,-36.9615,0.454612,0
34.0831,-37.1296,0.454075,0
34.3937,-37.2907,0.453568,0
34.7088,-37.4447,0.453089,0
35.0282,-37.5914,0.45262,0
35.3536,-37.7248,0.451634,0
35.6905,-37.8225,0.448118,0
36.0298,-37.9118,0.444622,0
36.3712,-37.9925,0.441126,0
36.7144,-38.0647,0.43765,0
37.0593,-38.1282,0.434173,0
37.4055,-38.1831,0.430716,0
37.753,-38.2292,0.427269,0
38.1066,-38.2179,0.419622,0
38.4589,-38.1962,0.411898,0
38.8091,-38.1658,0.404241,0
39.1573,-38.127,0.396654,0
39.5032,-38.0799,0.389154,0
39.8465,-38.0246,0.381732,0
40.1871,-37.9612,0.374388,0
40.5236,-37.8694,0.365404,0
40.7947,-37.0171,0.292633,174
41.0928,-36.7943,0.274014,174
41.4011,-36.7202,0.268714,174
41.7103,-36.6632,0.265557,174
42.057,-36.8195,0.281286,174
42.4441,-37.1251,0.31056,0
42.7457,-36.9729,0.301478,0
43.0341,-36.7841,0.289905,0
46.7252,-32.441,0.162152,0
46.8916,-32.2213,0.15598,0
47.053,-32.0005,0.150101,0
47.2095,-31.7787,0.144495,0
47.3612,-31.5558,0.139154,0
47.5082,-31.332,0.134085,0
47.6503,-31.107,0.129261,0
47.7841,-30.8778,0.124251,0
47.913,-30.648,0.119495,0
48.0374,-30.4175,0.114993,0
48.1571,-30.1865,0.110745,0
48.2723,-29.955,0.106751,0
48.383,-29.7229,0.103001,0
48.4891,-29.4904,0.0995051,0
48.5909,-29.2574,0.0962434,0
48.6882,-29.0241,0.0932355,0
48.7813,-28.7903,0.0904426,0
48.8735,-28.5581,0.0882453,0
48.9672,-28.3282,0.0868488,0
49.0568,-28.0976,0.085677,0
49.1424,-27.8662,0.0847297,0
49.2241,-27.634,0.0840168,0
49.3017,-27.4011,0.0835188,0
49.3755,-27.1676,0.0832453,0
49.4452,-26.9333,0.0832063,0
49.5112,-26.6983,0.0833723,0
49.5731,-26.4626,0.0837629,0
49.6312,-26.2263,0.0843879,0
49.6894,-25.9903,0.0855793,0
49.7448,-25.7536,0.087093,0
49.7962,-25.5161,0.0888313,0
49.844,-25.2777,0.0907941,0
49.8878,-25.0384,0.0929621,0
49.928,-24.7983,0.0953645,0
49.9641,-24.5573,0.0979914,0
49.9966,-24.3155,0.100833,0
50.0252,-24.0728,0.103909,0
50.0498,-23.8292,0.10721,0
50.0685,-23.5848,0.110521,0
50.0862,-23.3396,0.114349,0
50.0996,-23.0936,0.118372,0
33.8979,-35.7972,0.457454,0
34.1752,-35.9628,0.457464,0
34.4581,-36.1201,0.457259,0
34.7464,-36.2681,0.4568,0
35.0388,-36.4094,0.456351,0
35.3364,-36.5401,0.45554,0
35.6452,-36.6393,0.452298,0
35.9564,-36.7307,0.449056,0
36.2698,-36.8142,0.445823,0
36.5851,-36.89,0.442581,0
36.9021,-36.9578,0.439368,0
37.2206,-37.0177,0.436155,0
37.5405,-37.0696,0.432952,0
37.8634,-37.1006,0.428548,0
38.1898,-37.0934,0.421341,0
38.5148,-37.0782,0.414202,0
38.8384,-37.0551,0.407103,0
39.1601,-37.0241,0.400081,0
39.4799,-36.9854,0.393128,0
39.7977,-36.9391,0.386243,0
40.113,-36.8852,0.379427,0
40.4252,-36.8115,0.371546,0
40.7335,-36.7229,0.36306,0
41.0381,-36.6276,0.354691,0
41.3389,-36.5258,0.346458,0
41.6356,-36.4176,0.338353,0
41.9284,-36.3032,0.330384,0
42.2167,-36.1827,0.322552,0
42.5009,-36.0565,0.314876,0
42.78,-35.9218,0.307083,0
43.0491,-35.7619,0.297591,0
43.312,-35.5949,0.28807,0
43.5694,-35.4244,0.278821,0
43.8216,-35.2505,0.269857,0
44.0684,-35.0732,0.261165,0
44.31,-34.8928,0.252757,0
44.5464,-34.7094,0.244622,0
44.7775,-34.523,0.236732,0
45.0034,-34.3338,0.229134,0
45.2225,-34.1386,0.221468,0
45.4302,-33.93,0.212933,0
45.6325,-33.7197,0.20472,0
45.8294,-33.5078,0.19682,0
46.021,-33.2945,0.189212,0
46.2073,-33.0798,0.181917,0
46.3884,-32.8637,0.174915,0
46.5645,-32.6463,0.168196,0
46.7355,-32.4277,0.161771,0
46.9016,-32.208,0.155618,0
47.0626,-31.9871,0.149759,0
47.2188,-31.7652,0.144163,0
47.3703,-31.5423,0.138851,0
47.517,-31.3184,0.133792,0
47.6585,-31.0932,0.128948,0
47.792,-30.8639,0.123948,0
47.9207,-30.6341,0.119222,0
48.0448,-30.4036,0.11473,0
48.1642,-30.1725,0.110501,0
48.2791,-29.941,0.106527,0
48.3895,-29.7089,0.102796,0
48.4953,-29.4763,0.0993098,0
48.5968,-29.2433,0.0960578,0
48.694,-29.0099,0.09305,0
48.7868,-28.7761,0.0902766,0
48.8794,-28.5442,0.0881574,0
48.9727,-28.3143,0.0867707,0
49.0621,-28.0836,0.0856086,0
49.1474,-27.8521,0.0846809,0
49.2289,-27.62,0.0839777,0
49.3063,-27.3871,0.0834992,0
49.3798,-27.1534,0.0832453,0
49.4494,-26.9191,0.0832063,0
49.515,-26.6841,0.0834016,0
49.5768,-26.4484,0.083802,0
49.6347,-26.212,0.084427,0
49.6929,-25.976,0.0856574,0
49.7479,-25.7393,0.0871906,0
49.7992,-25.5017,0.0889387,0
49.8466,-25.2633,0.0909113,0
49.8904,-25.0239,0.0930988,0
49.9302,-24.7837,0.0955207,0
49.9662,-24.5427,0.0981574,0
49.9984,-24.3008,0.101019,0
50.0267,-24.0581,0.104105,0
50.0512,-23.8145,0.107405,0
50.0696,-23.57,0.110755,0
50.087,-23.3248,0.114583,0
50.1003,-23.0786,0.118616,0
33.9145,-35.8074,0.457454,0
34.1922,-35.9726,0.457464,0
34.4755,-36.1292,0.457239,0
34.764,-36.2768,0.456771,0
35.0566,-36.4177,0.456331,0
35.3551,-36.5463,0.455335,0
35.664,-36.645,0.452103,0
35.9753,-36.7359,0.448851,0
36.2887,-36.819,0.445618,0
36.6042,-36.8943,0.442386,0
36.9213,-36.9617,0.439163,0
37.2399,-37.0211,0.43596,0
37.5599,-37.0725,0.432757,0
37.8831,-37.1004,0.428118,0
38.2095,-37.0927,0.420911,0
38.5345,-37.0771,0.413773,0
38.8579,-37.0534,0.406683,0
39.1795,-37.022,0.399661,0
39.4992,-36.9828,0.392708,0
39.8168,-36.936,0.385833,0
40.132,-36.8817,0.379027,0
40.4439,-36.8063,0.371038,0
40.752,-36.7173,0.362552,0
41.0564,-36.6216,0.354193,0
