53.782,-52.8125,-0.513141,0
53.8556,-52.7406,-0.524489,0
53.9274,-52.667,-0.535685,0
53.9972,-52.5919,-0.546716,0
54.0649,-52.5151,-0.557585,0
54.1305,-52.4368,-0.568273,0
54.1941,-52.3571,-0.578781,0
54.2555,-52.2761,-0.589094,0
54.3148,-52.1937,-0.59923,0
54.3718,-52.1101,-0.609167,0
54.4266,-52.0254,-0.618898,0
54.4793,-51.9395,-0.628425,0
54.5298,-51.8525,-0.637741,0
54.578,-51.7646,-0.646833,0
54.6238,-51.6757,-0.65572,0
54.6675,-51.5859,-0.664382,0
54.7089,-51.4954,-0.672809,0
54.748,-51.4041,-0.681013,0
54.7848,-51.3121,-0.688991,0
54.8194,-51.2196,-0.69672,0
54.8516,-51.1264,-0.70422,0
54.8828,-51.0333,-0.711208,0
54.9135,-50.9404,-0.717546,0
54.9432,-50.8473,-0.723405,0
54.9723,-50.7544,-0.728659,0
54.9995,-50.661,-0.733649,0
55.0245,-50.5671,-0.738371,0
55.0473,-50.4727,-0.742839,0
55.0685,-50.378,-0.746979,0
55.0878,-50.2831,-0.750803,0
55.1049,-50.1878,-0.754362,0
55.1199,-50.0922,-0.757677,0
55.1327,-49.9964,-0.760739,0
48.5881,-52.5554,-0.0581512,0
48.6601,-52.6206,-0.0629314,0
48.7335,-52.6843,-0.0678094,0
48.8084,-52.7465,-0.072785,0
48.8848,-52.8073,-0.0778631,0
48.9627,-52.8665,-0.0830291,0
49.042,-52.9241,-0.0882928,0
49.1227,-52.9801,-0.0936492,0
49.2048,-53.0345,-0.0990984,0
49.2882,-53.0872,-0.104645,0
49.373,-53.1381,-0.11027,0
49.459,-53.1874,-0.115983,0
49.5463,-53.2348,-0.121784,0
49.6349,-53.2804,-0.127663,0
49.7246,-53.3242,-0.13362,0
49.8155,-53.366,-0.139704,0
49.9077,-53.4056,-0.145944,0
50.0009,-53.4433,-0.152258,0
50.0944,-53.483,-0.157233,0
50.1898,-53.5162,-0.163884,0
50.2866,-53.5453,-0.171257,0
50.3842,-53.5722,-0.178718,0
50.4827,-53.5968,-0.186271,0
50.5818,-53.6192,-0.193893,0
50.6816,-53.6393,-0.201594,0
50.7821,-53.6571,-0.209367,0
50.8831,-53.6726,-0.217209,0
50.9847,-53.6857,-0.225114,0
51.0868,-53.6964,-0.233078,0
51.1893,-53.7047,-0.241105,0
51.2921,-53.7105,-0.249172,0
51.3952,-53.714,-0.257292,0
51.4986,-53.715,-0.265461,0
51.6022,-53.7135,-0.273659,0
51.7059,-53.7095,-0.281896,0
51.8097,-53.703,-0.290163,0
51.9135,-53.6941,-0.298464,0
52.0173,-53.6826,-0.306774,0
52.1209,-53.6686,-0.31509,0
52.2244,-53.652,-0.323434,0
52.3273,-53.632,-0.332048,0
52.4288,-53.6065,-0.341525,0
52.5299,-53.5787,-0.350929,0
52.6295,-53.5462,-0.360959,0
52.7271,-53.5082,-0.371828,0
52.8237,-53.468,-0.38258,0
52.9195,-53.4257,-0.39321,0
53.0142,-53.3813,-0.403708,0
53.1064,-53.3319,-0.414889,0
53.1948,-53.276,-0.427253,0
53.2817,-53.218,-0.439533,0
53.367,-53.1579,-0.451696,0
53.4503,-53.0957,-0.463752,0
53.532,-53.0315,-0.47569,0
53.6119,-52.9654,-0.487502,0
53.6899,-52.8974,-0.499177,0
53.766,-52.8276,-0.51071,0
53.8402,-52.7561,-0.522087,0
53.9123,-52.6828,-0.533312,0
53.9826,-52.608,-0.544382,0
54.0507,-52.5316,-0.55528,0
54.1167,-52.4536,-0.566013,0
54.1808,-52.3742,-0.576554,0
54.2426,-52.2935,-0.586921,0
54.3023,-52.2114,-0.597092,0
54.3598,-52.128,-0.607067,0
54.4152,-52.0435,-0.616843,0
54.4684,-51.9578,-0.626413,0
54.5192,-51.8711,-0.635768,0
54.5678,-51.7833,-0.644924,0
54.6143,-51.6947,-0.653849,0
54.6584,-51.6051,-0.662555,0
54.7003,-51.5147,-0.671037,0
54.7399,-51.4236,-0.679289,0
54.7772,-51.3318,-0.687311,0
54.8122,-51.2393,-0.695104,0
54.8449,-51.1462,-0.702648,0
54.876,-51.0529,-0.709826,0
54.9072,-50.9602,-0.716218,0
54.9367,-50.867,-0.722253,0
54.9663,-50.7742,-0.72756,0
54.9938,-50.6809,-0.732609,0
55.0192,-50.5871,-0.737389,0
55.0427,-50.4928,-0.741906,0
55.0641,-50.3982,-0.74613,0
55.0838,-50.3033,-0.750007,0
55.1014,-50.2081,-0.75363,0
55.1169,-50.1126,-0.756994,0
55.1302,-50.0168,-0.760104,0
48.6446,-52.6068,-0.0619109,0
48.7177,-52.6708,-0.0667645,0
48.7923,-52.7334,-0.0717156,0
48.8685,-52.7945,-0.0767644,0
48.946,-52.854,-0.0819207,0
49.025,-52.912,-0.08716,0
49.1055,-52.9683,-0.0925115,0
49.1872,-53.0231,-0.0979363,0
50.6369,-53.5211,-0.199186,0
50.7345,-53.5396,-0.206721,0
50.8327,-53.5557,-0.214328,0
50.9315,-53.5696,-0.221999,0
51.0307,-53.5812,-0.229733,0
51.1304,-53.5904,-0.237526,0
51.2303,-53.5973,-0.245368,0
51.3307,-53.6018,-0.253263,0
51.4313,-53.6039,-0.261198,0
51.5322,-53.6037,-0.269172,0
51.6332,-53.601,-0.277175,0
51.7342,-53.5959,-0.285221,0
51.8353,-53.5883,-0.293278,0
51.9364,-53.5783,-0.301364,0
52.0374,-53.5659,-0.30947,0
52.1383,-53.551,-0.31759,0
52.2389,-53.5336,-0.325705,0
52.3393,-53.5138,-0.33383,0
52.4393,-53.4915,-0.34195,0
52.5379,-53.4638,-0.350959,0
52.6346,-53.4307,-0.360807,0
52.7295,-53.3927,-0.371374,0
52.8234,-53.3526,-0.381828,0
52.9134,-53.3041,-0.394064,0
53.002,-53.2533,-0.406222,0
53.089,-53.2004,-0.418312,0
53.1745,-53.1454,-0.430304,0
53.2584,-53.0883,-0.442199,0
53.3406,-53.0291,-0.453991,0
53.4212,-52.968,-0.46568,0
53.5,-52.905,-0.477243,0
53.5771,-52.8401,-0.488688,0
53.6524,-52.7734,-0.499997,0
53.7258,-52.705,-0.511169,0
53.7973,-52.6349,-0.522194,0
53.8669,-52.5631,-0.533068,0
53.9346,-52.4898,-0.543791,0
54.0002,-52.415,-0.554333,0
54.0639,-52.3387,-0.564714,0
54.1255,-52.261,-0.574919,0
54.185,-52.1821,-0.584938,0
54.2424,-52.1018,-0.594777,0
54.2978,-52.0203,-0.604426,0
54.3509,-51.9377,-0.613879,0
54.402,-51.854,-0.623127,0
54.4509,-51.7693,-0.632175,0
54.4976,-51.6836,-0.641008,0
54.542,-51.597,-0.64964,0
54.5844,-51.5096,-0.658049,0
54.6244,-51.4214,-0.666237,0
54.6623,-51.3325,-0.674201,0
54.6979,-51.2429,-0.681945,0
54.7339,-51.1539,-0.688849,0
54.7678,-51.0642,-0.695514,0
54.7996,-50.974,-0.701921,0
54.8293,-50.8833,-0.708068,0
54.8595,-50.7931,-0.71341,0
54.8876,-50.7023,-0.718498,0
54.9137,-50.6109,-0.723332,0
54.9378,-50.5192,-0.727902,0
54.9598,-50.427,-0.732219,0
54.9799,-50.3344,-0.736276,0
54.9978,-50.2415,-0.74007,0
55.0137,-50.1484,-0.743605,0
55.0275,-50.055,-0.746877,0
48.6616,-52.4956,-0.063034,0
48.7323,-52.5588,-0.0677361,0
48.8045,-52.6206,-0.0725262,0
48.878,-52.681,-0.0774041,0
48.9531,-52.7399,-0.0823895,0
49.0296,-52.7972,-0.0874676,0
49.1074,-52.853,-0.0926434,0
49.1866,-52.9072,-0.0978973,0
49.2672,-52.9598,-0.103244,0
49.349,-53.0107,-0.108683,0
49.4321,-53.0599,-0.114206,0
49.5165,-53.1074,-0.119806,0
49.6021,-53.1531,-0.12549,0
49.6889,-53.1971,-0.131252,0
49.7769,-53.2393,-0.137087,0
49.8659,-53.2795,-0.14301,0
49.9561,-53.318,-0.148996,0
50.0473,-53.3544,-0.15506,0
50.1395,-53.3892,-0.161105,0
50.2332,-53.4191,-0.168239,0
50.3279,-53.4468,-0.175451,0
50.4232,-53.4724,-0.182746,0
50.5194,-53.4958,-0.190124,0
50.6162,-53.5169,-0.19758,0
50.7137,-53.5358,-0.205114,0
50.8118,-53.5525,-0.212707,0
50.9105,-53.5669,-0.220363,0
51.0095,-53.5789,-0.228083,0
51.1091,-53.5886,-0.235871,0
51.2091,-53.596,-0.243703,0
51.3094,-53.601,-0.251574,0
51.4099,-53.6037,-0.259509,0
51.5108,-53.6039,-0.267477,0
51.6117,-53.6017,-0.275475,0
51.7127,-53.5972,-0.283508,0
51.8138,-53.5901,-0.291569,0
51.9149,-53.5807,-0.299645,0
52.016,-53.5687,-0.307746,0
52.1169,-53.5544,-0.315861,0
52.2175,-53.5375,-0.323981,0
52.318,-53.5182,-0.332101,0
52.418,-53.4965,-0.340221,0
52.517,-53.47,-0.34902,0
52.6143,-53.4385,-0.358547,0
52.7094,-53.401,-0.369133,0
52.8036,-53.3614,-0.379601,0
52.8945,-53.3146,-0.391462,0
52.9832,-53.2643,-0.403644,0
53.0705,-53.2119,-0.415744,0
53.1563,-53.1573,-0.427756,0
53.2406,-53.1006,-0.43967,0
53.3232,-53.0419,-0.451491,0
53.4041,-52.9812,-0.463205,0
53.4834,-52.9185,-0.474802,0
53.5609,-52.8541,-0.486262,0
53.6366,-52.7877,-0.497604,0
53.7104,-52.7197,-0.50881,0
53.7823,-52.6499,-0.51986,0
53.8523,-52.5785,-0.530768,0
53.9203,-52.5055,-0.54152,0
53.9864,-52.431,-0.552106,0
54.0505,-52.3551,-0.562516,0
54.1125,-52.2777,-0.572756,0
54.1725,-52.199,-0.582829,0
54.2304,-52.119,-0.592697,0
54.2862,-52.0378,-0.602389,0
54.3398,-51.9554,-0.611882,0
54.3913,-51.8719,-0.621179,0
54.4406,-51.7874,-0.630265,0
54.4878,-51.7019,-0.639147,0
54.5328,-51.6155,-0.647819,0
54.5755,-51.5283,-0.656276,0
54.6161,-51.4402,-0.664513,0
54.6544,-51.3514,-0.672526,0
54.6905,-51.262,-0.680314,0
54.7264,-51.1729,-0.687399,0
54.7607,-51.0834,-0.694113,0
54.793,-50.9933,-0.700583,0
54.8231,-50.9027,-0.706779,0
54.8532,-50.8123,-0.712297,0
54.8818,-50.7216,-0.717438,0
54.9084,-50.6304,-0.722321,0
54.9328,-50.5387,-0.726955,0
54.9553,-50.4466,-0.731325,0
54.9758,-50.3541,-0.735441,0
54.9941,-50.2613,-0.739284,0
55.0105,-50.1682,-0.742873,0
55.0248,-50.0749,-0.746198,0
55.037,-49.9813,-0.749274,0
48.6468,-52.4819,-0.0620477,0
48.7172,-52.5455,-0.0667254,0
48.789,-52.6076,-0.071491,0
48.8623,-52.6683,-0.0763641,0
48.937,-52.7275,-0.0813201,0
49.0132,-52.7851,-0.0863787,0
49.0908,-52.8413,-0.0915301,0
49.1697,-52.8958,-0.0967644,0
49.2499,-52.9487,-0.102101,0
49.3315,-53,-0.107516,0
49.4144,-53.0496,-0.113019,0
49.4984,-53.0975,-0.118605,0
49.5837,-53.1436,-0.124269,0
49.6703,-53.1879,-0.130016,0
49.758,-53.2304,-0.135842,0
49.8468,-53.2711,-0.14174,0
49.9368,-53.3099,-0.147717,0
50.0278,-53.3468,-0.153757,0
50.1197,-53.3826,-0.159596,0
50.2133,-53.4129,-0.166716,0
50.3077,-53.4411,-0.173908,0
50.4029,-53.4671,-0.181198,0
50.4988,-53.491,-0.188552,0
50.5956,-53.5126,-0.195988,0
50.6929,-53.532,-0.203503,0
50.7909,-53.5491,-0.211086,0
50.8894,-53.564,-0.218727,0
50.9884,-53.5766,-0.226442,0
51.0879,-53.5868,-0.234201,0
51.1877,-53.5947,-0.242028,0
51.288,-53.6002,-0.249904,0
51.3885,-53.6033,-0.257814,0
51.4893,-53.6041,-0.265778,0
51.5902,-53.6024,-0.273766,0
51.6912,-53.5983,-0.281794,0
51.7923,-53.5918,-0.289845,0
51.8934,-53.5829,-0.297922,0
51.9945,-53.5715,-0.306022,0
52.0954,-53.5576,-0.314137,0
52.1961,-53.5413,-0.322248,0
52.2966,-53.5225,-0.330378,0
52.3968,-53.5013,-0.338498,0
52.4961,-53.476,-0.347077,0
52.5941,-53.4462,-0.356286,0
52.6893,-53.4091,-0.366891,0
52.7836,-53.37,-0.377389,0
52.8753,-53.325,-0.388864,0
52.9645,-53.2752,-0.401056,0
53.0521,-53.2232,-0.413176,0
53.1383,-53.1691,-0.425207,0
53.2228,-53.1128,-0.437145,0
53.3058,-53.0545,-0.448986,0
53.3871,-52.9942,-0.460724,0
53.4667,-52.932,-0.472341,0
53.5445,-52.8679,-0.48384,0
53.6205,-52.802,-0.495207,0
53.6948,-52.7343,-0.506437,0
53.7671,-52.6649,-0.517521,0
53.8376,-52.5938,-0.528464,0
53.906,-52.5212,-0.539245,0
53.9725,-52.447,-0.549865,0
54.037,-52.3713,-0.560314,0
54.0995,-52.2943,-0.570602,0
54.1599,-52.2158,-0.580705,0
54.2182,-52.1361,-0.590617,0
54.2745,-52.0551,-0.600344,0
54.3285,-51.973,-0.60988,0
54.3805,-51.8898,-0.619216,0
54.4303,-51.8055,-0.628351,0
54.478,-51.7202,-0.637277,0
54.5234,-51.634,-0.645993,0
54.5666,-51.5469,-0.654494,0
54.6077,-51.459,-0.66278,0
54.6464,-51.3704,-0.670846,0
54.683,-51.2811,-0.678679,0
54.7188,-51.1918,-0.685934,0
54.7536,-51.1024,-0.692707,0
54.7862,-51.0125,-0.699225,0
54.817,-50.922,-0.70548,0
54.8469,-50.8315,-0.711174,0
54.8759,-50.741,-0.716374,0
54.9029,-50.6499,-0.72131,0
54.9278,-50.5583,-0.725988,0
54.9507,-50.4663,-0.730412,0
54.9716,-50.3739,-0.734582,0
54.9905,-50.2811,-0.738493,0
55.0072,-50.188,-0.742136,0
55.022,-50.0947,-0.745519,0
55.0346,-50.0012,-0.748639,0
48.7021,-52.5321,-0.0657244,0
48.7736,-52.5945,-0.0704754,0
48.8466,-52.6555,-0.0753094,0
48.921,-52.715,-0.0802557,0
48.9969,-52.773,-0.0852996,0
49.0741,-52.8294,-0.0904266,0
49.1527,-52.8843,-0.0956463,0
49.2327,-52.9376,-0.100964,0
50.6491,-53.419,-0.201105,0
50.7443,-53.4368,-0.208469,0
50.8401,-53.4524,-0.215895,0
50.9364,-53.4657,-0.223376,0
51.0332,-53.4768,-0.230925,0
51.1304,-53.4856,-0.238527,0
51.228,-53.4921,-0.246169,0
51.3258,-53.4963,-0.253874,0
51.4239,-53.4982,-0.261608,0
51.5221,-53.4978,-0.269382,0
51.6206,-53.4949,-0.277189,0
51.7191,-53.4898,-0.285026,0
51.8177,-53.4822,-0.292892,0
51.9162,-53.4723,-0.300768,0
52.0145,-53.46,-0.308674,0
52.1129,-53.4453,-0.316579,0
52.2109,-53.4282,-0.324494,0
52.3087,-53.4086,-0.332404,0
52.4062,-53.3867,-0.340319,0
52.5032,-53.3624,-0.348229,0
52.5988,-53.3331,-0.356901,0
52.6888,-53.2901,-0.369064,0
52.7777,-53.2453,-0.381032,0
52.8653,-53.1982,-0.392936,0
52.9516,-53.1491,-0.404772,0
53.0363,-53.0977,-0.41654,0
53.1196,-53.0444,-0.42822,0
53.2014,-52.989,-0.439806,0
53.2816,-52.9316,-0.451286,0
53.3602,-52.8723,-0.462668,0
53.437,-52.8112,-0.473937,0
53.5122,-52.7482,-0.485085,0
53.5856,-52.6835,-0.496105,0
53.6573,-52.617,-0.506984,0
53.7271,-52.549,-0.517731,0
53.795,-52.4793,-0.528327,0
53.8611,-52.4081,-0.538771,0
53.9252,-52.3354,-0.549059,0
53.9873,-52.2613,-0.559181,0
54.0475,-52.1858,-0.569133,0
54.1057,-52.1091,-0.578908,0
54.1619,-52.0311,-0.588508,0
54.2159,-51.9519,-0.597922,0
54.2679,-51.8716,-0.60715,0
54.3179,-51.7902,-0.616179,0
54.3657,-51.7078,-0.625012,0
54.4114,-51.6244,-0.633649,0
54.455,-51.5402,-0.642062,0
54.4965,-51.4551,-0.65028,0
54.5373,-51.3702,-0.657892,0
54.5765,-51.2847,-0.665143,0
54.6138,-51.1985,-0.67215,0
54.6491,-51.1117,-0.678918,0
54.6823,-51.0243,-0.685436,0
54.7135,-50.9363,-0.691711,0
54.7436,-50.8481,-0.697526,0
54.7732,-50.76,-0.702756,0
54.8008,-50.6713,-0.707736,0
54.8264,-50.5821,-0.712463,0
54.85,-50.4925,-0.71694,0
54.8716,-50.4025,-0.721164,0
54.8913,-50.3121,-0.725138,0
54.9088,-50.2213,-0.728859,0
54.9245,-50.1303,-0.732321,0
54.9381,-50.0391,-0.735524,0
48.7176,-52.4248,-0.0667547,0
48.7867,-52.4865,-0.0713396,0
48.8573,-52.5467,-0.076032,0
48.9294,-52.6056,-0.0808123,0
49.0028,-52.663,-0.0856902,0
49.0777,-52.7189,-0.0906512,0
49.1537,-52.7733,-0.0957195,0
49.2313,-52.8261,-0.100866,0
49.31,-52.8773,-0.106086,0
49.3901,-52.9268,-0.111408,0
49.4713,-52.9748,-0.116808,0
49.5539,-53.021,-0.122287,0
49.6376,-53.0655,-0.127839,0
49.7224,-53.1082,-0.133473,0
49.8084,-53.1492,-0.139186,0
49.8955,-53.1884,-0.144972,0
49.9836,-53.2257,-0.150822,0
50.0728,-53.2611,-0.156735,0
50.164,-53.2895,-0.164562,0
50.2555,-53.3186,-0.171486,0
50.3475,-53.3468,-0.178054,0
50.4405,-53.3718,-0.185075,0
50.5344,-53.3945,-0.192272,0
50.6288,-53.4149,-0.199548,0
50.724,-53.4332,-0.206891,0
50.8197,-53.4493,-0.214304,0
50.9159,-53.4631,-0.221779,0
51.0125,-53.4746,-0.229313,0
51.1096,-53.4839,-0.236901,0
51.2071,-53.4909,-0.244543,0
51.3049,-53.4956,-0.252228,0
51.403,-53.498,-0.259963,0
51.5012,-53.4981,-0.267726,0
51.5996,-53.4957,-0.275529,0
51.6982,-53.4911,-0.283356,0
51.7967,-53.484,-0.291218,0
51.8952,-53.4746,-0.299094,0
51.9937,-53.4628,-0.306989,0
52.092,-53.4486,-0.314894,0
52.1901,-53.432,-0.322809,0
52.288,-53.413,-0.33072,0
52.3854,-53.3916,-0.338635,0
52.4826,-53.3678,-0.346545,0
52.5791,-53.341,-0.354616,0
52.6698,-53.2993,-0.366511,0
52.7589,-53.255,-0.378493,0
52.8468,-53.2084,-0.390412,0
52.9334,-53.1597,-0.402258,0
53.0184,-53.1088,-0.41404,0
53.102,-53.0559,-0.425739,0
53.1841,-53.0009,-0.437346,0
53.2647,-52.944,-0.448849,0
53.3436,-52.8851,-0.460256,0
53.4209,-52.8243,-0.471545,0
53.4964,-52.7617,-0.482721,0
53.5702,-52.6974,-0.493766,0
53.6422,-52.6313,-0.50468,0
53.7124,-52.5636,-0.515456,0
53.7807,-52.4942,-0.526086,0
53.8471,-52.4234,-0.536559,0
53.9116,-52.351,-0.546882,0
53.9742,-52.2772,-0.557043,0
54.0348,-52.202,-0.567038,0
54.0934,-52.1255,-0.576847,0
54.1501,-52.0478,-0.586491,0
54.2046,-51.9688,-0.595939,0
54.257,-51.8887,-0.605202,0
54.3074,-51.8076,-0.614274,0
54.3557,-51.7254,-0.623151,0
54.4019,-51.6422,-0.631823,0
54.4459,-51.5582,-0.64029,0
54.4878,-51.4733,-0.648556,0
54.5287,-51.3882,-0.65632,0
54.5683,-51.3029,-0.663615,0
54.606,-51.2169,-0.67068,0
54.6416,-51.1302,-0.677492,0
54.6754,-51.0429,-0.684079,0
54.707,-50.955,-0.690397,0
54.7371,-50.8668,-0.696384,0
54.767,-50.7788,-0.701662,0
54.7951,-50.6902,-0.706691,0
54.8211,-50.6011,-0.711471,0
54.8452,-50.5116,-0.716003,0
54.8672,-50.4217,-0.720285,0
54.8872,-50.3313,-0.724308,0
54.9053,-50.2407,-0.728088,0
54.9213,-50.1497,-0.731603,0
54.9354,-50.0585,-0.734875,0
54.9474,-49.9671,-0.737873,0
48.703,-52.4115,-0.0657781,0
48.7719,-52.4734,-0.0703582,0
48.8423,-52.534,-0.0750262,0
48.914,-52.5932,-0.0797918,0
48.9871,-52.6509,-0.0846502,0
49.0616,-52.7071,-0.0895965,0
49.1374,-52.7618,-0.0946355,0
49.2146,-52.815,-0.0997576,0
49.2932,-52.8665,-0.104968,0
49.373,-52.9165,-0.110265,0
49.454,-52.9647,-0.115656,0
49.5362,-53.0113,-0.121115,0
49.6197,-53.0562,-0.126652,0
49.7042,-53.0993,-0.132272,0
49.7901,-53.1406,-0.137971,0
49.8769,-53.1802,-0.143737,0
49.9648,-53.2179,-0.149572,0
50.0537,-53.2537,-0.155475,0
50.1444,-53.2847,-0.162507,0
50.236,-53.3123,-0.170104,0
50.3279,-53.341,-0.176647,0
50.4207,-53.3668,-0.183547,0
50.5144,-53.3898,-0.190734,0
50.6087,-53.4108,-0.19799,0
50.7037,-53.4295,-0.205329,0
50.7992,-53.446,-0.212721,0
50.8954,-53.4603,-0.220187,0
50.992,-53.4724,-0.227707,0
51.089,-53.4822,-0.23528,0
51.1864,-53.4896,-0.242912,0
51.2841,-53.4948,-0.250588,0
51.3821,-53.4977,-0.258307,0
51.4804,-53.4982,-0.266076,0
51.5787,-53.4964,-0.273864,0
51.6772,-53.4923,-0.281691,0
51.7758,-53.4857,-0.289543,0
51.8742,-53.4768,-0.297414,0
51.9727,-53.4655,-0.305314,0
52.0711,-53.4518,-0.31321,0
52.1692,-53.4357,-0.321125,0
52.2671,-53.4172,-0.329045,0
52.3648,-53.3963,-0.336955,0
52.462,-53.373,-0.344865,0
52.5587,-53.3471,-0.352844,0
52.6506,-53.3085,-0.363957,0
52.74,-53.2646,-0.375944,0
52.8282,-53.2185,-0.387878,0
52.915,-53.1703,-0.399743,0
53.0005,-53.1198,-0.41154,0
53.0844,-53.0673,-0.423259,0
53.1668,-53.0128,-0.43488,0
53.2477,-52.9563,-0.446413,0
53.327,-52.8978,-0.457839,0
53.4045,-52.8374,-0.469162,0
53.4805,-52.7752,-0.480353,0
53.5546,-52.7112,-0.491428,0
53.627,-52.6455,-0.502375,0
53.6977,-52.5781,-0.51318,0
53.7663,-52.5091,-0.52384,0
53.8332,-52.4386,-0.534347,0
53.8981,-52.3665,-0.544704,0
53.9611,-52.293,-0.554894,0
54.0221,-52.2181,-0.564924,0
54.0812,-52.1419,-0.574777,0
54.1381,-52.0644,-0.58445,0
54.1931,-51.9857,-0.593942,0
54.2461,-51.9059,-0.603249,0
54.2969,-51.8249,-0.612365,0
54.3455,-51.7429,-0.621281,0
54.3923,-51.66,-0.629987,0
54.4367,-51.5761,-0.638508,0
54.4791,-51.4914,-0.646813,0
54.52,-51.4063,-0.654723,0
54.5601,-51.3211,-0.662082,0
54.5981,-51.2353,-0.669196,0
54.6343,-51.1487,-0.676061,0
54.6684,-51.0615,-0.682692,0
54.7005,-50.9738,-0.689074,0
54.7305,-50.8855,-0.695202,0
54.7609,-50.7975,-0.700558,0
54.7893,-50.7091,-0.705637,0
54.8158,-50.6201,-0.71048,0
54.8402,-50.5307,-0.715065,0
54.8627,-50.4408,-0.719391,0
54.8831,-50.3506,-0.723478,0
54.9016,-50.26,-0.727311,0
54.918,-50.1691,-0.730881,0
54.9325,-50.0779,-0.734196,0
54.945,-49.9865,-0.737258,0
48.7571,-52.4604,-0.0693768,0
48.8272,-52.5213,-0.0740301,0
48.8986,-52.5807,-0.0787664,0
48.9714,-52.6388,-0.0836053,0
49.0456,-52.6953,-0.0885369,0
49.1213,-52.7503,-0.0935467,0
49.1981,-52.8038,-0.0986639,0
49.2764,-52.8557,-0.103849,0
50.6608,-53.3197,-0.203503,0
50.7537,-53.3378,-0.210387,0
50.8471,-53.3535,-0.21738,0
50.9411,-53.3664,-0.224699,0
51.0355,-53.377,-0.232057,0
51.1304,-53.3854,-0.239474,0
51.2255,-53.3916,-0.24695,0
51.321,-53.3955,-0.254455,0
51.4167,-53.3972,-0.261999,0
51.5126,-53.3966,-0.269587,0
51.6086,-53.3936,-0.277204,0
51.7047,-53.3884,-0.284846,0
51.8008,-53.3809,-0.292521,0
51.8968,-53.371,-0.300207,0
51.9927,-53.3588,-0.307907,0
52.0884,-53.3439,-0.315754,0
52.1838,-53.3261,-0.323742,0
52.2787,-53.306,-0.33176,0
52.3733,-53.2834,-0.339802,0
52.4673,-53.2583,-0.347878,0
52.5609,-53.2309,-0.355959,0
52.6496,-53.1914,-0.367082,0
52.7355,-53.146,-0.379362,0
52.8201,-53.0986,-0.39153,0
52.9036,-53.0498,-0.4034,0
52.9862,-53,-0.414855,0
53.0674,-52.9482,-0.426232,0
53.1473,-52.8944,-0.437516,0
53.2254,-52.8387,-0.448713,0
53.302,-52.7812,-0.459802,0
53.377,-52.7218,-0.470783,0
53.4504,-52.6606,-0.481647,0
53.5221,-52.5978,-0.492385,0
53.592,-52.5332,-0.503,0
53.6602,-52.4671,-0.513478,0
53.7265,-52.3994,-0.523815,0
53.7909,-52.3302,-0.534001,0
53.8536,-52.2595,-0.54403,0
53.9144,-52.1875,-0.553908,0
53.9732,-52.1141,-0.563625,0
54.0301,-52.0395,-0.573166,0
54.0849,-51.9636,-0.582531,0
54.1379,-51.8866,-0.59172,0
54.1887,-51.8084,-0.600724,0
54.2376,-51.7292,-0.609553,0
54.2848,-51.6493,-0.618088,0
54.3309,-51.5691,-0.626115,0
54.3753,-51.488,-0.633898,0
54.4177,-51.4062,-0.641467,0
54.458,-51.3235,-0.648801,0
54.4966,-51.2401,-0.655895,0
54.5332,-51.156,-0.662775,0
54.5677,-51.0713,-0.669396,0
54.6003,-50.9859,-0.675788,0
54.631,-50.9,-0.681935,0
54.6615,-50.8143,-0.687404,0
54.6905,-50.7282,-0.692531,0
54.7175,-50.6416,-0.697399,0
54.7426,-50.5545,-0.702038,0
54.7658,-50.4669,-0.706418,0
54.787,-50.3789,-0.710568,0
54.8062,-50.2906,-0.714455,0
54.8235,-50.202,-0.718102,0
54.8389,-50.113,-0.721496,0
54.8523,-50.0238,-0.72464,0
48.7713,-52.3568,-0.0703191,0
48.839,-52.417,-0.0748162,0
48.9081,-52.4758,-0.0794012,0
48.9787,-52.5333,-0.0840789,0
49.0505,-52.5892,-0.0888592,0
49.1237,-52.6438,-0.0937225,0
49.1983,-52.6968,-0.0986687,0
49.2741,-52.7482,-0.103713,0
49.3512,-52.7981,-0.108825,0
49.4295,-52.8464,-0.114025,0
49.5091,-52.8931,-0.119304,0
49.5897,-52.9381,-0.124665,0
49.6716,-52.9814,-0.130104,0
49.7546,-53.023,-0.135617,0
49.8387,-53.0629,-0.141198,0
49.9239,-53.1009,-0.146852,0
50.0101,-53.1372,-0.152575,0
50.0972,-53.1716,-0.158361,0
50.187,-53.1967,-0.166955,0
50.2773,-53.2194,-0.175724,0
50.367,-53.2467,-0.182121,0
50.4577,-53.2719,-0.188654,0
50.5491,-53.2948,-0.1953,0
50.6411,-53.3156,-0.202057,0
50.7338,-53.3341,-0.208908,0
50.8272,-53.3504,-0.215876,0
50.9211,-53.3638,-0.223137,0
51.0155,-53.375,-0.230485,0
51.1102,-53.3838,-0.237892,0
51.2053,-53.3905,-0.245348,0
51.3007,-53.3949,-0.252848,0
51.3964,-53.397,-0.260387,0
51.4922,-53.3969,-0.267971,0
51.5882,-53.3945,-0.275583,0
51.6842,-53.3897,-0.28322,0
51.7803,-53.3827,-0.290886,0
51.8764,-53.3733,-0.298571,0
51.9724,-53.3616,-0.306262,0
52.0681,-53.3473,-0.314054,0
52.1635,-53.3301,-0.322033,0
52.2585,-53.3105,-0.330041,0
52.3532,-53.2884,-0.338093,0
52.4474,-53.2639,-0.346159,0
52.541,-53.2369,-0.35424,0
52.6312,-53.2009,-0.36445,0
52.7173,-53.1558,-0.37676,0
52.8022,-53.1088,-0.388947,0
52.8859,-53.0601,-0.400949,0
52.9688,-53.0108,-0.412428,0
53.0503,-52.9594,-0.42382,0
53.1303,-52.906,-0.435119,0
53.2089,-52.8507,-0.446335,0
53.2859,-52.7936,-0.457448,0
53.3612,-52.7346,-0.468454,0
53.4349,-52.6738,-0.479347,0
53.507,-52.6113,-0.490109,0
53.5773,-52.5471,-0.500754,0
53.6459,-52.4813,-0.511257,0
53.7126,-52.4139,-0.521628,0
53.7774,-52.345,-0.531847,0
53.8404,-52.2747,-0.541916,0
53.9016,-52.2029,-0.551823,0
53.9609,-52.1298,-0.561574,0
54.0181,-52.0554,-0.571154,0
54.0734,-51.9798,-0.580553,0
54.1268,-51.903,-0.589782,0
54.1781,-51.8251,-0.598825,0
54.2274,-51.7462,-0.607682,0
54.2747,-51.6662,-0.616349,0
54.3213,-51.5862,-0.624416,0
54.366,-51.5054,-0.632262,0
54.4087,-51.4236,-0.639885,0
54.4496,-51.3412,-0.647262,0
54.4885,-51.2579,-0.654406,0
54.5255,-51.174,-0.66133,0
54.5605,-51.0894,-0.668005,0
54.5936,-51.0041,-0.674445,0
54.6246,-50.9184,-0.680646,0
54.655,-50.8326,-0.686281,0
54.6844,-50.7466,-0.691457,0
54.712,-50.6601,-0.696384,0
54.7374,-50.5731,-0.701071,0
54.761,-50.4856,-0.70551,0
54.7827,-50.3977,-0.709704,0
54.8023,-50.3094,-0.713649,0
54.8201,-50.2208,-0.717345,0
54.8358,-50.132,-0.720798,0
54.8496,-50.0428,-0.723991,0
54.8613,-49.9535,-0.726935,0
48.757,-52.3438,-0.0693768,0
48.8245,-52.4043,-0.0738445,0
48.8933,-52.4634,-0.0784246,0
48.9635,-52.5212,-0.0830779,0
49.0351,-52.5775,-0.0878289,0
49.108,-52.6323,-0.0926775,0
49.1823,-52.6856,-0.0976092,0
49.2578,-52.7374,-0.102624,0
49.3347,-52.7877,-0.107721,0
49.4127,-52.8363,-0.112917,0
49.492,-52.8833,-0.118176,0
49.5724,-52.9287,-0.123517,0
49.6541,-52.9724,-0.128942,0
49.7369,-53.0143,-0.134435,0
49.8207,-53.0545,-0.140002,0
49.9056,-53.093,-0.145641,0
49.9916,-53.1296,-0.151354,0
50.0786,-53.1644,-0.157126,0
50.1677,-53.192,-0.164943,0
50.2583,-53.2133,-0.174372,0
50.3479,-53.2411,-0.180754,0
50.4383,-53.2667,-0.187258,0
50.5295,-53.2901,-0.193874,0
50.6215,-53.3114,-0.200602,0
50.7141,-53.3304,-0.207448,0
50.8073,-53.3471,-0.214387,0
50.9011,-53.3612,-0.221574,0
50.9953,-53.3728,-0.228923,0
51.09,-53.3821,-0.236315,0
51.185,-53.3893,-0.243762,0
51.2803,-53.3942,-0.251252,0
51.376,-53.3968,-0.258786,0
51.4718,-53.3971,-0.266354,0
51.5677,-53.3952,-0.273957,0
51.6638,-53.3909,-0.281598,0
51.7598,-53.3844,-0.289255,0
51.8559,-53.3755,-0.296935,0
51.952,-53.3643,-0.304626,0
52.0478,-53.3506,-0.31237,0
52.1433,-53.334,-0.320339,0
52.2384,-53.3149,-0.328337,0
52.3331,-53.2933,-0.336379,0
52.4274,-53.2693,-0.344435,0
52.5212,-53.2429,-0.352516,0
52.6127,-53.2102,-0.361818,0
52.6991,-53.1656,-0.374147,0
52.7843,-53.119,-0.386364,0
52.868,-53.0705,-0.398464,0
52.9512,-53.0214,-0.409992,0
53.033,-52.9705,-0.421398,0
53.1134,-52.9175,-0.432726,0
53.1923,-52.8627,-0.443962,0
53.2697,-52.8059,-0.455095,0
53.3454,-52.7473,-0.466115,0
53.4194,-52.6869,-0.477038,0
53.4918,-52.6247,-0.487834,0
53.5624,-52.5609,-0.498498,0
53.6313,-52.4954,-0.509035,0
53.6984,-52.4284,-0.519426,0
53.7637,-52.3598,-0.529684,0
53.8273,-52.2898,-0.539787,0
53.8887,-52.2183,-0.549728,0
53.9484,-52.1455,-0.559509,0
54.0061,-52.0714,-0.569128,0
54.0619,-51.996,-0.578566,0
54.1156,-51.9195,-0.587834,0
54.1673,-51.8418,-0.596921,0
54.2171,-51.763,-0.605822,0
54.2648,-51.6833,-0.614533,0
54.3115,-51.6033,-0.622717,0
54.3566,-51.5226,-0.630617,0
54.3998,-51.4411,-0.638273,0
54.4411,-51.3588,-0.64571,0
54.4805,-51.2757,-0.652907,0
54.5178,-51.1919,-0.65988,0
54.5532,-51.1074,-0.666603,0
54.5867,-51.0223,-0.673097,0
54.6182,-50.9366,-0.679343,0
54.6485,-50.8508,-0.685153,0
54.6784,-50.7649,-0.690378,0
54.7062,-50.6785,-0.695358,0
54.7321,-50.5916,-0.700095,0
54.7562,-50.5042,-0.704582,0
54.7782,-50.4164,-0.70883,0
54.7983,-50.3282,-0.712829,0
54.8164,-50.2397,-0.716584,0
54.8326,-50.1509,-0.72009,0
54.8468,-50.0618,-0.723332,0
54.8591,-49.9725,-0.726335,0
48.81,-52.3915,-0.0728924,0
48.8785,-52.451,-0.0774383,0
48.9485,-52.509,-0.0820818,0
49.0198,-52.5656,-0.0868133,0
49.0924,-52.6208,-0.0916326,0
49.1664,-52.6744,-0.0965545,0
49.2416,-52.7265,-0.101554,0
49.3182,-52.7771,-0.106633,0
50.6723,-53.2217,-0.206887,0
50.7629,-53.2391,-0.213615,0
50.8541,-53.2543,-0.220431,0
50.9456,-53.2673,-0.227345,0
51.0378,-53.278,-0.234362,0
51.1303,-53.2864,-0.241467,0
51.2231,-53.2926,-0.248644,0
51.3162,-53.2964,-0.25591,0
51.4095,-53.298,-0.263249,0
51.5031,-53.2971,-0.270666,0
51.5967,-53.294,-0.278141,0
51.6903,-53.2884,-0.285685,0
51.7839,-53.2805,-0.293278,0
51.8774,-53.2703,-0.300929,0
51.9708,-53.2576,-0.30863,0
52.0639,-53.2426,-0.316379,0
52.1567,-53.2252,-0.324157,0
52.2492,-53.2054,-0.331974,0
52.3414,-53.1832,-0.339816,0
52.433,-53.1587,-0.347673,0
52.5241,-53.1318,-0.355558,0
52.6129,-53.0988,-0.364655,0
52.6967,-53.0546,-0.376657,0
52.7794,-53.0086,-0.388532,0
52.8607,-52.9606,-0.400285,0
52.9407,-52.9108,-0.411921,0
53.0194,-52.8593,-0.423415,0
53.0966,-52.806,-0.434777,0
53.1723,-52.7509,-0.445993,0
53.2466,-52.6943,-0.457062,0
53.3198,-52.6366,-0.46777,0
53.3914,-52.5771,-0.478366,0
53.4614,-52.516,-0.488845,0
53.5297,-52.4533,-0.499201,0
53.5963,-52.389,-0.509416,0
53.661,-52.3231,-0.519499,0
53.7241,-52.2558,-0.52944,0
53.7853,-52.1871,-0.539235,0
53.8447,-52.117,-0.548874,0
53.9022,-52.0456,-0.558356,0
53.9582,-51.9733,-0.567551,0
54.0127,-51.9001,-0.576462,0
54.0652,-51.8258,-0.585173,0
54.1161,-51.7504,-0.593659,0
54.1651,-51.674,-0.601945,0
54.2122,-51.5967,-0.610012,0
54.2575,-51.5185,-0.617868,0
54.3009,-51.4394,-0.625495,0
54.3425,-51.3595,-0.632907,0
54.3821,-51.2788,-0.640095,0
54.4199,-51.1974,-0.647048,0
54.4558,-51.1153,-0.653776,0
54.4898,-51.0325,-0.660261,0
54.5218,-50.9492,-0.666525,0
54.5523,-50.8655,-0.672443,0
54.5827,-50.7819,-0.677697,0
54.611,-50.6977,-0.682712,0
54.6376,-50.6131,-0.687482,0
54.6622,-50.5279,-0.692028,0
54.6849,-50.4424,-0.696325,0
54.7058,-50.3564,-0.700383,0
54.7247,-50.27,-0.704201,0
54.7416,-50.1833,-0.707775,0
54.7567,-50.0964,-0.7111,0
54.7698,-50.0092,-0.714186,0
48.8229,-52.2915,-0.0737469,0
48.8892,-52.3503,-0.0781414,0
48.957,-52.4077,-0.0826434,0
49.0259,-52.4638,-0.0872234,0
49.0963,-52.5184,-0.0918963,0
49.168,-52.5716,-0.0966619,0
49.2409,-52.6233,-0.101506,0
49.3152,-52.6735,-0.106437,0
49.3907,-52.7221,-0.111452,0
49.4673,-52.7692,-0.11654,0
49.5452,-52.8147,-0.121711,0
49.6242,-52.8586,-0.12695,0
49.7042,-52.9007,-0.132272,0
49.7855,-52.9412,-0.137663,0
49.8678,-52.98,-0.143127,0
49.9511,-53.017,-0.148659,0
50.0354,-53.0523,-0.15426,0
50.1208,-53.0854,-0.160046,0
50.2088,-53.1078,-0.16924,0
50.2975,-53.1281,-0.178483,0
50.3857,-53.1511,-0.186017,0
50.4741,-53.1754,-0.192394,0
50.5633,-53.1977,-0.198874,0
50.6531,-53.2177,-0.205471,0
50.7436,-53.2356,-0.212165,0
50.8346,-53.2513,-0.218976,0
50.9261,-53.2647,-0.225866,0
51.0182,-53.2759,-0.232868,0
51.1106,-53.2848,-0.239943,0
51.2034,-53.2915,-0.247116,0
51.2964,-53.2958,-0.254352,0
51.3898,-53.2978,-0.261681,0
51.4832,-53.2975,-0.269074,0
51.5768,-53.2948,-0.276545,0
51.6704,-53.2898,-0.284074,0
51.764,-53.2824,-0.291662,0
51.8576,-53.2726,-0.299304,0
51.9509,-53.2605,-0.306989,0
52.0441,-53.246,-0.314728,0
52.137,-53.2291,-0.322492,0
52.2297,-53.2098,-0.330309,0
52.3218,-53.1881,-0.338146,0
52.4135,-53.1641,-0.346003,0
52.5047,-53.1377,-0.353884,0
52.5948,-53.1079,-0.362096,0
52.679,-53.0642,-0.374113,0
52.762,-53.0185,-0.386008,0
52.8435,-52.971,-0.3978,0
52.9238,-52.9216,-0.409455,0
53.0027,-52.8704,-0.420978,0
53.0803,-52.8175,-0.432375,0
53.1563,-52.7628,-0.44362,0
53.2309,-52.7065,-0.454719,0
53.3045,-52.649,-0.4655,0
53.3763,-52.5899,-0.47612,0
53.4467,-52.5292,-0.486618,0
53.5153,-52.4668,-0.496999,0
53.5823,-52.4028,-0.507258,0
53.6474,-52.3372,-0.51737,0
53.7108,-52.2703,-0.527336,0
53.7724,-52.2018,-0.537165,0
53.8322,-52.132,-0.546838,0
53.8901,-52.0609,-0.556349,0
53.9463,-51.9888,-0.565627,0
54.0012,-51.9158,-0.574582,0
54.0542,-51.8417,-0.583332,0
54.1055,-51.7665,-0.591872,0
54.1548,-51.6903,-0.600207,0
54.2023,-51.6132,-0.608317,0
54.248,-51.5352,-0.616213,0
54.2919,-51.4563,-0.623893,0
54.3338,-51.3765,-0.631354,0
54.3738,-51.296,-0.638581,0
54.4121,-51.2147,-0.645588,0
54.4484,-51.1328,-0.65236,0
54.4827,-51.0502,-0.658903,0
54.5151,-50.9669,-0.665217,0
54.5456,-50.8832,-0.671286,0
54.5763,-50.7997,-0.676598,0
54.6052,-50.7157,-0.681662,0
54.6321,-50.6311,-0.686491,0
54.6571,-50.5461,-0.691086,0
54.6802,-50.4606,-0.695436,0
54.7015,-50.3747,-0.699548,0
54.7208,-50.2884,-0.70341,0
54.7382,-50.2018,-0.707033,0
54.7536,-50.1149,-0.710422,0
54.7672,-50.0278,-0.713552,0
54.7788,-49.9404,-0.716437,0
48.8089,-52.2788,-0.0728191,0
48.875,-52.3379,-0.0772039,0
48.9423,-52.3956,-0.0816814,0
49.0112,-52.4519,-0.086242,0
49.0812,-52.5069,-0.0909002,0
49.1527,-52.5604,-0.0956414,0
49.2253,-52.6124,-0.100471,0
49.2993,-52.6629,-0.105378,0
49.3745,-52.7119,-0.110368,0
49.4509,-52.7593,-0.115446,0
49.5285,-52.8052,-0.120597,0
49.6073,-52.8494,-0.125832,0
49.6871,-52.8919,-0.131139,0
49.7681,-52.9328,-0.136511,0
49.8502,-52.9719,-0.141965,0
49.9333,-53.0093,-0.147482,0
50.0173,-53.0449,-0.153058,0
50.1024,-53.0787,-0.158713,0
50.19,-53.1032,-0.167277,0
50.2785,-53.1239,-0.17652,0
50.367,-53.1456,-0.184675,0
50.4553,-53.1704,-0.191027,0
50.5442,-53.1931,-0.197492,0
50.634,-53.2136,-0.204064,0
50.7243,-53.232,-0.210739,0
50.8152,-53.2481,-0.217516,0
50.9066,-53.2621,-0.224391,0
50.9986,-53.2737,-0.231364,0
51.0909,-53.2831,-0.238429,0
51.1836,-53.2903,-0.245573,0
51.2766,-53.2951,-0.252809,0
51.3698,-53.2976,-0.260119,0
51.4634,-53.2978,-0.267507,0
51.5569,-53.2956,-0.274953,0
51.6505,-53.2911,-0.282468,0
51.7441,-53.2842,-0.290046,0
51.8377,-53.2749,-0.297668,0
51.9311,-53.2633,-0.305353,0
52.0244,-53.2493,-0.313078,0
52.1173,-53.2329,-0.320846,0
52.21,-53.2141,-0.328644,0
52.3023,-53.1929,-0.336471,0
52.3941,-53.1694,-0.344333,0
52.4854,-53.1435,-0.352199,0
52.5761,-53.1153,-0.36009,0
52.6612,-53.0737,-0.371569,0
52.7444,-53.0284,-0.383493,0
52.8262,-52.9812,-0.3953,0
52.9069,-52.9323,-0.406984,0
52.986,-52.8814,-0.418547,0
53.0638,-52.8289,-0.429958,0
53.1403,-52.7746,-0.441242,0
53.2152,-52.7186,-0.45237,0
53.2889,-52.6613,-0.463224,0
53.3612,-52.6026,-0.473874,0
53.4319,-52.5422,-0.484401,0
53.5009,-52.4802,-0.494806,0
53.5682,-52.4165,-0.50508,0
53.6337,-52.3513,-0.515221,0
53.6975,-52.2846,-0.525226,0
53.7595,-52.2165,-0.535085,0
53.8197,-52.147,-0.544797,0
53.878,-52.0762,-0.554347,0
53.9345,-52.0041,-0.563703,0
53.9897,-51.9314,-0.572697,0
54.0431,-51.8575,-0.581486,0
54.0947,-51.7826,-0.59007,0
54.1445,-51.7066,-0.598449,0
54.1923,-51.6297,-0.606613,0
54.2385,-51.5519,-0.614552,0
54.2827,-51.4731,-0.622277,0
54.3251,-51.3936,-0.629782,0
54.3655,-51.3132,-0.637062,0
54.4041,-51.2321,-0.644118,0
54.4407,-51.1503,-0.650939,0
54.4755,-51.0678,-0.657531,0
54.5084,-50.9847,-0.663888,0
54.5393,-50.901,-0.670016,0
54.5699,-50.8175,-0.67549,0
54.5991,-50.7336,-0.680602,0
54.6265,-50.6492,-0.685485,0
54.6519,-50.5642,-0.690119,0
54.6755,-50.4788,-0.694528,0
54.6971,-50.393,-0.698688,0
54.7168,-50.3068,-0.702609,0
54.7346,-50.2203,-0.706281,0
54.7505,-50.1334,-0.709714,0
54.7645,-50.0463,-0.712902,0
54.7766,-49.959,-0.715846,0
48.8608,-52.3254,-0.0762615,0
48.9279,-52.3834,-0.0807195,0
48.9964,-52.4401,-0.0852654,0
49.0662,-52.4953,-0.0898992,0
49.1373,-52.5491,-0.0946307,0
49.2098,-52.6015,-0.0994305,0
49.2834,-52.6523,-0.104328,0
49.3584,-52.7016,-0.109308,0
50.6833,-53.128,-0.210134,0
50.7717,-53.1448,-0.216691,0
50.8606,-53.1595,-0.223351,0
50.95,-53.1719,-0.230109,0
51.0399,-53.1822,-0.236955,0
51.1302,-53.1903,-0.243879,0
51.2207,-53.1961,-0.250895,0
51.3116,-53.1997,-0.25799,0
51.4026,-53.201,-0.265148,0
51.4937,-53.2,-0.27238,0
51.585,-53.1968,-0.279675,0
51.6763,-53.1912,-0.287028,0
51.7676,-53.1833,-0.294445,0
51.8587,-53.1732,-0.301916,0
51.9497,-53.1607,-0.309421,0
52.0405,-53.1459,-0.31697,0
52.131,-53.1288,-0.324562,0
52.2212,-53.1094,-0.332175,0
52.3109,-53.0876,-0.339826,0
52.4002,-53.0636,-0.347487,0
52.4889,-53.0372,-0.355168,0
52.5771,-53.0086,-0.362863,0
52.6597,-52.9672,-0.374054,0
52.7405,-52.9224,-0.385661,0
52.8199,-52.8758,-0.39715,0
52.8981,-52.8274,-0.408508,0
52.975,-52.7772,-0.419743,0
53.0505,-52.7253,-0.430846,0
53.1246,-52.6717,-0.441808,0
53.1973,-52.6165,-0.452629,0
53.2684,-52.5597,-0.463298,0
53.3382,-52.5014,-0.47381,0
53.4063,-52.4416,-0.484157,0
53.473,-52.3803,-0.494347,0
53.538,-52.3175,-0.504367,0
53.6015,-52.2534,-0.514216,0
53.6632,-52.188,-0.523884,0
53.7234,-52.1213,-0.533371,0
53.782,-52.0533,-0.542668,0
53.8387,-51.9841,-0.551779,0
53.8937,-51.9138,-0.560695,0
53.947,-51.8423,-0.569416,0
53.9986,-51.7698,-0.577941,0
54.0484,-51.6963,-0.586262,0
54.0965,-51.6217,-0.594367,0
54.1427,-51.5462,-0.602277,0
54.1871,-51.4699,-0.609963,0
54.2296,-51.3927,-0.617438,0
54.2704,-51.3146,-0.624694,0
54.3093,-51.2358,-0.63173,0
54.3463,-51.1563,-0.638552,0
54.3816,-51.0761,-0.645138,0
54.4148,-50.9953,-0.651501,0
54.4463,-50.9139,-0.657634,0
54.477,-50.8324,-0.66321,0
54.5069,-50.7507,-0.668366,0
54.5347,-50.6685,-0.673278,0
54.5608,-50.5857,-0.677966,0
54.5849,-50.5024,-0.682414,0
54.6072,-50.4188,-0.686628,0
54.6277,-50.3347,-0.690602,0
54.6462,-50.2502,-0.694347,0
54.6629,-50.1655,-0.697848,0
54.6777,-50.0804,-0.701115,0
54.6906,-49.9951,-0.704138,0
48.8725,-52.2287,-0.0770428,0
48.9375,-52.2861,-0.0813592,0
49.0038,-52.3422,-0.0857537,0
49.0715,-52.3969,-0.0902508,0
49.1404,-52.4503,-0.094826,0
49.2105,-52.5022,-0.0994891,0
49.282,-52.5527,-0.10423,0
49.3547,-52.6016,-0.109059,0
49.4286,-52.6491,-0.113971,0
49.5037,-52.695,-0.118952,0
49.5799,-52.7393,-0.124015,0
49.6573,-52.7821,-0.129152,0
49.7357,-52.8232,-0.134357,0
49.8152,-52.8626,-0.139636,0
49.8957,-52.9004,-0.144977,0
49.9772,-52.9364,-0.150407,0
50.0598,-52.9707,-0.155881,0
50.1437,-53.0006,-0.162453,0
50.2299,-53.0225,-0.171432,0
50.3165,-53.0423,-0.180466,0
50.4035,-53.0602,-0.189548,0
50.4899,-53.0832,-0.195973,0
50.5769,-53.1047,-0.202311,0
50.6646,-53.1241,-0.208747,0
50.7529,-53.1414,-0.215295,0
50.8417,-53.1565,-0.221926,0
50.931,-53.1694,-0.228669,0
51.0208,-53.1802,-0.23549,0
51.1109,-53.1887,-0.242399,0
51.2014,-53.195,-0.249396,0
51.2922,-53.1991,-0.256471,0
51.3832,-53.2009,-0.263615,0
51.4743,-53.2004,-0.270842,0
51.5655,-53.1976,-0.278112,0
51.6569,-53.1926,-0.285461,0
51.7482,-53.1852,-0.292863,0
51.8393,-53.1755,-0.300319,0
51.9304,-53.1635,-0.307824,0
52.0212,-53.1492,-0.315368,0
52.1118,-53.1326,-0.322946,0
52.202,-53.1137,-0.330558,0
52.2919,-53.0924,-0.338195,0
52.3812,-53.0689,-0.345861,0
52.4701,-53.043,-0.353537,0
52.5584,-53.0149,-0.361227,0
52.6423,-52.9765,-0.371579,0
52.7234,-52.9321,-0.3832,0
52.8031,-52.8858,-0.394709,0
52.8816,-52.8378,-0.406105,0
52.9587,-52.788,-0.41737,0
53.0346,-52.7365,-0.428498,0
53.109,-52.6833,-0.439484,0
53.1819,-52.6284,-0.450334,0
53.2534,-52.572,-0.461037,0
53.3235,-52.514,-0.471584,0
53.392,-52.4544,-0.481965,0
53.4589,-52.3934,-0.492194,0
53.5243,-52.331,-0.502248,0
53.588,-52.2672,-0.51214,0
53.6502,-52.202,-0.521843,0
53.7107,-52.1356,-0.531369,0
53.7695,-52.0679,-0.5407,0
53.8267,-51.9989,-0.54986,0
53.8821,-51.9288,-0.558815,0
53.9359,-51.8576,-0.56758,0
53.9878,-51.7853,-0.576139,0
54.038,-51.712,-0.584509,0
54.0863,-51.6377,-0.592663,0
54.133,-51.5624,-0.600607,0
54.1777,-51.4862,-0.608346,0
54.2207,-51.4092,-0.615861,0
54.2619,-51.3313,-0.623171,0
54.3012,-51.2527,-0.630256,0
54.3387,-51.1733,-0.637111,0
54.3742,-51.0932,-0.643752,0
54.408,-51.0125,-0.650163,0
54.4398,-50.9312,-0.656349,0
54.4705,-50.8497,-0.662096,0
54.5007,-50.7682,-0.667287,0
54.5289,-50.686,-0.672253,0
54.5553,-50.6034,-0.676979,0
54.5799,-50.5202,-0.681486,0
54.6026,-50.4366,-0.685754,0
54.6235,-50.3526,-0.689777,0
54.6424,-50.2682,-0.693566,0
54.6595,-50.1835,-0.697131,0
54.6747,-50.0985,-0.700441,0
54.688,-50.0133,-0.703512,0
54.6994,-49.9278,-0.706344,0
48.8588,-52.2163,-0.0761395,0
48.9235,-52.274,-0.0804314,0
48.9896,-52.3304,-0.0848162,0
49.0569,-52.3854,-0.089284,0
49.1256,-52.439,-0.0938445,0
49.1955,-52.4913,-0.0984881,0
49.2667,-52.542,-0.10322,0
49.3392,-52.5913,-0.108029,0
49.4128,-52.6391,-0.112922,0
49.4877,-52.6854,-0.117883,0
49.5637,-52.73,-0.122931,0
49.6407,-52.7731,-0.128049,0
49.7189,-52.8146,-0.133239,0
49.7982,-52.8544,-0.138508,0
49.8785,-52.8925,-0.143845,0
49.9598,-52.9289,-0.14924,0
50.0421,-52.9636,-0.154699,0
50.1255,-52.9957,-0.160544,0
50.2115,-53.018,-0.169518,0
50.298,-53.0383,-0.178547,0
50.3849,-53.0565,-0.187614,0
50.4714,-53.0784,-0.194636,0
50.5584,-53.1003,-0.200949,0
50.6459,-53.1202,-0.20737,0
50.734,-53.1379,-0.213888,0
50.8227,-53.1535,-0.220514,0
50.912,-53.1669,-0.227228,0
51.0016,-53.1781,-0.23403,0
51.0917,-53.1871,-0.24092,0
51.1822,-53.1939,-0.247897,0
51.2729,-53.1984,-0.254953,0
51.3638,-53.2007,-0.262092,0
51.4549,-53.2007,-0.269299,0
51.5462,-53.1984,-0.276564,0
51.6375,-53.1938,-0.283898,0
51.7287,-53.187,-0.291286,0
51.8199,-53.1778,-0.298727,0
51.911,-53.1663,-0.306218,0
52.0019,-53.1525,-0.313757,0
52.0925,-53.1364,-0.321325,0
52.1828,-53.1179,-0.328932,0
52.2728,-53.0972,-0.336564,0
52.3623,-53.0741,-0.34423,0
52.4512,-53.0487,-0.351901,0
52.5396,-53.021,-0.359592,0
52.6249,-52.9857,-0.369089,0
52.7062,-52.9417,-0.380734,0
52.7863,-52.8958,-0.392272,0
52.865,-52.8482,-0.403693,0
52.9424,-52.7987,-0.414982,0
53.0185,-52.7476,-0.426135,0
53.0933,-52.6947,-0.43716,0
53.1666,-52.6402,-0.448039,0
53.2384,-52.5841,-0.458771,0
53.3088,-52.5264,-0.469352,0
53.3776,-52.4672,-0.479772,0
53.4448,-52.4065,-0.490036,0
53.5105,-52.3444,-0.500129,0
53.5747,-52.2809,-0.510046,0
53.6372,-52.216,-0.519792,0
53.698,-52.1498,-0.529352,0
53.7572,-52.0824,-0.538737,0
53.8147,-52.0137,-0.547931,0
53.8705,-51.9439,-0.55693,0
53.9245,-51.8729,-0.565734,0
53.9769,-51.8008,-0.574338,0
54.0275,-51.7277,-0.582741,0
54.0762,-51.6535,-0.590944,0
54.1232,-51.5785,-0.598937,0
54.1684,-51.5025,-0.606711,0
54.2117,-51.4256,-0.614279,0
54.2533,-51.3479,-0.621628,0
54.293,-51.2695,-0.628762,0
54.3308,-51.1902,-0.635671,0
54.3668,-51.1103,-0.64236,0
54.4009,-51.0298,-0.64882,0
54.4331,-50.9486,-0.655051,0
54.4639,-50.867,-0.660954,0
54.4944,-50.7856,-0.666203,0
54.523,-50.7035,-0.671213,0
54.5499,-50.621,-0.675993,0
54.5748,-50.5379,-0.680549,0
54.598,-50.4544,-0.68486,0
54.6192,-50.3705,-0.688947,0
54.6386,-50.2862,-0.692785,0
54.656,-50.2016,-0.696384,0
54.6716,-50.1166,-0.699758,0
54.6853,-50.0314,-0.702878,0
54.6972,-49.946,-0.705763,0
48.9097,-52.2618,-0.0795086,0
48.9754,-52.3185,-0.0838689,0
49.0425,-52.3738,-0.0883269,0
49.1109,-52.4278,-0.0928631,0
49.1805,-52.4803,-0.097492,0
49.2515,-52.5314,-0.102204,0
49.3237,-52.581,-0.106994,0
49.397,-52.6291,-0.111867,0
50.6938,-53.0383,-0.213229,0
50.7801,-53.0545,-0.21964,0
50.867,-53.0687,-0.226149,0
50.9542,-53.0807,-0.232746,0
51.042,-53.0905,-0.23943,0
51.13,-53.0982,-0.246198,0
51.2184,-53.1038,-0.253049,0
51.307,-53.1071,-0.259968,0
51.3959,-53.1082,-0.266965,0
51.4848,-53.1071,-0.27402,0
51.5738,-53.1038,-0.281149,0
51.6629,-53.0982,-0.288327,0
51.752,-53.0904,-0.295558,0
51.8409,-53.0804,-0.302844,0
51.9296,-53.0681,-0.310168,0
52.0181,-53.0535,-0.317536,0
52.1064,-53.0367,-0.324938,0
52.1943,-53.0176,-0.332375,0
52.2818,-52.9962,-0.339841,0
52.3688,-52.9727,-0.347311,0
52.4554,-52.9468,-0.354811,0
52.5412,-52.9188,-0.362306,0
52.6242,-52.8834,-0.371574,0
52.7031,-52.8398,-0.382912,0
52.7809,-52.7944,-0.394142,0
52.8573,-52.7473,-0.405246,0
52.9325,-52.6985,-0.416227,0
53.0064,-52.6479,-0.427077,0
53.0788,-52.5957,-0.437804,0
53.1499,-52.542,-0.448376,0
53.2196,-52.4867,-0.458805,0
53.2878,-52.4298,-0.469089,0
53.3545,-52.3715,-0.47922,0
53.4198,-52.3117,-0.489181,0
53.4834,-52.2505,-0.498986,0
53.5455,-52.188,-0.50862,0
53.6061,-52.1242,-0.518083,0
53.665,-52.0591,-0.52736,0
53.7223,-51.9928,-0.536471,0
53.7779,-51.9253,-0.545388,0
53.8318,-51.8566,-0.554123,0
53.8841,-51.7869,-0.562658,0
53.9346,-51.7161,-0.571008,0
53.9834,-51.6443,-0.579152,0
54.0305,-51.5715,-0.587096,0
54.0758,-51.4978,-0.594836,0
54.1194,-51.4232,-0.602365,0
54.1612,-51.3478,-0.609689,0
54.2011,-51.2716,-0.616804,0
54.2393,-51.1946,-0.623693,0
54.2757,-51.1169,-0.630378,0
54.3102,-51.0385,-0.636833,0
54.3429,-50.9595,-0.643078,0
54.3738,-50.88,-0.649079,0
54.4048,-50.8007,-0.654352,0
54.4339,-50.7208,-0.659391,0
54.4613,-50.6403,-0.664206,0
54.4869,-50.5594,-0.668796,0
54.5106,-50.4779,-0.673161,0
54.5325,-50.396,-0.677302,0
54.5526,-50.3138,-0.681203,0
54.5708,-50.2312,-0.68487,0
54.5871,-50.1483,-0.688303,0
54.6017,-50.0651,-0.691506,0
54.6144,-49.9816,-0.694474,0
48.9203,-52.1682,-0.0802117,0
48.984,-52.2243,-0.0844402,0
49.0489,-52.2791,-0.0887615,0
49.1152,-52.3326,-0.093156,0
49.1827,-52.3847,-0.0976434,0
49.2516,-52.4354,-0.102214,0
49.3216,-52.4847,-0.106852,0
49.3928,-52.5325,-0.111589,0
49.4652,-52.5788,-0.116388,0
49.5387,-52.6236,-0.121276,0
49.6134,-52.6669,-0.126232,0
49.6891,-52.7085,-0.131262,0
49.7659,-52.7486,-0.136364,0
49.8438,-52.7871,-0.141535,0
49.9225,-52.8238,-0.146774,0
50.0023,-52.8589,-0.152067,0
50.0831,-52.8923,-0.157433,0
50.1659,-52.9192,-0.164753,0
50.2501,-52.9406,-0.173547,0
50.3347,-52.96,-0.182375,0
50.4198,-52.9775,-0.191257,0
50.505,-52.995,-0.199396,0
50.5899,-53.0158,-0.205588,0
50.6755,-53.0345,-0.211882,0
50.7617,-53.0512,-0.218278,0
50.8484,-53.0658,-0.224758,0
50.9356,-53.0783,-0.23134,0
51.0232,-53.0886,-0.238005,0
51.1113,-53.0968,-0.244758,0
51.1996,-53.1028,-0.251584,0
51.2882,-53.1066,-0.258493,0
51.377,-53.1082,-0.265475,0
51.4659,-53.1076,-0.272516,0
51.5549,-53.1047,-0.279631,0
51.644,-53.0996,-0.286794,0
51.733,-53.0923,-0.294015,0
51.8219,-53.0827,-0.301291,0
51.9107,-53.0709,-0.30861,0
51.9993,-53.0568,-0.315973,0
52.0876,-53.0404,-0.323366,0
52.1756,-53.0218,-0.330788,0
52.2632,-53.001,-0.338249,0
52.3504,-52.9779,-0.345715,0
52.437,-52.9525,-0.35321,0
52.523,-52.9249,-0.36071,0
52.6073,-52.8924,-0.369152,0
52.6864,-52.8493,-0.380505,0
52.7645,-52.8042,-0.39176,0
52.8412,-52.7575,-0.402897,0
52.9166,-52.709,-0.413903,0
52.9908,-52.6588,-0.424782,0
53.0635,-52.607,-0.435529,0
53.1349,-52.5536,-0.446135,0
53.2049,-52.4986,-0.456603,0
53.2734,-52.442,-0.466916,0
53.3405,-52.384,-0.477082,0
53.4061,-52.3245,-0.487077,0
53.47,-52.2637,-0.496921,0
53.5325,-52.2014,-0.506589,0
53.5934,-52.1379,-0.516091,0
53.6526,-52.0731,-0.525412,0
53.7102,-52.007,-0.534553,0
53.7662,-51.9397,-0.543508,0
53.8205,-51.8713,-0.552282,0
53.8731,-51.8018,-0.560861,0
53.9241,-51.7312,-0.56925,0
53.9732,-51.6597,-0.577433,0
54.0206,-51.5871,-0.585417,0
54.0663,-51.5136,-0.59321,0
54.1102,-51.4392,-0.600783,0
54.1524,-51.3639,-0.608151,0
54.1927,-51.2878,-0.6153,0
54.2313,-51.211,-0.622248,0
54.268,-51.1335,-0.628976,0
54.303,-51.0553,-0.63548,0
54.3361,-50.9764,-0.641764,0
54.3673,-50.8969,-0.647829,0
54.3984,-50.8176,-0.653244,0
54.4279,-50.7378,-0.658337,0
54.4556,-50.6575,-0.6632,0
54.4816,-50.5766,-0.667839,0
54.5057,-50.4953,-0.672253,0
54.528,-50.4135,-0.676437,0
54.5484,-50.3313,-0.680383,0
54.567,-50.2488,-0.684108,0
54.5838,-50.1659,-0.687585,0
54.5987,-50.0828,-0.690846,0
54.6119,-49.9994,-0.693859,0
54.6231,-49.9158,-0.696642,0
48.907,-52.1561,-0.0793279,0
48.9702,-52.2125,-0.083532,0
49.035,-52.2676,-0.0878338,0
49.101,-52.3214,-0.0922088,0
49.1683,-52.3737,-0.0966766,0
49.2368,-52.4247,-0.101232,0
49.3066,-52.4743,-0.105861,0
49.3776,-52.5224,-0.110568,0
49.4496,-52.5691,-0.115363,0
49.5229,-52.6142,-0.120231,0
49.5973,-52.6578,-0.125168,0
49.6729,-52.6998,-0.130192,0
49.7495,-52.7402,-0.13527,0
49.8271,-52.779,-0.140427,0
49.9057,-52.8162,-0.145651,0
49.9853,-52.8516,-0.150929,0
50.0659,-52.8854,-0.156281,0
50.148,-52.9144,-0.162892,0
50.2321,-52.9362,-0.171667,0
50.3167,-52.956,-0.18049,0
50.4016,-52.9739,-0.189362,0
50.487,-52.9903,-0.198088,0
50.5718,-53.0115,-0.204264,0
50.6573,-53.0307,-0.210539,0
50.7433,-53.0479,-0.216896,0
50.8299,-53.0629,-0.223371,0
50.9171,-53.0758,-0.229929,0
51.0046,-53.0866,-0.236579,0
51.0925,-53.0952,-0.243312,0
51.1807,-53.1017,-0.250124,0
51.2693,-53.106,-0.257013,0
51.358,-53.108,-0.263981,0
51.447,-53.1079,-0.271012,0
51.5359,-53.1055,-0.278107,0
51.625,-53.1009,-0.285265,0
51.714,-53.094,-0.292477,0
51.803,-53.0849,-0.299738,0
51.8919,-53.0736,-0.307048,0
51.9805,-53.06,-0.314406,0
52.0688,-53.0441,-0.321794,0
52.1569,-53.026,-0.329211,0
52.2446,-53.0056,-0.336662,0
52.3319,-52.983,-0.344123,0
52.4186,-52.9581,-0.351618,0
52.5048,-52.931,-0.359113,0
52.5902,-52.9014,-0.366716,0
52.6697,-52.8586,-0.378097,0
52.7479,-52.814,-0.389377,0
52.825,-52.7676,-0.400529,0
52.9007,-52.7195,-0.411569,0
52.9751,-52.6696,-0.422477,0
53.0481,-52.6181,-0.433259,0
53.1198,-52.5651,-0.443893,0
53.1902,-52.5104,-0.454387,0
53.259,-52.4542,-0.464733,0
53.3264,-52.3965,-0.474928,0
53.3922,-52.3373,-0.484968,0
53.4566,-52.2767,-0.494841,0
53.5193,-52.2148,-0.504543,0
53.5805,-52.1515,-0.514074,0
53.6401,-52.087,-0.523444,0
53.698,-52.0212,-0.532619,0
53.7544,-51.9541,-0.541618,0
53.8091,-51.886,-0.550427,0
53.862,-51.8167,-0.559054,0
53.9134,-51.7463,-0.567477,0
53.9629,-51.675,-0.575705,0
54.0107,-51.6026,-0.583742,0
54.0567,-51.5293,-0.591559,0
54.1011,-51.4551,-0.599181,0
54.1436,-51.38,-0.606594,0
54.1843,-51.3041,-0.613796,0
54.2233,-51.2274,-0.620783,0
54.2604,-51.15,-0.62756,0
54.2957,-51.072,-0.634113,0
