45.4107,-28.9791,0.249671,0
45.4391,-28.9034,0.2489,0
45.4657,-28.8272,0.248206,0
45.4907,-28.7505,0.247581,0
45.5141,-28.6733,0.247044,0
45.5369,-28.596,0.247005,0
45.5587,-28.5183,0.247269,0
45.5788,-28.4402,0.247611,0
45.5973,-28.3617,0.24803,0
45.614,-28.2827,0.248538,0
45.629,-28.2034,0.249134,0
45.6418,-28.1237,0.249642,0
45.6529,-28.0436,0.250198,0
45.6622,-27.9634,0.250833,0
45.6696,-27.8829,0.251536,0
45.6755,-27.8023,0.252327,0
45.6795,-27.7215,0.253177,0
45.6816,-27.6406,0.254114,0
40.4864,-30.7789,0.398284,0
40.5591,-30.8172,0.396488,0
40.6331,-30.8531,0.394388,0
40.7078,-30.8873,0.392279,0
40.7833,-30.9197,0.390159,0
40.8595,-30.9504,0.38804,0
40.9364,-30.9793,0.385911,0
41.0139,-31.0064,0.383782,0
41.092,-31.0317,0.381644,0
41.1707,-31.0552,0.379505,0
41.2499,-31.0768,0.377366,0
41.3295,-31.0966,0.375228,0
41.4096,-31.1146,0.373089,0
41.49,-31.1308,0.370989,0
41.5707,-31.1451,0.3689,0
41.6518,-31.1576,0.36681,0
41.7331,-31.1682,0.36472,0
41.8146,-31.1768,0.36263,0
41.8962,-31.1836,0.36055,0
41.978,-31.1885,0.35846,0
42.06,-31.1914,0.35638,0
42.1419,-31.1924,0.3543,0
42.2237,-31.1916,0.35223,0
42.3056,-31.1888,0.350179,0
42.3873,-31.1841,0.348118,0
42.4689,-31.1776,0.346077,0
42.5502,-31.1691,0.344046,0
42.6314,-31.1587,0.342025,0
42.7122,-31.1461,0.339857,0
42.7923,-31.1293,0.336917,0
42.8718,-31.1108,0.334017,0
42.9509,-31.0905,0.331146,0
43.0294,-31.0684,0.328304,0
43.1073,-31.0445,0.325501,0
43.1845,-31.019,0.322737,0
43.2611,-30.9916,0.320003,0
43.337,-30.9626,0.317308,0
43.4121,-30.9319,0.314652,0
43.4865,-30.8995,0.312034,0
43.56,-30.8655,0.309466,0
43.6326,-30.8298,0.306927,0
43.7044,-30.7926,0.304446,0
43.7752,-30.7537,0.301995,0
43.8452,-30.7133,0.299603,0
43.914,-30.6714,0.297249,0
43.9819,-30.628,0.294945,0
44.0487,-30.5831,0.292698,0
44.1145,-30.5367,0.290501,0
44.1791,-30.4889,0.288343,0
44.2426,-30.4397,0.286253,0
44.3048,-30.3891,0.284202,0
44.3659,-30.3372,0.28222,0
44.4259,-30.284,0.280286,0
44.4845,-30.2295,0.278402,0
44.5419,-30.1737,0.276575,0
44.5979,-30.1167,0.274808,0
44.6527,-30.0585,0.273099,0
44.706,-29.9991,0.271448,0
44.758,-29.9386,0.269866,0
44.8086,-29.877,0.268323,0
44.8578,-29.8143,0.266859,0
44.9055,-29.7505,0.265443,0
44.9518,-29.6858,0.264095,0
44.9966,-29.6201,0.262816,0
45.0399,-29.5534,0.261595,0
45.0817,-29.4858,0.260443,0
45.122,-29.4174,0.259349,0
45.1607,-29.3481,0.258314,0
45.1975,-29.2778,0.25723,0
45.2326,-29.2067,0.256126,0
45.2659,-29.1349,0.255101,0
45.2979,-29.0624,0.254154,0
45.3281,-28.9892,0.253275,0
45.3566,-28.9155,0.252474,0
45.3837,-28.8411,0.251741,0
45.409,-28.7663,0.251107,0
45.4327,-28.6909,0.25053,0
45.4555,-28.6153,0.250296,0
45.4777,-28.5396,0.250511,0
45.4983,-28.4633,0.250804,0
45.5172,-28.3866,0.251175,0
45.5344,-28.3095,0.251634,0
45.5496,-28.2319,0.252054,0
45.563,-28.154,0.252493,0
45.5746,-28.0758,0.253011,0
45.5846,-27.9974,0.253597,0
45.5928,-27.9187,0.254241,0
45.5994,-27.8398,0.254974,0
45.6041,-27.7608,0.255784,0
45.6071,-27.6817,0.256654,0
45.6085,-27.6025,0.257601,0
40.469,-30.7694,0.398704,0
40.5414,-30.8082,0.396976,0
40.6152,-30.8446,0.394886,0
40.6897,-30.8792,0.392786,0
40.765,-30.9121,0.390667,0
40.841,-30.9432,0.388548,0
40.9178,-30.9725,0.386429,0
40.9952,-31,0.3843,0
41.0732,-31.0258,0.382152,0
41.1516,-31.0497,0.380023,0
41.2308,-31.0718,0.377884,0
41.3103,-31.092,0.375736,0
41.3902,-31.1104,0.373607,0
41.4706,-31.127,0.371497,0
41.5512,-31.1418,0.369407,0
41.6323,-31.1548,0.367318,0
41.7134,-31.1658,0.365238,0
41.7949,-31.1749,0.363138,0
41.8766,-31.1821,0.361048,0
41.9584,-31.1874,0.358958,0
42.0402,-31.1909,0.356878,0
42.1221,-31.1924,0.354808,0
42.204,-31.192,0.352728,0
42.2859,-31.1897,0.350677,0
42.3676,-31.1854,0.348616,0
42.4492,-31.1793,0.346575,0
42.5307,-31.1713,0.344534,0
42.6119,-31.1614,0.342513,0
42.6927,-31.1495,0.340452,0
42.773,-31.1335,0.33762,0
42.8527,-31.1155,0.33472,0
42.9319,-31.0956,0.331839,0
43.0105,-31.0739,0.328988,0
43.0885,-31.0505,0.326185,0
43.1659,-31.0253,0.323402,0
43.2427,-30.9984,0.320657,0
43.3187,-30.9698,0.317943,0
43.3941,-30.9395,0.315286,0
43.4686,-30.9075,0.312659,0
43.5423,-30.8738,0.310081,0
43.6152,-30.8386,0.307532,0
43.6871,-30.8017,0.305032,0
43.7582,-30.7632,0.302591,0
43.8283,-30.7232,0.300179,0
43.8974,-30.6817,0.297816,0
43.9656,-30.6386,0.295501,0
44.0327,-30.594,0.293236,0
44.0987,-30.548,0.291028,0
44.1635,-30.5006,0.288861,0
44.2273,-30.4517,0.286751,0
44.2899,-30.4015,0.2847,0
44.3513,-30.3499,0.282689,0
44.4115,-30.297,0.280745,0
44.4705,-30.2427,0.278841,0
44.5281,-30.1873,0.277005,0
44.5845,-30.1305,0.275228,0
44.6395,-30.0726,0.273509,0
44.6933,-30.0135,0.271839,0
44.7455,-29.9533,0.270238,0
44.7966,-29.8919,0.268695,0
44.846,-29.8295,0.26721,0
44.8941,-29.766,0.265784,0
44.9408,-29.7015,0.264427,0
44.9859,-29.636,0.263128,0
45.0296,-29.5696,0.261888,0
45.0717,-29.5022,0.260706,0
45.1124,-29.434,0.259603,0
45.1515,-29.3649,0.258558,0
45.1888,-29.2949,0.257513,0
45.2242,-29.2239,0.25639,0
45.258,-29.1523,0.255335,0
45.2903,-29.0799,0.254368,0
45.3209,-29.0069,0.25348,0
45.35,-28.9333,0.252659,0
45.3773,-28.8591,0.251907,0
45.403,-28.7844,0.251253,0
45.4272,-28.7092,0.250657,0
45.4499,-28.6336,0.250257,0
45.4725,-28.5579,0.250452,0
45.4934,-28.4817,0.250726,0
45.5127,-28.4051,0.251077,0
45.5304,-28.3281,0.251527,0
45.5462,-28.2507,0.251966,0
45.5599,-28.1728,0.252386,0
45.572,-28.0947,0.252874,0
45.5823,-28.0163,0.253441,0
45.591,-27.9377,0.254085,0
45.598,-27.8588,0.254788,0
45.6031,-27.7799,0.255579,0
45.6066,-27.7008,0.256439,0
45.6084,-27.6216,0.257366,0
40.4516,-30.7597,0.399114,0
40.5238,-30.799,0.397396,0
40.5973,-30.836,0.395404,0
40.6716,-30.871,0.393294,0
40.7468,-30.9043,0.391185,0
40.8227,-30.9358,0.389066,0
40.8992,-30.9656,0.386937,0
40.9764,-30.9935,0.384808,0
41.0542,-31.0197,0.382679,0
41.1327,-31.0441,0.38054,0
41.2116,-31.0666,0.378402,0
41.291,-31.0873,0.376263,0
41.3709,-31.1061,0.374124,0
41.4512,-31.1232,0.371995,0
41.5317,-31.1384,0.369915,0
41.6127,-31.1518,0.367816,0
41.6938,-31.1633,0.365736,0
41.7752,-31.1729,0.363646,0
41.8569,-31.1806,0.361546,0
41.9386,-31.1863,0.359466,0
42.0205,-31.1902,0.357386,0
42.1023,-31.1922,0.355306,0
42.1842,-31.1922,0.353236,0
42.2661,-31.1904,0.351175,0
42.3479,-31.1866,0.349114,0
42.4295,-31.181,0.347064,0
42.5111,-31.1734,0.345023,0
42.5923,-31.164,0.343001,0
42.6733,-31.1526,0.34098,0
42.7537,-31.1376,0.338333,0
42.8335,-31.12,0.335413,0
42.9128,-31.1005,0.332532,0
42.9916,-31.0793,0.329681,0
43.0698,-31.0563,0.326849,0
43.1473,-31.0315,0.324066,0
43.2242,-31.005,0.321312,0
43.3005,-30.9768,0.318597,0
43.3759,-30.9469,0.315931,0
43.4506,-30.9153,0.313284,0
43.5245,-30.8821,0.310696,0
43.5977,-30.8472,0.308138,0
43.6698,-30.8107,0.305638,0
43.7412,-30.7727,0.303177,0
43.8115,-30.733,0.300755,0
43.8809,-30.6918,0.298382,0
43.9492,-30.6491,0.296058,0
44.0166,-30.6049,0.293782,0
44.0828,-30.5593,0.291556,0
44.148,-30.5121,0.289378,0
44.212,-30.4636,0.287259,0
44.2749,-30.4137,0.285189,0
44.3366,-30.3624,0.283167,0
44.3971,-30.3099,0.281204,0
44.4563,-30.2559,0.2793,0
44.5144,-30.2008,0.277445,0
44.5709,-30.1444,0.275657,0
44.6264,-30.0867,0.273919,0
44.6804,-30.0279,0.272239,0
44.733,-29.9679,0.270628,0
44.7844,-29.9068,0.269056,0
44.8342,-29.8447,0.267562,0
44.8827,-29.7814,0.266126,0
44.9296,-29.7172,0.264739,0
44.9752,-29.6519,0.263431,0
45.0192,-29.5857,0.262181,0
45.0617,-29.5186,0.26098,0
45.1027,-29.4505,0.259866,0
45.1422,-29.3817,0.258812,0
45.18,-29.3119,0.257786,0
45.2159,-29.2411,0.256654,0
45.2501,-29.1696,0.255589,0
45.2827,-29.0974,0.254603,0
45.3137,-29.0246,0.253685,0
45.3431,-28.9511,0.252855,0
45.3709,-28.8771,0.252093,0
45.397,-28.8025,0.251409,0
45.4215,-28.7274,0.250794,0
45.4444,-28.6517,0.250257,0
45.4672,-28.5762,0.250394,0
45.4885,-28.5002,0.250657,0
45.5082,-28.4237,0.250989,0
45.5263,-28.3468,0.251409,0
45.5425,-28.2694,0.251868,0
45.5568,-28.1917,0.252269,0
45.5692,-28.1136,0.252747,0
45.58,-28.0352,0.253294,0
45.5891,-27.9567,0.253919,0
45.5964,-27.8779,0.254613,0
45.602,-27.7989,0.255384,0
45.6059,-27.7199,0.256224,0
45.608,-27.6407,0.257132,0
40.5234,-30.7102,0.397689,0
40.5945,-30.7479,0.395999,0
40.6668,-30.7831,0.393978,0
40.7398,-30.8165,0.391917,0
40.8137,-30.8483,0.389837,0
40.8882,-30.8783,0.387777,0
40.9635,-30.9066,0.385687,0
41.0393,-30.9331,0.383597,0
41.1157,-30.9579,0.381517,0
41.1927,-30.9808,0.379417,0
41.2701,-31.002,0.377327,0
41.348,-31.0214,0.375237,0
41.4263,-31.039,0.373148,0
41.505,-31.0547,0.371048,0
41.584,-31.0687,0.368968,0
41.6633,-31.0808,0.366878,0
41.7428,-31.0911,0.364808,0
41.8226,-31.0995,0.362738,0
41.9025,-31.106,0.360667,0
41.9824,-31.1108,0.358616,0
42.0625,-31.1137,0.356575,0
42.1427,-31.1147,0.354544,0
42.2227,-31.1139,0.352523,0
42.3028,-31.1112,0.350511,0
42.3827,-31.1067,0.348519,0
42.4625,-31.1003,0.346536,0
42.5421,-31.0921,0.344573,0
42.6215,-31.0821,0.34263,0
42.7007,-31.0702,0.340696,0
42.779,-31.0541,0.337903,0
42.8569,-31.0361,0.335062,0
42.9343,-31.0163,0.332249,0
43.0111,-30.9947,0.329476,0
43.0873,-30.9715,0.326732,0
43.163,-30.9465,0.324017,0
43.2379,-30.9198,0.321341,0
43.3122,-30.8915,0.318695,0
43.3856,-30.8615,0.316097,0
43.4584,-30.8299,0.313538,0
43.5304,-30.7966,0.311019,0
43.6015,-30.7618,0.308538,0
43.6718,-30.7254,0.306097,0
43.7412,-30.6874,0.303714,0
43.8096,-30.6479,0.301361,0
43.877,-30.607,0.299066,0
43.9435,-30.5645,0.29681,0
44.009,-30.5206,0.294603,0
44.0733,-30.4753,0.292445,0
44.1366,-30.4285,0.290345,0
44.1987,-30.3804,0.288284,0
44.2598,-30.331,0.286282,0
44.3197,-30.2802,0.284329,0
44.3784,-30.2281,0.282435,0
44.4357,-30.1748,0.280589,0
44.492,-30.1203,0.278812,0
44.5469,-30.0645,0.277073,0
44.6005,-30.0075,0.275403,0
44.6527,-29.9494,0.273782,0
44.7037,-29.8903,0.27223,0
44.7532,-29.8299,0.270726,0
44.8014,-29.7686,0.26929,0
44.8482,-29.7062,0.267904,0
44.8935,-29.6429,0.266595,0
44.9374,-29.5786,0.265335,0
44.9798,-29.5133,0.264134,0
45.0208,-29.4472,0.263001,0
45.0602,-29.3802,0.261917,0
45.0981,-29.3124,0.260911,0
45.1345,-29.2438,0.259964,0
45.1694,-29.1744,0.259085,0
45.2023,-29.1041,0.258118,0
45.2335,-29.0331,0.257181,0
45.2632,-28.9615,0.256321,0
45.2912,-28.8893,0.25554,0
45.3177,-28.8165,0.254827,0
45.3426,-28.7432,0.254183,0
45.3658,-28.6694,0.253626,0
45.3887,-28.5955,0.253568,0
45.4104,-28.5212,0.253782,0
45.4304,-28.4465,0.254075,0
45.4489,-28.3714,0.254437,0
45.4653,-28.2958,0.25472,0
45.48,-28.2198,0.255071,0
45.4931,-28.1435,0.255501,0
45.5045,-28.0669,0.256009,0
45.5142,-27.99,0.256575,0
45.5223,-27.913,0.25722,0
45.5287,-27.8357,0.257933,0
45.5334,-27.7584,0.258724,0
45.5362,-27.6809,0.259583,0
45.5376,-27.6033,0.260501,0
40.5064,-30.7009,0.398089,0
40.5772,-30.7389,0.3964,0
40.6492,-30.7748,0.394466,0
40.7221,-30.8086,0.392405,0
40.7958,-30.8408,0.390345,0
40.8702,-30.8712,0.388265,0
40.9452,-30.8999,0.386185,0
41.0209,-30.9269,0.384105,0
41.0973,-30.9521,0.382015,0
41.1741,-30.9755,0.379925,0
41.2513,-30.9971,0.377835,0
41.3291,-31.0169,0.375736,0
41.4073,-31.0349,0.373655,0
41.4859,-31.0511,0.371556,0
41.5649,-31.0655,0.369476,0
41.6441,-31.078,0.367386,0
41.7236,-31.0887,0.365306,0
41.8033,-31.0976,0.363236,0
41.8831,-31.1046,0.361165,0
41.9631,-31.1098,0.359114,0
42.0432,-31.1131,0.357073,0
42.1233,-31.1146,0.355032,0
42.2034,-31.1142,0.353001,0
42.2834,-31.112,0.350989,0
42.3634,-31.1079,0.348997,0
42.4433,-31.102,0.347015,0
42.523,-31.0943,0.345042,0
42.6023,-31.0847,0.343099,0
42.6816,-31.0733,0.341165,0
42.7602,-31.0582,0.338587,0
42.8381,-31.0406,0.335745,0
42.9156,-31.0212,0.332923,0
42.9927,-31.0001,0.33014,0
43.069,-30.9772,0.327386,0
43.1448,-30.9527,0.324661,0
43.2198,-30.9264,0.321986,0
43.2943,-30.8985,0.319329,0
43.368,-30.8689,0.316722,0
43.4409,-30.8376,0.314154,0
43.5131,-30.8048,0.311614,0
43.5845,-30.7703,0.309134,0
43.6549,-30.7343,0.306693,0
43.7245,-30.6967,0.30429,0
43.7932,-30.6576,0.301927,0
43.8609,-30.617,0.299612,0
43.9275,-30.5749,0.297347,0
43.9933,-30.5313,0.29513,0
44.0579,-30.4863,0.292962,0
44.1215,-30.44,0.290843,0
44.1839,-30.3922,0.288773,0
44.2452,-30.343,0.286751,0
44.3053,-30.2926,0.284798,0
44.3642,-30.2408,0.282894,0
44.422,-30.1878,0.281038,0
44.4784,-30.1335,0.279232,0
44.5337,-30.0781,0.277493,0
44.5877,-30.0214,0.275794,0
44.6402,-29.9636,0.274173,0
44.6916,-29.9046,0.272591,0
44.7413,-29.8446,0.271087,0
44.7899,-29.7835,0.269632,0
44.837,-29.7214,0.268226,0
44.8827,-29.6583,0.266898,0
44.927,-29.5942,0.265628,0
44.9698,-29.5292,0.264417,0
45.0111,-29.4632,0.263265,0
45.0509,-29.3964,0.262181,0
45.0891,-29.3288,0.261146,0
45.1259,-29.2604,0.260189,0
45.1612,-29.1912,0.25929,0
45.1945,-29.1211,0.258343,0
45.2262,-29.0503,0.257396,0
45.2562,-28.9788,0.256527,0
45.2846,-28.9067,0.255716,0
45.3114,-28.8341,0.254984,0
45.3367,-28.7609,0.254339,0
45.3604,-28.6872,0.253753,0
45.3831,-28.6133,0.253529,0
45.4052,-28.5392,0.253724,0
45.4257,-28.4646,0.253997,0
45.4446,-28.3896,0.254349,0
45.4615,-28.3141,0.254642,0
45.4766,-28.2381,0.254984,0
45.4902,-28.1619,0.255394,0
45.502,-28.0854,0.255872,0
45.512,-28.0086,0.256429,0
45.5205,-27.9316,0.257044,0
45.5273,-27.8544,0.257757,0
45.5323,-27.7771,0.258529,0
45.5357,-27.6996,0.259368,0
45.5374,-27.622,0.260277,0
40.4894,-30.6915,0.398499,0
40.56,-30.7299,0.39681,0
40.6317,-30.7663,0.394964,0
40.7045,-30.8006,0.392904,0
40.778,-30.8332,0.390843,0
40.8522,-30.864,0.388773,0
40.927,-30.8932,0.386693,0
41.0026,-30.9205,0.384613,0
41.0788,-30.9461,0.382523,0
41.1555,-30.97,0.380433,0
41.2327,-30.992,0.378343,0
41.3104,-31.0123,0.376243,0
41.3885,-31.0307,0.374154,0
41.467,-31.0474,0.372064,0
41.5459,-31.0622,0.369974,0
41.625,-31.0752,0.367894,0
41.7044,-31.0863,0.365804,0
41.784,-31.0956,0.363734,0
41.8638,-31.1031,0.361673,0
41.9438,-31.1087,0.359612,0
42.0238,-31.1125,0.357562,0
42.104,-31.1144,0.355521,0
42.1841,-31.1145,0.353489,0
42.2641,-31.1127,0.351487,0
42.3441,-31.1091,0.349486,0
42.4241,-31.1036,0.347493,0
42.5037,-31.0963,0.345521,0
42.5832,-31.0872,0.343568,0
42.6625,-31.0762,0.341634,0
42.7412,-31.0622,0.33928,0
42.8194,-31.045,0.336429,0
42.897,-31.0261,0.333607,0
42.9741,-31.0053,0.330804,0
43.0506,-30.9829,0.32805,0
43.1265,-30.9588,0.325316,0
43.2018,-30.9329,0.32262,0
43.2764,-30.9054,0.319964,0
43.3503,-30.8762,0.317347,0
43.4234,-30.8453,0.314769,0
43.4957,-30.8129,0.31223,0
43.5673,-30.7788,0.30973,0
43.638,-30.7431,0.307269,0
43.7078,-30.7059,0.304857,0
43.7766,-30.6672,0.302493,0
43.8446,-30.6269,0.300169,0
43.9116,-30.5852,0.297894,0
43.9774,-30.542,0.295657,0
44.0423,-30.4973,0.293489,0
44.1063,-30.4513,0.291351,0
44.1689,-30.4038,0.289271,0
44.2305,-30.355,0.287239,0
44.2909,-30.3049,0.285267,0
44.3502,-30.2534,0.283343,0
44.4082,-30.2007,0.281478,0
44.4649,-30.1467,0.279661,0
44.5205,-30.0916,0.277913,0
44.5748,-30.0352,0.276204,0
44.6277,-29.9776,0.274554,0
44.6792,-29.919,0.272972,0
44.7295,-29.8592,0.271448,0
44.7783,-29.7984,0.269984,0
44.8258,-29.7365,0.268558,0
44.8718,-29.6736,0.26721,0
44.9164,-29.6097,0.265931,0
44.9595,-29.5449,0.2647,0
45.0012,-29.4792,0.263538,0
45.0413,-29.4126,0.262435,0
45.0801,-29.3452,0.26139,0
45.1172,-29.277,0.260413,0
45.1528,-29.208,0.259505,0
45.1866,-29.1381,0.258597,0
45.2186,-29.0674,0.25762,0
45.2491,-28.9961,0.256732,0
45.2779,-28.9242,0.255902,0
45.3051,-28.8517,0.255159,0
45.3307,-28.7786,0.254486,0
45.3548,-28.7051,0.25389,0
45.3776,-28.6311,0.253499,0
45.4,-28.5571,0.253675,0
45.4209,-28.4826,0.253919,0
45.4402,-28.4077,0.254261,0
45.4577,-28.3323,0.254573,0
45.4731,-28.2565,0.254886,0
45.487,-28.1803,0.255286,0
45.4992,-28.1039,0.255755,0
45.5098,-28.0271,0.256292,0
45.5186,-27.9502,0.256907,0
45.5258,-27.873,0.257581,0
45.5313,-27.7957,0.258333,0
45.5351,-27.7183,0.259154,0
45.5372,-27.6407,0.260042,0
40.5591,-30.6442,0.397103,0
40.6286,-30.681,0.395443,0
40.6992,-30.7157,0.393577,0
40.7707,-30.7484,0.391556,0
40.843,-30.7795,0.389534,0
40.9159,-30.8089,0.387513,0
40.9895,-30.8366,0.385472,0
41.0637,-30.8626,0.383431,0
41.1384,-30.8868,0.38138,0
41.2138,-30.9093,0.379339,0
41.2895,-30.9301,0.377288,0
41.3658,-30.949,0.375237,0
41.4424,-30.9662,0.373187,0
41.5194,-30.9817,0.371146,0
41.5967,-30.9953,0.369105,0
41.6743,-31.0072,0.367073,0
41.7521,-31.0172,0.365032,0
41.8302,-31.0255,0.363011,0
41.9084,-31.032,0.360989,0
41.9866,-31.0366,0.358978,0
42.065,-31.0394,0.356976,0
42.1434,-31.0404,0.354993,0
42.2218,-31.0397,0.353011,0
42.3001,-31.0371,0.351048,0
42.3784,-31.0327,0.349105,0
42.4565,-31.0265,0.347161,0
42.5344,-31.0184,0.345237,0
42.6121,-31.0087,0.343333,0
42.6895,-30.9971,0.341448,0
42.7663,-30.9817,0.338841,0
42.8425,-30.9641,0.336068,0
42.9182,-30.9448,0.333304,0
42.9934,-30.9238,0.330589,0
43.0681,-30.9011,0.327904,0
43.1421,-30.8767,0.325237,0
43.2155,-30.8507,0.32263,0
43.2883,-30.823,0.320042,0
43.3602,-30.7937,0.317493,0
43.4315,-30.7628,0.314984,0
43.502,-30.7303,0.312513,0
43.5716,-30.6962,0.310081,0
43.6404,-30.6606,0.307708,0
43.7084,-30.6235,0.305355,0
43.7754,-30.585,0.30306,0
43.8414,-30.5449,0.300804,0
43.9066,-30.5034,0.298597,0
43.9706,-30.4604,0.296439,0
44.0337,-30.4161,0.294329,0
44.0957,-30.3704,0.292259,0
44.1566,-30.3233,0.290247,0
44.2164,-30.275,0.288284,0
44.275,-30.2253,0.28637,0
44.3325,-30.1743,0.284515,0
44.3887,-30.1221,0.282708,0
44.4438,-30.0687,0.28095,0
44.4976,-30.0142,0.279261,0
44.5502,-29.9585,0.27762,0
44.6013,-29.9016,0.276029,0
44.6512,-29.8436,0.274505,0
44.6999,-29.7846,0.27304,0
44.7471,-29.7246,0.271634,0
44.793,-29.6635,0.270277,0
44.8373,-29.6015,0.268978,0
44.8804,-29.5386,0.267747,0
44.922,-29.4747,0.266575,0
44.9621,-29.4099,0.265452,0
45.0007,-29.3443,0.264407,0
45.0379,-29.2779,0.263421,0
45.0736,-29.2107,0.262484,0
45.1077,-29.1428,0.261624,0
45.1404,-29.0742,0.260814,0
45.1714,-29.0048,0.260081,0
45.2005,-28.9347,0.259261,0
45.228,-28.864,0.258499,0
45.2541,-28.7927,0.257786,0
45.2784,-28.7209,0.257161,0
45.3012,-28.6486,0.256614,0
45.3241,-28.5763,0.256732,0
45.3453,-28.5036,0.256946,0
45.3648,-28.4303,0.257142,0
45.3824,-28.3566,0.257357,0
45.3985,-28.2825,0.25763,0
45.4129,-28.2081,0.257982,0
45.4257,-28.1333,0.258402,0
45.4369,-28.0583,0.25889,0
45.4464,-27.983,0.259456,0
45.4543,-27.9075,0.260081,0
45.4605,-27.8318,0.260784,0
45.465,-27.756,0.261556,0
45.4679,-27.6801,0.262396,0
45.4691,-27.6041,0.263304,0
40.5424,-30.635,0.397503,0
40.6116,-30.6723,0.395853,0
40.682,-30.7076,0.394066,0
40.7534,-30.7407,0.392054,0
40.8255,-30.7722,0.390023,0
40.8983,-30.802,0.387991,0
40.9717,-30.8301,0.38596,0
41.0457,-30.8565,0.383919,0
41.1204,-30.8811,0.381878,0
41.1955,-30.9041,0.379837,0
41.2712,-30.9252,0.377786,0
41.3473,-30.9446,0.375736,0
41.4238,-30.9623,0.373685,0
41.5008,-30.9781,0.371644,0
41.578,-30.9922,0.369603,0
41.6555,-31.0045,0.367552,0
41.7334,-31.015,0.36553,0
41.8113,-31.0237,0.363499,0
41.8895,-31.0306,0.361468,0
41.9677,-31.0357,0.359466,0
42.0461,-31.0389,0.357464,0
42.1245,-31.0404,0.355472,0
42.2028,-31.04,0.353489,0
42.2812,-31.0379,0.351517,0
42.3595,-31.0339,0.349573,0
42.4377,-31.0281,0.34763,0
42.5156,-31.0205,0.345696,0
42.5933,-31.0112,0.343792,0
42.6709,-31,0.341907,0
42.7478,-30.9857,0.339515,0
42.8241,-30.9686,0.336732,0
42.9,-30.9496,0.333968,0
42.9754,-30.929,0.331243,0
43.0502,-30.9067,0.328548,0
43.1244,-30.8827,0.325892,0
43.1978,-30.8571,0.323255,0
43.2708,-30.8298,0.320657,0
43.3429,-30.8009,0.318109,0
43.4144,-30.7704,0.315589,0
43.485,-30.7383,0.313109,0
43.5549,-30.7046,0.310667,0
43.6239,-30.6694,0.308275,0
43.6921,-30.6326,0.305921,0
43.7593,-30.5944,0.303607,0
43.8256,-30.5547,0.301341,0
43.8909,-30.5135,0.299124,0
43.9553,-30.4709,0.296956,0
44.0186,-30.4269,0.294827,0
44.0808,-30.3815,0.292747,0
44.142,-30.3348,0.290726,0
44.202,-30.2867,0.288753,0
44.261,-30.2374,0.286829,0
44.3187,-30.1867,0.284954,0
44.3753,-30.1348,0.283138,0
44.4306,-30.0818,0.28138,0
44.4847,-30.0275,0.279671,0
44.5376,-29.972,0.278011,0
44.5891,-29.9154,0.276409,0
44.6394,-29.8577,0.274876,0
44.6883,-29.799,0.273392,0
44.7358,-29.7392,0.271956,0
44.782,-29.6784,0.270599,0
44.8268,-29.6166,0.26929,0
44.8702,-29.5538,0.26804,0
44.912,-29.4902,0.266859,0
44.9526,-29.4256,0.265726,0
44.9916,-29.3602,0.264652,0
45.0291,-29.294,0.263646,0
45.0651,-29.227,0.262708,0
45.0996,-29.1593,0.26182,0
45.1326,-29.0908,0.261009,0
45.1641,-29.0216,0.260247,0
45.1937,-28.9517,0.259466,0
45.2216,-28.8811,0.258675,0
45.248,-28.8099,0.257952,0
45.2727,-28.7383,0.257318,0
45.2959,-28.6661,0.256741,0
45.3187,-28.5938,0.256693,0
45.3403,-28.5212,0.256888,0
45.3603,-28.4481,0.257113,0
45.3783,-28.3744,0.257298,0
45.3948,-28.3004,0.257552,0
45.4096,-28.226,0.257884,0
45.4228,-28.1514,0.258294,0
45.4343,-28.0764,0.258763,0
45.4443,-28.0012,0.25931,0
45.4525,-27.9257,0.259925,0
45.4591,-27.8501,0.260609,0
45.4641,-27.7743,0.26137,0
45.4673,-27.6984,0.262191,0
45.469,-27.6224,0.263079,0
40.5258,-30.6258,0.397904,0
40.5949,-30.6634,0.396253,0
40.6649,-30.6993,0.394544,0
40.7361,-30.7329,0.392542,0
40.808,-30.7647,0.390521,0
40.8806,-30.7949,0.388489,0
40.9539,-30.8234,0.386458,0
41.0278,-30.8503,0.384417,0
41.1023,-30.8753,0.382376,0
41.1773,-30.8987,0.380325,0
41.2529,-30.9203,0.378284,0
41.3289,-30.9401,0.376234,0
41.4054,-30.9582,0.374173,0
41.4822,-30.9745,0.372142,0
41.5593,-30.989,0.370091,0
41.6369,-31.0017,0.36805,0
41.7145,-31.0126,0.366019,0
41.7924,-31.0217,0.363988,0
41.8705,-31.0291,0.361966,0
41.9488,-31.0346,0.359954,0
42.0272,-31.0383,0.357952,0
42.1055,-31.0402,0.35595,0
42.1839,-31.0403,0.353968,0
42.2623,-31.0385,0.351995,0
42.3406,-31.035,0.350032,0
42.4188,-31.0297,0.348089,0
42.4968,-31.0225,0.346165,0
42.5745,-31.0136,0.344251,0
42.6521,-31.0029,0.342357,0
42.7293,-30.9896,0.340198,0
42.8058,-30.9729,0.337396,0
42.8817,-30.9544,0.334632,0
42.9572,-30.9342,0.331898,0
43.0321,-30.9123,0.329193,0
43.1065,-30.8887,0.326517,0
43.1802,-30.8634,0.32388,0
43.2532,-30.8365,0.321282,0
43.3255,-30.808,0.318714,0
43.3972,-30.7779,0.316195,0
43.468,-30.7462,0.313704,0
43.5381,-30.7129,0.311253,0
43.6073,-30.678,0.308851,0
43.6757,-30.6416,0.306478,0
43.7431,-30.6038,0.304163,0
43.8097,-30.5644,0.301888,0
43.8753,-30.5236,0.299652,0
43.9398,-30.4813,0.297474,0
44.0034,-30.4377,0.295335,0
44.0659,-30.3926,0.293245,0
44.1273,-30.3462,0.291214,0
44.1877,-30.2984,0.289222,0
44.2469,-30.2494,0.287288,0
44.3049,-30.1991,0.285404,0
44.3617,-30.1475,0.283577,0
44.4174,-30.0947,0.2818,0
44.4718,-30.0407,0.280071,0
44.525,-29.9855,0.278411,0
44.5768,-29.9292,0.27679,0
44.6273,-29.8717,0.275238,0
44.6766,-29.8133,0.273743,0
44.7245,-29.7537,0.272298,0
44.771,-29.6931,0.270921,0
44.8161,-29.6316,0.269603,0
44.8598,-29.5691,0.268343,0
44.9021,-29.5056,0.267132,0
44.9429,-29.4413,0.265989,0
44.9823,-29.3761,0.264915,0
45.0202,-29.3101,0.26389,0
45.0565,-29.2433,0.262933,0
45.0914,-29.1757,0.262034,0
45.1248,-29.1074,0.261195,0
45.1566,-29.0384,0.260433,0
45.1867,-28.9687,0.259661,0
45.215,-28.8982,0.258851,0
45.2417,-28.8271,0.258118,0
45.2669,-28.7556,0.257454,0
45.2904,-28.6835,0.256868,0
45.3132,-28.6113,0.256663,0
45.3352,-28.5387,0.256829,0
45.3557,-28.4658,0.257073,0
45.3741,-28.3922,0.257239,0
45.391,-28.3183,0.257484,0
45.4062,-28.244,0.257806,0
45.4198,-28.1694,0.258196,0
45.4317,-28.0945,0.258646,0
45.442,-28.0193,0.259173,0
45.4507,-27.9439,0.259769,0
45.4577,-27.8684,0.260433,0
45.463,-27.7926,0.261175,0
45.4667,-27.7167,0.261986,0
45.4688,-27.6408,0.262855,0
40.5934,-30.5805,0.396546,0
40.6614,-30.6166,0.394925,0
40.7304,-30.6508,0.393196,0
40.8004,-30.6829,0.391234,0
40.8711,-30.7133,0.389241,0
40.9425,-30.7421,0.387259,0
41.0146,-30.7692,0.385267,0
41.0872,-30.7946,0.383265,0
41.1604,-30.8184,0.381263,0
41.2341,-30.8404,0.379261,0
41.3083,-30.8607,0.377259,0
41.3829,-30.8793,0.375247,0
41.4579,-30.8962,0.373245,0
41.5333,-30.9113,0.371243,0
41.6089,-30.9247,0.369241,0
41.6849,-30.9363,0.367249,0
41.7611,-30.9462,0.365257,0
41.8375,-30.9543,0.363275,0
41.914,-30.9606,0.361302,0
41.9907,-30.9652,0.359339,0
42.0673,-30.9679,0.357376,0
42.1441,-30.9689,0.355423,0
42.2209,-30.9682,0.353489,0
42.2976,-30.9657,0.351566,0
42.3741,-30.9614,0.349652,0
42.4506,-30.9553,0.347757,0
42.5269,-30.9475,0.345872,0
42.6029,-30.9379,0.344017,0
42.6787,-30.9266,0.342161,0
42.754,-30.912,0.339749,0
42.8286,-30.8948,0.337025,0
42.9028,-30.876,0.334329,0
42.9765,-30.8554,0.331663,0
43.0495,-30.8333,0.329036,0
43.1221,-30.8094,0.326429,0
43.1939,-30.784,0.323861,0
43.2652,-30.7569,0.321331,0
43.3357,-30.7283,0.318831,0
43.4055,-30.6981,0.31638,0
43.4745,-30.6663,0.313958,0
43.5428,-30.633,0.311585,0
43.6102,-30.5983,0.309241,0
43.6768,-30.562,0.306946,0
43.7424,-30.5242,0.304691,0
43.8071,-30.485,0.302493,0
43.8709,-30.4444,0.300316,0
43.9338,-30.4024,0.298206,0
43.9955,-30.359,0.296136,0
44.0562,-30.3143,0.294114,0
44.1159,-30.2683,0.292142,0
44.1745,-30.2209,0.290208,0
44.232,-30.1723,0.288343,0
44.2883,-30.1224,0.286517,0
44.3435,-30.0714,0.284749,0
44.3974,-30.0191,0.28304,0
44.4502,-29.9657,0.28138,0
44.5016,-29.9111,0.279759,0
44.5518,-29.8554,0.278216,0
44.6008,-29.7987,0.276712,0
44.6484,-29.7409,0.275267,0
44.6947,-29.6821,0.27388,0
44.7396,-29.6223,0.272562,0
44.7831,-29.5616,0.271282,0
44.8254,-29.4999,0.270071,0
44.8662,-29.4374,0.268929,0
44.9054,-29.374,0.267835,0
44.9434,-29.3097,0.2668,0
44.9798,-29.2447,0.265833,0
45.0148,-29.1789,0.264925,0
45.0482,-29.1124,0.264075,0
45.0802,-29.0451,0.263284,0
45.1106,-28.9772,0.262552,0
45.1396,-28.9087,0.261898,0
45.167,-28.8395,0.261292,0
45.1926,-28.7697,0.260657,0
45.2165,-28.6993,0.260042,0
45.2393,-28.6287,0.259661,0
45.2616,-28.5578,0.259778,0
45.2821,-28.4864,0.259837,0
45.301,-28.4146,0.259974,0
45.3183,-28.3423,0.260169,0
45.3341,-28.2697,0.260443,0
45.3481,-28.1967,0.260784,0
45.3607,-28.1235,0.261195,0
45.3716,-28.0499,0.261673,0
45.3809,-27.9762,0.26223,0
45.3887,-27.9022,0.262855,0
45.3947,-27.828,0.263538,0
45.3991,-27.7537,0.2643,0
45.4019,-27.6794,0.26513,0
45.403,-27.6049,0.266009,0
40.5771,-30.5716,0.396937,0
40.6449,-30.608,0.395316,0
40.7136,-30.6428,0.393675,0
40.7834,-30.6753,0.391702,0
40.854,-30.7061,0.38972,0
40.9252,-30.7353,0.387737,0
40.9972,-30.7628,0.385745,0
41.0696,-30.7886,0.383743,0
41.1427,-30.8128,0.381751,0
41.2162,-30.8353,0.379749,0
41.2903,-30.856,0.377737,0
41.3649,-30.875,0.375736,0
41.4398,-30.8923,0.373734,0
41.5151,-30.9078,0.371722,0
41.5906,-30.9216,0.36972,0
41.6666,-30.9337,0.367738,0
41.7427,-30.944,0.365745,0
41.819,-30.9525,0.363753,0
41.8955,-30.9592,0.36178,0
41.9721,-30.9642,0.359808,0
42.0489,-30.9674,0.357845,0
42.1255,-30.9689,0.355892,0
42.2023,-30.9685,0.353948,0
42.2791,-30.9664,0.352025,0
42.3557,-30.9626,0.35012,0
42.4321,-30.9569,0.348216,0
42.5085,-30.9495,0.346331,0
42.5846,-30.9404,0.344466,0
42.6605,-30.9295,0.342611,0
42.7359,-30.9159,0.340413,0
42.8107,-30.8991,0.337679,0
42.8849,-30.8806,0.334974,0
42.9587,-30.8605,0.332308,0
43.032,-30.8387,0.329661,0
43.1046,-30.8153,0.327054,0
43.1766,-30.7903,0.324486,0
43.248,-30.7636,0.321937,0
43.3187,-30.7354,0.319437,0
43.3887,-30.7055,0.316966,0
43.458,-30.6741,0.314534,0
43.5264,-30.6412,0.312152,0
43.594,-30.6068,0.309798,0
43.6608,-30.5708,0.307493,0
43.7266,-30.5335,0.305238,0
43.7916,-30.4946,0.303011,0
43.8556,-30.4543,0.300833,0
43.9187,-30.4127,0.298714,0
43.9807,-30.3696,0.296624,0
44.0417,-30.3252,0.294603,0
44.1016,-30.2795,0.292601,0
44.1605,-30.2324,0.290667,0
44.2183,-30.1841,0.288782,0
44.2748,-30.1346,0.286946,0
44.3303,-30.0838,0.285169,0
44.3845,-30.0318,0.283441,0
44.4375,-29.9787,0.281771,0
44.4893,-29.9244,0.28014,0
44.5398,-29.869,0.278577,0
44.5891,-29.8125,0.277073,0
44.637,-29.755,0.275618,0
44.6836,-29.6964,0.274212,0
44.7289,-29.6369,0.272864,0
44.7728,-29.5763,0.271595,0
44.8153,-29.5149,0.270364,0
44.8564,-29.4526,0.269202,0
44.8961,-29.3894,0.268099,0
44.9343,-29.3253,0.267054,0
44.9711,-29.2605,0.266058,0
45.0065,-29.1948,0.26514,0
45.0403,-29.1285,0.264271,0
45.0727,-29.0614,0.26347,0
45.1034,-28.9937,0.262728,0
45.1327,-28.9253,0.262044,0
45.1605,-28.8562,0.261429,0
45.1866,-28.7866,0.260814,0
45.2109,-28.7164,0.260189,0
45.2336,-28.6457,0.259642,0
45.2564,-28.575,0.259749,0
45.2773,-28.5037,0.259818,0
45.2966,-28.4319,0.259935,0
45.3143,-28.3598,0.260111,0
45.3304,-28.2872,0.260374,0
45.3449,-28.2144,0.260696,0
45.3578,-28.1412,0.261097,0
45.3691,-28.0677,0.261556,0
45.3788,-27.994,0.262093,0
45.3869,-27.92,0.262689,0
45.3934,-27.8459,0.263362,0
45.3982,-27.7717,0.264105,0
45.4014,-27.6973,0.264915,0
45.403,-27.6229,0.265794,0
40.5608,-30.5626,0.397327,0
40.6284,-30.5994,0.395716,0
40.697,-30.6346,0.394085,0
40.7666,-30.6676,0.392181,0
40.837,-30.6988,0.390198,0
40.908,-30.7284,0.388216,0
40.9798,-30.7563,0.386224,0
41.052,-30.7826,0.384222,0
41.125,-30.8071,0.38223,0
41.1985,-30.83,0.380228,0
41.2724,-30.8511,0.378216,0
41.3468,-30.8706,0.376214,0
41.4216,-30.8883,0.374212,0
41.4968,-30.9042,0.3722,0
41.5723,-30.9185,0.370208,0
41.6482,-30.9309,0.368216,0
41.7243,-30.9416,0.366214,0
41.8006,-30.9506,0.364232,0
41.877,-30.9578,0.362249,0
41.9537,-30.9632,0.360277,0
42.0303,-30.9668,0.358323,0
42.1071,-30.9687,0.356361,0
42.1838,-30.9688,0.354427,0
42.2605,-30.9671,0.352484,0
42.3372,-30.9637,0.350579,0
42.4137,-30.9584,0.348665,0
42.4901,-30.9515,0.34679,0
42.5662,-30.9428,0.344915,0
42.6422,-30.9323,0.34305,0
42.7178,-30.9197,0.341077,0
42.7927,-30.9033,0.338333,0
42.8671,-30.8853,0.335628,0
42.9409,-30.8655,0.332952,0
43.0143,-30.8442,0.330296,0
43.0872,-30.8211,0.327679,0
43.1593,-30.7965,0.325091,0
43.2309,-30.7702,0.322552,0
43.3017,-30.7423,0.320042,0
43.372,-30.7129,0.317562,0
43.4413,-30.6818,0.31512,0
43.5099,-30.6493,0.312728,0
43.5777,-30.6152,0.310364,0
43.6447,-30.5797,0.30805,0
43.7109,-30.5426,0.305775,0
43.776,-30.5041,0.303548,0
43.8403,-30.4642,0.301361,0
43.9036,-30.4229,0.299222,0
43.9659,-30.3801,0.297132,0
44.027,-30.3361,0.295081,0
44.0873,-30.2906,0.293079,0
44.1464,-30.2439,0.291136,0
44.2044,-30.1959,0.289241,0
44.2613,-30.1467,0.287396,0
44.317,-30.0962,0.285599,0
44.3716,-30.0445,0.283861,0
44.4248,-29.9916,0.282171,0
44.477,-29.9376,0.28053,0
44.5277,-29.8824,0.278948,0
44.5773,-29.8262,0.277425,0
44.6255,-29.7689,0.27596,0
44.6725,-29.7106,0.274544,0
44.718,-29.6513,0.273187,0
44.7623,-29.591,0.271888,0
44.8052,-29.5298,0.270657,0
44.8466,-29.4677,0.269476,0
44.8866,-29.4047,0.268353,0
44.9252,-29.3408,0.267298,0
44.9623,-29.2762,0.266292,0
44.9981,-29.2108,0.265355,0
45.0323,-29.1446,0.264476,0
45.065,-29.0777,0.263665,0
45.0962,-29.0101,0.262904,0
45.1258,-28.9418,0.26221,0
45.1539,-28.873,0.261575,0
45.1805,-28.8035,0.26098,0
45.2052,-28.7334,0.260335,0
45.2283,-28.6628,0.259759,0
45.251,-28.5921,0.25972,0
45.2723,-28.5209,0.259798,0
45.292,-28.4493,0.259896,0
45.3102,-28.3772,0.260071,0
45.3266,-28.3048,0.260306,0
45.3415,-28.232,0.260618,0
45.3548,-28.1589,0.260989,0
45.3666,-28.0855,0.261439,0
45.3766,-28.0118,0.261956,0
45.3851,-27.9379,0.262542,0
45.392,-27.8638,0.263196,0
45.3972,-27.7896,0.263929,0
45.4008,-27.7153,0.26472,0
45.4027,-27.6408,0.26557,0
40.6264,-30.5192,0.396009,0
40.693,-30.5545,0.394417,0
40.7605,-30.5882,0.392825,0
40.8291,-30.6197,0.390902,0
40.8984,-30.6495,0.388968,0
40.9682,-30.6777,0.387015,0
41.0387,-30.7042,0.385062,0
41.1099,-30.7291,0.383109,0
41.1815,-30.7524,0.381146,0
41.2537,-30.774,0.379183,0
41.3263,-30.7939,0.37722,0
41.3995,-30.8121,0.375257,0
41.4729,-30.8287,0.373294,0
41.5466,-30.8435,0.371341,0
41.6208,-30.8566,0.369378,0
41.6952,-30.868,0.367415,0
41.7698,-30.8777,0.365472,0
41.8445,-30.8856,0.363529,0
41.9195,-30.8918,0.361595,0
41.9945,-30.8963,0.359671,0
42.0697,-30.899,0.357747,0
42.1448,-30.9,0.355843,0
42.2199,-30.8993,0.353948,0
42.2951,-30.8968,0.352064,0
42.3701,-30.8926,0.350198,0
42.4449,-30.8867,0.348333,0
42.5197,-30.8791,0.346497,0
42.5941,-30.8697,0.344671,0
42.6684,-30.8586,0.342855,0
42.7422,-30.8447,0.340628,0
42.8152,-30.8279,0.337952,0
42.8879,-30.8095,0.335316,0
42.9601,-30.7895,0.332708,0
43.0316,-30.7678,0.33013,0
43.1027,-30.7445,0.327571,0
43.1731,-30.7197,0.325062,0
43.243,-30.6932,0.322571,0
43.3121,-30.6652,0.32013,0
43.3805,-30.6357,0.317728,0
43.4481,-30.6046,0.315355,0
43.515,-30.5721,0.313021,0
43.581,-30.5381,0.310736,0
43.6462,-30.5026,0.308489,0
43.7106,-30.4656,0.306273,0
43.7741,-30.4273,0.304105,0
43.8366,-30.3875,0.301986,0
43.8981,-30.3464,0.299915,0
43.9587,-30.304,0.297884,0
44.0182,-30.2602,0.295902,0
44.0767,-30.2151,0.293958,0
44.1341,-30.1688,0.292073,0
44.1905,-30.1212,0.290237,0
44.2457,-30.0723,0.28845,0
44.2998,-30.0223,0.286712,0
44.3527,-29.9712,0.285042,0
44.4044,-29.9188,0.283402,0
44.4548,-29.8654,0.281829,0
44.504,-29.8109,0.280306,0
44.552,-29.7553,0.278841,0
44.5987,-29.6987,0.277415,0
44.6441,-29.6411,0.276068,0
44.6881,-29.5826,0.274769,0
44.7309,-29.5231,0.273519,0
44.7722,-29.4627,0.272337,0
44.8122,-29.4014,0.271204,0
44.8508,-29.3393,0.27013,0
44.888,-29.2763,0.269114,0
44.9237,-29.2126,0.268167,0
44.958,-29.1481,0.267279,0
44.9908,-29.0829,0.266429,0
45.0221,-29.017,0.265657,0
45.052,-28.9505,0.264954,0
45.0804,-28.8834,0.2643,0
45.1073,-28.8156,0.263704,0
45.1326,-28.7473,0.263177,0
45.1564,-28.6785,0.262718,0
45.1792,-28.6093,0.262513,0
45.2009,-28.5398,0.262503,0
45.2209,-28.4698,0.262571,0
45.2394,-28.3993,0.262689,0
45.2563,-28.3285,0.262894,0
45.2718,-28.2573,0.263167,0
45.2855,-28.1858,0.263499,0
45.2979,-28.114,0.2639,0
45.3086,-28.0419,0.264368,0
45.3177,-27.9696,0.264915,0
45.3252,-27.8971,0.26553,0
45.3311,-27.8244,0.266195,0
45.3354,-27.7515,0.266937,0
45.3381,-27.6786,0.267747,0
45.3392,-27.6056,0.268626,0
40.6105,-30.5105,0.39639,0
40.6769,-30.5462,0.394808,0
40.7441,-30.5802,0.393206,0
40.8124,-30.6122,0.39137,0
40.8815,-30.6424,0.389427,0
40.9512,-30.671,0.387484,0
41.0217,-30.698,0.38553,0
41.0927,-30.7233,0.383577,0
41.1642,-30.7469,0.381614,0
41.2362,-30.7689,0.379652,0
41.3088,-30.7893,0.377698,0
41.3817,-30.8079,0.375726,0
41.4551,-30.8248,0.373773,0
41.5288,-30.8401,0.3718,0
41.6028,-30.8536,0.369857,0
41.6772,-30.8654,0.367894,0
41.7517,-30.8755,0.365941,0
41.8265,-30.8838,0.364007,0
41.9014,-30.8905,0.362064,0
41.9764,-30.8954,0.36013,0
42.0515,-30.8985,0.358216,0
42.1267,-30.8999,0.356302,0
42.2019,-30.8996,0.354398,0
42.277,-30.8976,0.352523,0
42.352,-30.8938,0.350638,0
42.4269,-30.8883,0.348782,0
42.5016,-30.8811,0.346937,0
42.5762,-30.8721,0.345111,0
42.6505,-30.8615,0.343294,0
42.7245,-30.8485,0.341273,0
42.7977,-30.8321,0.338597,0
42.8704,-30.8141,0.33595,0
42.9427,-30.7945,0.333323,0
43.0144,-30.7732,0.330745,0
43.0856,-30.7503,0.328187,0
43.1562,-30.7258,0.325657,0
43.2261,-30.6998,0.323177,0
43.2954,-30.6721,0.320716,0
43.364,-30.643,0.318304,0
43.4318,-30.6123,0.315921,0
43.4989,-30.5801,0.313577,0
43.5652,-30.5464,0.311282,0
43.6305,-30.5112,0.309017,0
43.6952,-30.4747,0.3068,0
43.7588,-30.4367,0.304622,0
43.8216,-30.3973,0.302493,0
43.8834,-30.3565,0.300413,0
43.9441,-30.3143,0.298372,0
44.0039,-30.2709,0.29637,0
44.0627,-30.2261,0.294417,0
44.1204,-30.1801,0.292523,0
44.177,-30.1328,0.290677,0
44.2324,-30.0842,0.28888,0
44.2868,-30.0345,0.287132,0
44.3399,-29.9836,0.285443,0
44.392,-29.9316,0.283802,0
44.4427,-29.8784,0.2822,0
44.4923,-29.8242,0.280667,0
44.5405,-29.7688,0.279183,0
44.5876,-29.7125,0.277767,0
44.6333,-29.6551,0.27639,0
44.6777,-29.5968,0.275071,0
44.7207,-29.5375,0.273812,0
44.7623,-29.4773,0.272611,0
44.8027,-29.4163,0.271468,0
44.8416,-29.3543,0.270384,0
44.8791,-29.2916,0.269349,0
44.9152,-29.2281,0.268392,0
44.9498,-29.1638,0.267484,0
44.983,-29.0987,0.266644,0
45.0147,-29.033,0.265853,0
45.0449,-28.9666,0.26512,0
45.0737,-28.8996,0.264456,0
45.1009,-28.832,0.263851,0
45.1266,-28.7638,0.263304,0
45.1508,-28.6951,0.262816,0
45.1737,-28.626,0.262523,0
45.1957,-28.5566,0.262503,0
45.2162,-28.4867,0.262552,0
45.2351,-28.4164,0.262659,0
45.2524,-28.3456,0.262845,0
45.2681,-28.2745,0.263089,0
45.2824,-28.2031,0.263411,0
45.2951,-28.1313,0.263792,0
45.3062,-28.0593,0.264251,0
45.3155,-27.9871,0.264779,0
45.3235,-27.9146,0.265364,0
45.3298,-27.8419,0.266029,0
45.3345,-27.7691,0.266751,0
45.3377,-27.6962,0.267552,0
45.3392,-27.6233,0.268411,0
40.5945,-30.5017,0.396771,0
40.6608,-30.5377,0.395189,0
40.7279,-30.5722,0.393597,0
40.7959,-30.6047,0.391839,0
40.8648,-30.6353,0.389896,0
40.9344,-30.6643,0.387952,0
41.0046,-30.6916,0.385999,0
41.0755,-30.7173,0.384046,0
41.147,-30.7414,0.382093,0
41.2188,-30.7638,0.38013,0
41.2912,-30.7845,0.378167,0
41.3641,-30.8036,0.376204,0
41.4373,-30.8209,0.374241,0
41.511,-30.8366,0.372279,0
41.585,-30.8505,0.370325,0
41.6592,-30.8627,0.368362,0
41.7337,-30.8732,0.366409,0
41.8084,-30.882,0.364466,0
41.8833,-30.889,0.362532,0
41.9584,-30.8943,0.360599,0
42.0334,-30.8979,0.358675,0
42.1085,-30.8998,0.356761,0
42.1837,-30.8999,0.354857,0
42.2588,-30.8982,0.352972,0
42.3339,-30.8949,0.351097,0
42.4088,-30.8898,0.349232,0
42.4836,-30.883,0.347386,0
42.5582,-30.8744,0.34555,0
42.6326,-30.8642,0.343734,0
42.7066,-30.8522,0.341927,0
42.78,-30.8362,0.339232,0
42.8529,-30.8186,0.336585,0
42.9253,-30.7994,0.333968,0
42.9971,-30.7785,0.33137,0
43.0684,-30.756,0.328792,0
43.1393,-30.7319,0.326273,0
43.2093,-30.7062,0.323773,0
43.2787,-30.6789,0.321302,0
43.3475,-30.6502,0.31888,0
43.4155,-30.6198,0.316497,0
43.4827,-30.588,0.314144,0
43.5493,-30.5547,0.311829,0
43.6148,-30.5199,0.309564,0
43.6796,-30.4836,0.307327,0
43.7435,-30.446,0.30515,0
43.8065,-30.4069,0.303011,0
43.8685,-30.3664,0.300911,0
43.9295,-30.3246,0.298851,0
43.9896,-30.2815,0.296849,0
44.0486,-30.237,0.294896,0
44.1066,-30.1913,0.292982,0
44.1634,-30.1443,0.291126,0
44.2191,-30.0961,0.28931,0
44.2738,-30.0466,0.287552,0
44.3273,-29.996,0.285843,0
44.3795,-29.9442,0.284183,0
44.4305,-29.8913,0.282581,0
44.4804,-29.8373,0.281038,0
44.5291,-29.7823,0.279534,0
44.5763,-29.7262,0.278099,0
44.6223,-29.6691,0.276712,0
44.667,-29.611,0.275384,0
44.7104,-29.5519,0.274105,0
44.7524,-29.492,0.272904,0
44.793,-29.4311,0.271741,0
44.8323,-29.3694,0.270638,0
44.8702,-29.3068,0.269593,0
44.9066,-29.2435,0.268616,0
44.9416,-29.1793,0.267689,0
44.9751,-29.1145,0.266829,0
45.0072,-29.0489,0.266029,0
45.0377,-28.9827,0.265286,0
45.0669,-28.9158,0.264603,0
45.0945,-28.8484,0.263988,0
45.1205,-28.7803,0.263431,0
45.1451,-28.7117,0.262923,0
45.1682,-28.6427,0.262523,0
45.1905,-28.5734,0.262503,0
45.2114,-28.5036,0.262532,0
45.2306,-28.4334,0.26262,0
45.2484,-28.3627,0.262786,0
45.2645,-28.2917,0.263021,0
45.2791,-28.2204,0.263323,0
45.2921,-28.1487,0.263695,0
45.3036,-28.0767,0.264134,0
45.3134,-28.0045,0.264642,0
45.3218,-27.9321,0.265228,0
45.3284,-27.8595,0.265862,0
45.3335,-27.7867,0.266575,0
45.337,-27.7138,0.267357,0
45.339,-27.6409,0.268196,0
40.6583,-30.4601,0.395491,0
40.7236,-30.4947,0.393939,0
40.7897,-30.5277,0.392366,0
40.8567,-30.5587,0.390589,0
40.9245,-30.5879,0.388685,0
40.993,-30.6155,0.38678,0
41.0621,-30.6416,0.384866,0
41.1318,-30.666,0.382952,0
41.202,-30.6888,0.381029,0
41.2726,-30.7099,0.379105,0
41.3438,-30.7295,0.377181,0
41.4153,-30.7473,0.375267,0
41.4873,-30.7635,0.373343,0
41.5595,-30.7781,0.371419,0
41.6322,-30.7909,0.369505,0
41.705,-30.8021,0.367591,0
41.778,-30.8115,0.365677,0
41.8513,-30.8193,0.363782,0
41.9248,-30.8254,0.361878,0
41.9983,-30.8298,0.360003,0
42.0719,-30.8325,0.358118,0
42.1455,-30.8335,0.356243,0
42.2191,-30.8328,0.354388,0
42.2927,-30.8304,0.352552,0
42.3662,-30.8263,0.350706,0
42.4395,-30.8205,0.34889,0
42.5127,-30.8131,0.347093,0
42.5856,-30.8039,0.345306,0
42.6584,-30.793,0.343529,0
42.7307,-30.7798,0.341478,0
42.8023,-30.7634,0.338851,0
42.8736,-30.7454,0.336263,0
42.9442,-30.7259,0.333714,0
43.0144,-30.7047,0.331175,0
43.0841,-30.6819,0.328675,0
43.153,-30.6576,0.326214,0
43.2215,-30.6318,0.323782,0
43.2892,-30.6044,0.32138,0
43.3563,-30.5755,0.319027,0
43.4225,-30.5451,0.316702,0
43.4881,-30.5133,0.314417,0
43.5529,-30.4799,0.312171,0
43.6168,-30.4452,0.309964,0
43.6798,-30.4091,0.307796,0
43.742,-30.3715,0.305667,0
43.8034,-30.3326,0.303597,0
43.8638,-30.2924,0.301556,0
43.923,-30.2508,0.299573,0
43.9814,-30.2079,0.29762,0
44.0388,-30.1638,0.295726,0
44.0952,-30.1184,0.29388,0
44.1504,-30.0718,0.292073,0
44.2045,-30.024,0.290325,0
44.2576,-29.975,0.288626,0
44.3095,-29.9249,0.286976,0
44.3601,-29.8736,0.285374,0
44.4096,-29.8213,0.283821,0
44.4579,-29.7679,0.282327,0
44.5049,-29.7134,0.280892,0
44.5507,-29.658,0.279505,0
44.5952,-29.6016,0.278167,0
44.6384,-29.5442,0.276898,0
44.6803,-29.4859,0.275667,0
44.7209,-29.4267,0.274515,0
44.7601,-29.3666,0.273392,0
44.7979,-29.3058,0.272347,0
44.8344,-29.2441,0.271361,0
44.8695,-29.1816,0.270423,0
44.9031,-29.1184,0.269544,0
44.9353,-29.0545,0.268714,0
44.966,-28.99,0.267962,0
44.9954,-28.9247,0.267269,0
45.0232,-28.8589,0.266624,0
45.0495,-28.7925,0.266038,0
45.0744,-28.7255,0.265521,0
45.0977,-28.6581,0.265071,0
45.1205,-28.5904,0.264993,0
45.1417,-28.5222,0.265052,0
45.1616,-28.4536,0.265159,0
45.1798,-28.3846,0.265335,0
45.1965,-28.3152,0.265521,0
45.2116,-28.2454,0.265794,0
45.2251,-28.1752,0.266116,0
45.2371,-28.1048,0.266517,0
45.2476,-28.0341,0.266976,0
45.2566,-27.9632,0.267503,0
45.2638,-27.8921,0.268109,0
45.2697,-27.8208,0.268773,0
45.2739,-27.7494,0.269495,0
45.2766,-27.6779,0.270296,0
45.2776,-27.6064,0.271146,0
40.6427,-30.4516,0.395862,0
40.7077,-30.4864,0.39431,0
40.7736,-30.5198,0.392747,0
40.8405,-30.5514,0.391038,0
40.908,-30.581,0.389144,0
40.9764,-30.609,0.387249,0
41.0454,-30.6354,0.385335,0
41.1148,-30.6602,0.383411,0
41.1849,-30.6834,0.381497,0
41.2555,-30.705,0.379573,0
41.3265,-30.7249,0.37765,0
41.398,-30.7432,0.375726,0
41.4698,-30.7597,0.373802,0
41.542,-30.7747,0.371878,0
41.6146,-30.788,0.369974,0
41.6873,-30.7995,0.36805,0
41.7604,-30.8094,0.366146,0
41.8336,-30.8176,0.364241,0
41.907,-30.8241,0.362337,0
41.9805,-30.8289,0.360452,0
42.0541,-30.832,0.358568,0
42.1277,-30.8334,0.356702,0
42.2013,-30.8331,0.354837,0
42.2749,-30.8312,0.352991,0
42.3484,-30.8274,0.351146,0
42.4218,-30.8221,0.349329,0
42.495,-30.815,0.347513,0
42.568,-30.8063,0.345736,0
42.6408,-30.7958,0.343958,0
42.7134,-30.7835,0.342103,0
42.7851,-30.7675,0.339486,0
42.8564,-30.7499,0.336888,0
42.9273,-30.7307,0.33432,0
42.9975,-30.7099,0.33178,0
43.0673,-30.6876,0.32928,0
43.1365,-30.6636,0.3268,0
43.205,-30.6381,0.324368,0
43.273,-30.6111,0.321966,0
43.3402,-30.5826,0.319593,0
43.4066,-30.5526,0.317259,0
43.4723,-30.5211,0.314964,0
43.5373,-30.4881,0.312708,0
43.6014,-30.4537,0.310491,0
43.6647,-30.4179,0.308314,0
43.7271,-30.3807,0.306185,0
43.7887,-30.3421,0.304095,0
43.8492,-30.3022,0.302044,0
43.9088,-30.2609,0.300042,0
43.9675,-30.2184,0.298089,0
44.0251,-30.1746,0.296175,0
44.0816,-30.1295,0.29432,0
44.1371,-30.0831,0.292503,0
44.1916,-30.0356,0.290745,0
44.2448,-29.9869,0.289027,0
44.297,-29.9371,0.287366,0
44.348,-29.8861,0.285755,0
44.3978,-29.834,0.284193,0
44.4463,-29.7808,0.282689,0
44.4937,-29.7267,0.281234,0
44.5398,-29.6715,0.279837,0
44.5846,-29.6153,0.278489,0
44.6281,-29.5581,0.2772,0
44.6703,-29.5,0.27596,0
44.7112,-29.441,0.274788,0
44.7508,-29.3812,0.273655,0
44.7889,-29.3205,0.272591,0
44.8257,-29.259,0.271585,0
44.8611,-29.1968,0.270638,0
44.8951,-29.1337,0.269749,0
44.9277,-29.07,0.268919,0
44.9587,-29.0056,0.268138,0
44.9884,-28.9405,0.267425,0
45.0166,-28.8748,0.266771,0
45.0434,-28.8086,0.266185,0
45.0685,-28.7418,0.265648,0
45.0923,-28.6744,0.265169,0
45.115,-28.6067,0.264993,0
45.1367,-28.5387,0.265032,0
45.1569,-28.4702,0.26513,0
45.1755,-28.4013,0.265286,0
45.1925,-28.332,0.265472,0
45.208,-28.2622,0.265716,0
45.222,-28.1922,0.266029,0
45.2344,-28.1218,0.266419,0
45.2452,-28.0512,0.266859,0
45.2545,-27.9804,0.267376,0
45.2622,-27.9093,0.267952,0
45.2684,-27.8381,0.268607,0
45.273,-27.7667,0.26932,0
45.2761,-27.6952,0.270091,0
45.2775,-27.6237,0.270941,0
40.627,-30.4429,0.396234,0
40.692,-30.4782,0.394691,0
40.7577,-30.5119,0.393128,0
40.8242,-30.544,0.391507,0
40.8917,-30.574,0.389603,0
40.9598,-30.6024,0.387698,0
41.0287,-30.6292,0.385794,0
41.098,-30.6544,0.38388,0
41.168,-30.678,0.381956,0
41.2384,-30.6999,0.380032,0
41.3094,-30.7202,0.378109,0
41.3807,-30.7389,0.376185,0
41.4525,-30.7559,0.374271,0
41.5247,-30.7712,0.372347,0
41.597,-30.7849,0.370433,0
41.6698,-30.7969,0.368509,0
41.7428,-30.8072,0.366605,0
41.816,-30.8158,0.3647,0
41.8894,-30.8227,0.362786,0
41.9628,-30.8279,0.360902,0
42.0363,-30.8314,0.359027,0
42.1099,-30.8333,0.357142,0
42.1835,-30.8334,0.355286,0
42.2572,-30.8318,0.353431,0
42.3307,-30.8285,0.351595,0
42.4041,-30.8235,0.349769,0
42.4773,-30.8169,0.347952,0
42.5504,-30.8085,0.346155,0
42.6234,-30.7985,0.344388,0
42.6959,-30.7868,0.34262,0
42.7678,-30.7715,0.340111,0
42.8393,-30.7543,0.337513,0
42.9102,-30.7355,0.334935,0
42.9806,-30.7151,0.332396,0
43.0505,-30.6931,0.329876,0
43.1198,-30.6695,0.327396,0
43.1885,-30.6444,0.324954,0
43.2566,-30.6178,0.322542,0
43.324,-30.5896,0.320159,0
43.3906,-30.56,0.317816,0
43.4566,-30.5288,0.315511,0
43.5216,-30.4962,0.313255,0
43.5861,-30.4621,0.311019,0
43.6495,-30.4267,0.308841,0
43.7121,-30.3898,0.306693,0
43.7739,-30.3516,0.304593,0
43.8347,-30.312,0.302532,0
43.8946,-30.271,0.300521,0
43.9534,-30.2288,0.298558,0
44.0113,-30.1853,0.296634,0
44.068,-30.1405,0.294769,0
44.1238,-30.0944,0.292933,0
44.1785,-30.0472,0.291165,0
44.232,-29.9988,0.289437,0
44.2845,-29.9492,0.287757,0
44.3358,-29.8985,0.286136,0
44.3859,-29.8467,0.284564,0
44.4347,-29.7938,0.28305,0
44.4823,-29.7398,0.281566,0
44.5287,-29.6849,0.280159,0
44.5739,-29.6289,0.278802,0
44.6177,-29.572,0.277503,0
44.6602,-29.5141,0.276263,0
44.7015,-29.4554,0.275062,0
44.7413,-29.3957,0.273929,0
44.7798,-29.3352,0.272845,0
44.817,-29.2739,0.271829,0
44.8527,-29.2119,0.270862,0
44.887,-29.149,0.269954,0
44.9199,-29.0854,0.269105,0
44.9513,-29.0212,0.268323,0
44.9814,-28.9563,0.267601,0
45.0099,-28.8908,0.266927,0
45.037,-28.8246,0.266321,0
45.0626,-28.7579,0.265765,0
45.0866,-28.6907,0.265286,0
45.1096,-28.6231,0.264993,0
45.1316,-28.5552,0.265013,0
45.1522,-28.4868,0.265101,0
45.1712,-28.418,0.265247,0
45.1886,-28.3487,0.265423,0
45.2045,-28.2791,0.265657,0
45.2188,-28.2091,0.26595,0
45.2315,-28.1388,0.266312,0
45.2427,-28.0683,0.266751,0
45.2524,-27.9975,0.267249,0
45.2605,-27.9265,0.267806,0
45.267,-27.8553,0.268441,0
45.2721,-27.7839,0.269134,0
45.2755,-27.7125,0.269896,0
45.2773,-27.6409,0.270736,0
40.6891,-30.403,0.394984,0
40.753,-30.4369,0.39347,0
40.8178,-30.4692,0.391937,0
40.8834,-30.4998,0.390286,0
40.9498,-30.5285,0.388421,0
41.017,-30.5555,0.386556,0
41.0845,-30.5811,0.384681,0
41.1529,-30.605,0.382806,0
41.2216,-30.6273,0.380921,0
41.2909,-30.6481,0.379046,0
41.3606,-30.6672,0.377161,0
41.4307,-30.6847,0.375267,0
41.5012,-30.7006,0.373382,0
41.572,-30.7149,0.371507,0
41.6431,-30.7275,0.369622,0
41.7145,-30.7384,0.367757,0
41.7861,-30.7477,0.365882,0
