29.9634,-18.0254,0.401673,0
30.083,-17.9968,0.401195,0
30.2017,-17.9656,0.400726,0
30.3196,-17.9317,0.400247,0
30.4381,-17.9004,0.401116,0
30.5565,-17.8685,0.402513,0
30.6742,-17.8339,0.4039,0
30.7911,-17.7965,0.405247,0
30.9071,-17.7563,0.406595,0
31.0223,-17.7135,0.407913,0
31.1365,-17.6679,0.409212,0
31.2496,-17.6197,0.410491,0
31.3616,-17.5688,0.411751,0
31.4726,-17.5153,0.412982,0
31.5823,-17.4592,0.414202,0
31.6906,-17.4006,0.415374,0
31.7976,-17.3391,0.416478,0
31.9029,-17.2749,0.417474,0
32.0068,-17.2083,0.41846,0
32.1091,-17.1393,0.419427,0
32.2099,-17.0679,0.420384,0
32.3091,-16.9942,0.421321,0
32.4065,-16.9182,0.422259,0
32.5022,-16.8399,0.423157,0
32.5962,-16.7594,0.424056,0
32.6883,-16.6767,0.424925,0
32.7784,-16.592,0.425784,0
32.8672,-16.5054,0.426761,0
32.9543,-16.4173,0.427864,0
33.0394,-16.327,0.428939,0
33.123,-16.2353,0.430179,0
33.2049,-16.1418,0.431517,0
33.2847,-16.0464,0.432825,0
33.3623,-15.949,0.434114,0
33.4377,-15.8499,0.435384,0
33.5109,-15.7489,0.436624,0
33.5816,-15.6461,0.437845,0
33.6502,-15.5416,0.439046,0
33.7162,-15.4355,0.440218,0
33.78,-15.3279,0.44139,0
33.8418,-15.2189,0.442659,0
33.901,-15.1084,0.443929,0
33.9579,-14.9965,0.445179,0
34.0122,-14.8832,0.446409,0
34.0638,-14.7686,0.44762,0
34.113,-14.6527,0.448831,0
34.1594,-14.5356,0.450003,0
34.2032,-14.4173,0.451165,0
34.2444,-14.298,0.452318,0
34.2827,-14.1776,0.453441,0
34.3184,-14.0562,0.454544,0
34.3512,-13.9339,0.455628,0
34.3815,-13.8108,0.456732,0
34.4102,-13.6871,0.458187,0
34.4362,-13.5627,0.459612,0
34.4593,-13.4375,0.461009,0
34.4796,-13.3116,0.462405,0
34.497,-13.1852,0.463763,0
34.5113,-13.0582,0.465111,0
34.5229,-12.9308,0.466419,0
34.5314,-12.8029,0.467718,0
34.537,-12.6748,0.468987,0
34.5395,-12.5463,0.470228,0
34.5391,-12.4177,0.471448,0
34.5355,-12.289,0.47263,0
34.5291,-12.1602,0.473792,0
34.5156,-12.032,0.473939,0
34.4973,-11.9045,0.473597,0
34.4759,-11.7773,0.473187,0
34.4513,-11.6507,0.472718,0
34.4237,-11.5248,0.472191,0
34.393,-11.3995,0.471614,0
34.3614,-11.2745,0.471507,0
34.3279,-11.1498,0.471663,0
34.2913,-11.0258,0.471751,0
28.0312,-17.9217,0.40306,0
28.1501,-17.9414,0.403616,0
28.2694,-17.9583,0.404163,0
28.389,-17.9724,0.404671,0
28.5089,-17.9836,0.405159,0
28.629,-17.9919,0.405609,0
28.7495,-17.9949,0.405413,0
28.8698,-17.9944,0.405023,0
28.9898,-17.9911,0.404642,0
29.1098,-17.9851,0.404232,0
29.2295,-17.9763,0.403831,0
29.3487,-17.9648,0.403411,0
29.4677,-17.9506,0.403001,0
29.5861,-17.9337,0.402571,0
29.704,-17.914,0.402132,0
29.8213,-17.8917,0.401693,0
29.938,-17.8667,0.401243,0
30.0539,-17.8391,0.400794,0
30.1691,-17.8089,0.400325,0
30.2835,-17.776,0.399866,0
30.3977,-17.7433,0.400111,0
30.5124,-17.7123,0.401458,0
30.6265,-17.6785,0.402796,0
30.7398,-17.6421,0.404114,0
30.8521,-17.603,0.405413,0
30.9637,-17.5613,0.406693,0
31.0744,-17.517,0.407952,0
31.184,-17.4701,0.409193,0
31.2924,-17.4206,0.410404,0
31.3999,-17.3686,0.411595,0
31.5062,-17.3141,0.412767,0
31.6111,-17.2571,0.413919,0
31.7148,-17.1976,0.415042,0
31.817,-17.1357,0.416136,0
31.9179,-17.0714,0.41721,0
32.0173,-17.0047,0.418255,0
32.1151,-16.9356,0.419271,0
32.2113,-16.8643,0.420267,0
32.3059,-16.7907,0.421234,0
32.3988,-16.7148,0.422161,0
32.4898,-16.6367,0.42304,0
32.5791,-16.5565,0.42389,0
32.6663,-16.4741,0.42472,0
32.7518,-16.3898,0.425521,0
32.8355,-16.3035,0.426361,0
32.9186,-16.2166,0.427659,0
32.9998,-16.1277,0.428968,0
33.0791,-16.037,0.430257,0
33.1563,-15.9444,0.431575,0
33.2316,-15.8501,0.432894,0
33.3048,-15.754,0.434193,0
33.3758,-15.6561,0.435482,0
33.4446,-15.5566,0.436771,0
33.5112,-15.4554,0.43804,0
33.5755,-15.3526,0.43929,0
33.6375,-15.2483,0.44054,0
33.6973,-15.1425,0.44178,0
33.7545,-15.0352,0.443001,0
33.8094,-14.9266,0.444212,0
33.8617,-14.8167,0.445394,0
33.9117,-14.7054,0.446585,0
33.9591,-14.5929,0.447737,0
34.0039,-14.4793,0.44888,0
34.0462,-14.3646,0.450013,0
34.0858,-14.2487,0.451116,0
34.1227,-14.1319,0.45221,0
34.157,-14.0142,0.453284,0
34.1887,-13.8956,0.454329,0
34.2181,-13.7763,0.455511,0
34.2458,-13.6563,0.456907,0
34.2707,-13.5356,0.458294,0
34.2928,-13.4142,0.459652,0
34.3122,-13.2922,0.460999,0
34.3287,-13.1696,0.462318,0
34.3423,-13.0465,0.463616,0
34.3532,-12.9229,0.464886,0
34.3611,-12.799,0.466136,0
34.3662,-12.6748,0.467366,0
34.3684,-12.5503,0.468568,0
34.3677,-12.4257,0.469739,0
34.364,-12.301,0.470892,0
34.3529,-12.1767,0.470853,0
34.338,-12.0529,0.47057,0
34.3202,-11.9294,0.470228,0
34.2994,-11.8064,0.469837,0
34.2755,-11.6839,0.469388,0
34.2486,-11.562,0.46887,0
34.2188,-11.4408,0.468304,0
34.187,-11.3201,0.467903,0
34.1543,-11.1995,0.46805,0
34.1187,-11.0797,0.468138,0
28.0887,-17.9316,0.403333,0
28.2077,-17.9499,0.40389,0
28.3273,-17.9654,0.404407,0
28.4471,-17.9781,0.404905,0
28.567,-17.9879,0.405384,0
28.6873,-17.994,0.405609,0
28.8077,-17.995,0.405228,0
28.9279,-17.9932,0.404837,0
29.048,-17.9886,0.404446,0
29.1678,-17.9812,0.404046,0
29.2873,-17.9711,0.403636,0
29.4064,-17.9583,0.403216,0
29.5251,-17.9427,0.402786,0
29.6432,-17.9245,0.402366,0
29.7609,-17.9035,0.401927,0
29.8779,-17.8799,0.401478,0
29.9942,-17.8537,0.401029,0
30.1098,-17.8248,0.40057,0
30.2246,-17.7933,0.400111,0
30.3385,-17.7592,0.399642,0
30.4534,-17.7286,0.400765,0
30.5677,-17.6962,0.402112,0
30.6814,-17.6612,0.403441,0
30.7942,-17.6235,0.404749,0
30.9062,-17.5832,0.406038,0
31.0174,-17.5402,0.407298,0
31.1276,-17.4946,0.408558,0
31.2366,-17.4465,0.409779,0
31.3446,-17.3958,0.41098,0
31.4515,-17.3426,0.412171,0
31.5571,-17.2868,0.413333,0
31.6615,-17.2286,0.414456,0
31.7645,-17.1679,0.415579,0
31.8661,-17.1048,0.416663,0
31.9662,-17.0394,0.417728,0
32.0648,-16.9715,0.418753,0
32.1619,-16.9014,0.419759,0
32.2573,-16.8289,0.420745,0
32.3511,-16.7542,0.421693,0
32.443,-16.6773,0.422601,0
32.5332,-16.5981,0.42345,0
32.6216,-16.5168,0.42429,0
32.708,-16.4335,0.425111,0
32.7926,-16.3482,0.425911,0
32.8759,-16.2616,0.426976,0
32.9582,-16.1738,0.428294,0
33.0384,-16.084,0.429593,0
33.1167,-15.9924,0.430902,0
33.193,-15.899,0.43221,0
33.2673,-15.8038,0.433519,0
33.3394,-15.7068,0.434818,0
33.4094,-15.6081,0.436107,0
33.4771,-15.5078,0.437386,0
33.5427,-15.4058,0.438646,0
33.6059,-15.3023,0.439905,0
33.6668,-15.1973,0.441146,0
33.7253,-15.0908,0.442376,0
33.7814,-14.9828,0.443597,0
33.8351,-14.8736,0.444798,0
33.8862,-14.763,0.44598,0
33.9349,-14.6511,0.447152,0
33.9811,-14.5381,0.448294,0
34.0247,-14.4239,0.449437,0
34.0657,-14.3086,0.45055,0
34.104,-14.1923,0.451654,0
34.1398,-14.075,0.452728,0
34.1727,-13.9569,0.453792,0
34.203,-13.8379,0.454837,0
34.2319,-13.7183,0.456185,0
34.2582,-13.598,0.457581,0
34.2818,-13.4769,0.458958,0
34.3025,-13.3552,0.460306,0
34.3205,-13.2329,0.461644,0
34.3356,-13.11,0.462952,0
34.348,-12.9867,0.464232,0
34.3574,-12.863,0.465501,0
34.364,-12.7389,0.466741,0
34.3677,-12.6146,0.467952,0
34.3684,-12.49,0.469144,0
34.3662,-12.3653,0.470296,0
34.3594,-12.2408,0.47097,0
34.3461,-12.1167,0.470716,0
34.3298,-11.9931,0.470413,0
34.3104,-11.8698,0.470042,0
34.2881,-11.747,0.469622,0
34.2628,-11.6248,0.469144,0
34.2346,-11.5032,0.468607,0
34.2033,-11.3824,0.468011,0
34.1715,-11.2616,0.467982,0
34.1375,-11.1414,0.468109,0
28.0274,-17.921,0.40303,0
28.1463,-17.9408,0.403597,0
28.2656,-17.9578,0.404144,0
28.3852,-17.9719,0.404652,0
28.5052,-17.9832,0.40514,0
28.6252,-17.9917,0.405599,0
28.7455,-17.9948,0.405423,0
28.8659,-17.9944,0.405042,0
28.9861,-17.9913,0.404652,0
29.106,-17.9854,0.404251,0
29.2257,-17.9767,0.403841,0
29.345,-17.9653,0.403431,0
29.4639,-17.9511,0.403011,0
29.5823,-17.9342,0.402581,0
29.7002,-17.9147,0.402152,0
29.8177,-17.8924,0.401702,0
29.9343,-17.8676,0.401263,0
30.0503,-17.84,0.400804,0
30.1655,-17.8099,0.400345,0
30.2799,-17.7771,0.399876,0
30.3941,-17.7443,0.400062,0
30.5088,-17.7133,0.401419,0
30.6229,-17.6796,0.402757,0
30.7361,-17.6433,0.404075,0
30.8486,-17.6043,0.405364,0
30.9602,-17.5627,0.406654,0
31.0709,-17.5185,0.407913,0
31.1805,-17.4716,0.409144,0
31.2891,-17.4223,0.410364,0
31.3965,-17.3703,0.411566,0
31.5027,-17.3159,0.412728,0
31.6077,-17.2589,0.41388,0
31.7114,-17.1995,0.415003,0
31.8138,-17.1377,0.416107,0
31.9147,-17.0734,0.417171,0
32.0141,-17.0068,0.418226,0
32.112,-16.9379,0.419241,0
32.2083,-16.8666,0.420237,0
32.3029,-16.7931,0.421204,0
32.3958,-16.7173,0.422142,0
32.487,-16.6392,0.423011,0
32.5762,-16.559,0.423861,0
32.6636,-16.4768,0.424691,0
32.7491,-16.3925,0.425511,0
32.8328,-16.3063,0.426331,0
32.9159,-16.2194,0.427611,0
32.9973,-16.1306,0.428929,0
33.0766,-16.0399,0.430208,0
33.1539,-15.9474,0.431536,0
33.2292,-15.8531,0.432845,0
33.3024,-15.757,0.434144,0
33.3735,-15.6592,0.435443,0
33.4425,-15.5597,0.436732,0
33.5091,-15.4586,0.437991,0
33.5735,-15.3559,0.439261,0
33.6356,-15.2516,0.440501,0
33.6953,-15.1459,0.441741,0
33.7527,-15.0387,0.442962,0
33.8077,-14.9301,0.444173,0
33.8602,-14.8202,0.445364,0
33.9102,-14.709,0.446536,0
33.9577,-14.5965,0.447708,0
34.0025,-14.4829,0.448841,0
34.0448,-14.3682,0.449984,0
34.0845,-14.2524,0.451087,0
34.1216,-14.1357,0.452171,0
34.156,-14.0179,0.453245,0
34.1877,-13.8994,0.45429,0
34.2173,-13.78,0.455462,0
34.245,-13.6601,0.456868,0
34.2699,-13.5395,0.458245,0
34.2922,-13.4181,0.459612,0
34.3116,-13.2961,0.46096,0
34.3282,-13.1735,0.462269,0
34.342,-13.0504,0.463577,0
34.3529,-12.9268,0.464847,0
34.3609,-12.8029,0.466107,0
34.3661,-12.6787,0.467327,0
34.3684,-12.5543,0.468529,0
34.3677,-12.4296,0.46971,0
34.3642,-12.3049,0.470853,0
34.3534,-12.1807,0.470862,0
34.3385,-12.0568,0.470579,0
34.3208,-11.9333,0.470237,0
34.3,-11.8103,0.469847,0
34.2762,-11.6878,0.469398,0
34.2495,-11.5659,0.46889,0
34.2198,-11.4446,0.468323,0
34.1879,-11.324,0.467903,0
34.1554,-11.2033,0.46805,0
34.1199,-11.0835,0.468128,0
28.0607,-17.7658,0.401663,0
28.1759,-17.7849,0.40222,0
28.2916,-17.8013,0.402737,0
28.4077,-17.815,0.403236,0
28.5239,-17.8259,0.403704,0
28.6403,-17.8341,0.404153,0
28.7569,-17.8394,0.404564,0
28.8736,-17.8404,0.404525,0
28.9902,-17.8374,0.404144,0
29.1066,-17.8317,0.403763,0
29.2227,-17.8233,0.403362,0
29.3385,-17.8123,0.402972,0
29.4538,-17.7986,0.402562,0
29.5688,-17.7823,0.402142,0
29.6833,-17.7633,0.401722,0
29.7971,-17.7418,0.401292,0
29.9104,-17.7177,0.400862,0
30.023,-17.691,0.400423,0
30.1348,-17.6618,0.399984,0
30.2458,-17.6301,0.399525,0
30.356,-17.596,0.399114,0
30.4673,-17.5658,0.400423,0
30.5779,-17.5329,0.401722,0
30.6878,-17.4975,0.403001,0
30.7968,-17.4596,0.404261,0
30.905,-17.4191,0.405501,0
31.0123,-17.376,0.406722,0
31.1186,-17.3304,0.407913,0
31.2238,-17.2824,0.409105,0
31.328,-17.2319,0.410257,0
31.431,-17.1789,0.41139,0
31.5328,-17.1235,0.412503,0
31.6334,-17.0658,0.413597,0
31.7325,-17.0057,0.414661,0
31.8302,-16.9432,0.415706,0
31.9266,-16.8785,0.416712,0
32.0215,-16.8114,0.417698,0
32.1148,-16.7422,0.418665,0
32.2065,-16.6707,0.419593,0
32.2965,-16.5971,0.420501,0
32.3848,-16.5214,0.42138,0
32.4713,-16.4436,0.42223,0
32.5561,-16.3637,0.42305,0
32.6393,-16.2822,0.423948,0
32.7225,-16.2004,0.42553,0
32.8039,-16.1167,0.427083,0
32.883,-16.0306,0.428441,0
32.9598,-15.9425,0.42973,0
33.0348,-15.8526,0.430999,0
33.1078,-15.7609,0.432279,0
33.1787,-15.6675,0.433538,0
33.2475,-15.5725,0.434788,0
33.3141,-15.4758,0.436038,0
33.3787,-15.3775,0.437269,0
33.441,-15.2777,0.438499,0
33.5011,-15.1764,0.4397,0
33.5589,-15.0736,0.440902,0
33.6144,-14.9695,0.442093,0
33.6674,-14.864,0.443265,0
33.7182,-14.7572,0.444417,0
33.7665,-14.6492,0.44556,0
33.8123,-14.54,0.446683,0
33.8557,-14.4297,0.447796,0
33.8966,-14.3183,0.44888,0
33.9348,-14.2059,0.449954,0
33.9706,-14.0925,0.451019,0
34.0037,-13.9782,0.452044,0
34.0343,-13.8631,0.45307,0
34.0631,-13.7474,0.45431,0
34.0898,-13.6309,0.455677,0
34.1138,-13.5138,0.457015,0
34.135,-13.396,0.458333,0
34.1535,-13.2776,0.459632,0
34.1694,-13.1586,0.460911,0
34.1825,-13.0392,0.462161,0
34.1927,-12.9193,0.463402,0
34.2002,-12.7991,0.464612,0
34.205,-12.6786,0.465794,0
34.2069,-12.5579,0.466966,0
34.2059,-12.4371,0.46806,0
34.1973,-12.3166,0.467903,0
34.1858,-12.1963,0.467679,0
34.1714,-12.0763,0.467405,0
34.1541,-11.9567,0.467083,0
34.1338,-11.8375,0.466693,0
34.1107,-11.7189,0.466253,0
34.0847,-11.6008,0.465765,0
34.0558,-11.4834,0.465208,0
34.0241,-11.3667,0.464612,0
33.9921,-11.25,0.464661,0
33.9575,-11.134,0.46473,0
28.1165,-17.7754,0.401937,0
28.2319,-17.7932,0.402474,0
28.3478,-17.8083,0.402982,0
28.4639,-17.8206,0.40346,0
28.5802,-17.8302,0.403929,0
28.6968,-17.837,0.404359,0
28.8134,-17.8409,0.40472,0
28.9301,-17.8392,0.404349,0
29.0466,-17.8349,0.403958,0
29.1628,-17.8279,0.403577,0
29.2787,-17.8183,0.403177,0
29.3944,-17.806,0.402777,0
29.5095,-17.791,0.402366,0
29.6243,-17.7734,0.401946,0
29.7384,-17.7532,0.401517,0
29.852,-17.7305,0.401097,0
29.9649,-17.7051,0.400648,0
30.0772,-17.6772,0.400198,0
30.1887,-17.6467,0.399749,0
30.2993,-17.6138,0.3993,0
30.41,-17.5817,0.399759,0
30.5209,-17.5502,0.401048,0
30.6312,-17.5161,0.402347,0
30.7406,-17.4795,0.403616,0
30.8493,-17.4403,0.404857,0
30.9571,-17.3985,0.406097,0
31.0638,-17.3543,0.407308,0
31.1696,-17.3075,0.408489,0
31.2745,-17.2583,0.409671,0
31.378,-17.2065,0.410814,0
31.4804,-17.1524,0.411937,0
31.5816,-17.0959,0.41303,0
31.6815,-17.037,0.414114,0
31.78,-16.9757,0.415169,0
31.8771,-16.9121,0.416185,0
31.9727,-16.8463,0.417191,0
32.0669,-16.7782,0.418167,0
32.1594,-16.7079,0.419124,0
32.2502,-16.6354,0.420032,0
32.3394,-16.5607,0.420931,0
32.427,-16.484,0.42179,0
32.5126,-16.4052,0.42263,0
32.5964,-16.3243,0.423441,0
32.6798,-16.2429,0.42472,0
32.7622,-16.1601,0.426282,0
32.8425,-16.0753,0.427767,0
32.9204,-15.9882,0.429066,0
32.9964,-15.8992,0.430345,0
33.0704,-15.8084,0.431624,0
33.1423,-15.7159,0.432894,0
33.2123,-15.6217,0.434153,0
33.2801,-15.5258,0.435394,0
33.3456,-15.4284,0.436634,0
33.4091,-15.3293,0.437864,0
33.4704,-15.2288,0.439085,0
33.5293,-15.1268,0.440286,0
33.586,-15.0234,0.441478,0
33.6404,-14.9186,0.442659,0
33.6923,-14.8125,0.443821,0
33.7419,-14.7051,0.444974,0
33.789,-14.5965,0.446097,0
33.8337,-14.4867,0.44723,0
33.8759,-14.3759,0.448314,0
33.9154,-14.264,0.449407,0
33.9525,-14.1511,0.450472,0
33.987,-14.0373,0.451517,0
34.0189,-13.9226,0.452552,0
34.0484,-13.8071,0.453616,0
34.0763,-13.6911,0.454974,0
34.1016,-13.5743,0.456321,0
34.1244,-13.4568,0.45765,0
34.1443,-13.3387,0.458968,0
34.1615,-13.2201,0.460247,0
34.1761,-13.1009,0.461527,0
34.1878,-12.9812,0.462767,0
34.1967,-12.8612,0.463987,0
34.2029,-12.7408,0.465189,0
34.2063,-12.6202,0.466361,0
34.2068,-12.4994,0.467513,0
34.2021,-12.3787,0.467982,0
34.1921,-12.2583,0.467796,0
34.1792,-12.1382,0.467552,0
34.1634,-12.0184,0.467249,0
34.1446,-11.899,0.466907,0
34.123,-11.78,0.466487,0
34.0985,-11.6616,0.466029,0
34.071,-11.5439,0.465501,0
34.0408,-11.4268,0.464925,0
34.0088,-11.3102,0.464593,0
33.9757,-11.1937,0.4647,0
28.057,-17.7651,0.401653,0
28.1723,-17.7844,0.4022,0
28.2879,-17.8009,0.402728,0
28.404,-17.8146,0.403226,0
28.5202,-17.8256,0.403695,0
28.6366,-17.8338,0.404144,0
28.7532,-17.8393,0.404564,0
28.8699,-17.8404,0.404544,0
28.9865,-17.8375,0.404163,0
29.1029,-17.8319,0.403773,0
29.219,-17.8236,0.403382,0
29.3348,-17.8126,0.402982,0
29.4502,-17.799,0.402571,0
29.5652,-17.7828,0.402161,0
29.6797,-17.764,0.401741,0
29.7935,-17.7425,0.401312,0
29.9068,-17.7185,0.400882,0
30.0194,-17.6919,0.400433,0
30.1312,-17.6628,0.399993,0
30.2423,-17.6311,0.399534,0
30.3525,-17.597,0.399075,0
30.4637,-17.5668,0.400384,0
30.5744,-17.534,0.401683,0
30.6843,-17.4987,0.402962,0
30.7934,-17.4608,0.404222,0
30.9016,-17.4204,0.405462,0
31.0089,-17.3774,0.406683,0
31.1152,-17.3319,0.407884,0
31.2205,-17.284,0.409066,0
31.3248,-17.2335,0.410228,0
31.4277,-17.1806,0.411351,0
31.5296,-17.1253,0.412464,0
31.6301,-17.0676,0.413558,0
31.7294,-17.0076,0.414622,0
31.8272,-16.9452,0.415667,0
31.9236,-16.8805,0.416683,0
32.0184,-16.8136,0.417669,0
32.1118,-16.7444,0.418626,0
32.2035,-16.673,0.419564,0
32.2937,-16.5995,0.420472,0
32.382,-16.5238,0.421351,0
32.4687,-16.4461,0.4222,0
32.5534,-16.3663,0.423021,0
32.6366,-16.2847,0.4239,0
32.7198,-16.2031,0.425472,0
32.8014,-16.1194,0.427034,0
32.8805,-16.0334,0.428402,0
32.9574,-15.9453,0.429681,0
33.0324,-15.8555,0.43097,0
33.1055,-15.7639,0.432239,0
33.1765,-15.6705,0.433499,0
33.2453,-15.5755,0.434759,0
33.3121,-15.4789,0.435999,0
33.3767,-15.3806,0.43723,0
33.4391,-15.2809,0.43846,0
33.4992,-15.1796,0.439671,0
33.557,-15.0769,0.440863,0
33.6127,-14.9728,0.442054,0
33.6658,-14.8674,0.443226,0
33.7166,-14.7606,0.444378,0
33.765,-14.6526,0.44553,0
33.8109,-14.5435,0.446654,0
33.8545,-14.4332,0.447757,0
33.8953,-14.3218,0.448851,0
33.9338,-14.2094,0.449925,0
33.9695,-14.0961,0.45098,0
34.0028,-13.9819,0.452025,0
34.0334,-13.8668,0.45304,0
34.0622,-13.751,0.454271,0
34.0889,-13.6347,0.455628,0
34.113,-13.5175,0.456966,0
34.1344,-13.3998,0.458294,0
34.153,-13.2814,0.459593,0
34.1689,-13.1624,0.460862,0
34.1821,-13.043,0.462122,0
34.1925,-12.9232,0.463362,0
34.2002,-12.803,0.464573,0
34.2049,-12.6825,0.465765,0
34.2069,-12.5618,0.466927,0
34.2061,-12.4409,0.46807,0
34.1977,-12.3204,0.467903,0
34.1862,-12.2001,0.467689,0
34.172,-12.0801,0.467415,0
34.1547,-11.9605,0.467093,0
34.1345,-11.8413,0.466702,0
34.1116,-11.7226,0.466263,0
34.0856,-11.6045,0.465775,0
34.0568,-11.4871,0.465228,0
34.0252,-11.3704,0.464632,0
33.9931,-11.2537,0.464652,0
33.9587,-11.1376,0.46473,0
28.0886,-17.6185,0.400364,0
28.2005,-17.6372,0.400902,0
28.3127,-17.6531,0.4014,0
28.4252,-17.6664,0.401888,0
28.538,-17.677,0.402337,0
28.651,-17.685,0.402777,0
28.7641,-17.6903,0.403177,0
28.8773,-17.6929,0.403558,0
28.9905,-17.6919,0.403685,0
29.1035,-17.6865,0.403314,0
29.2162,-17.6785,0.402933,0
29.3287,-17.6679,0.402542,0
29.4408,-17.6548,0.402152,0
29.5525,-17.639,0.401741,0
29.6636,-17.6208,0.401331,0
29.7743,-17.6,0.400921,0
29.8843,-17.5767,0.400491,0
29.9936,-17.5509,0.400071,0
30.1023,-17.5226,0.399642,0
30.2102,-17.4919,0.399193,0
30.3172,-17.4588,0.398753,0
30.4246,-17.4273,0.399456,0
30.532,-17.3954,0.400716,0
30.6386,-17.3609,0.401946,0
30.7445,-17.324,0.403167,0
30.8495,-17.2846,0.404368,0
30.9536,-17.2427,0.40556,0
31.0568,-17.1984,0.406722,0
31.1589,-17.1517,0.407874,0
31.2601,-17.1026,0.408987,0
31.36,-17.0511,0.410101,0
31.4587,-16.9973,0.411175,0
31.5563,-16.9412,0.41223,0
31.6526,-16.8828,0.413265,0
31.7475,-16.8221,0.414271,0
31.8409,-16.7592,0.415247,0
31.933,-16.6941,0.416214,0
32.0235,-16.6268,0.417142,0
32.1125,-16.5574,0.41805,0
32.1998,-16.4859,0.418929,0
32.2855,-16.4123,0.419778,0
32.3695,-16.3368,0.420599,0
32.4526,-16.2601,0.421732,0
32.535,-16.1825,0.423265,0
32.6157,-16.103,0.424788,0
32.6948,-16.0216,0.426302,0
32.7719,-15.9383,0.427806,0
32.847,-15.8531,0.429222,0
32.9198,-15.7656,0.430462,0
32.9905,-15.6765,0.431693,0
33.0593,-15.5857,0.432933,0
33.126,-15.4933,0.434144,0
33.1907,-15.3993,0.435355,0
33.2533,-15.3038,0.436546,0
33.3137,-15.2068,0.437737,0
33.372,-15.1083,0.438909,0
33.428,-15.0084,0.440081,0
33.4817,-14.9072,0.441224,0
33.5332,-14.8047,0.442366,0
33.5824,-14.701,0.443489,0
33.6291,-14.596,0.444593,0
33.6735,-14.4899,0.445687,0
33.7155,-14.3827,0.446761,0
33.7552,-14.2745,0.447816,0
33.7922,-14.1653,0.448861,0
33.8268,-14.0552,0.449886,0
33.8588,-13.9442,0.450892,0
33.8884,-13.8324,0.451878,0
33.9165,-13.72,0.453187,0
33.9422,-13.607,0.454495,0
33.9652,-13.4932,0.455804,0
33.9858,-13.3788,0.457073,0
34.0037,-13.2638,0.458343,0
34.0188,-13.1483,0.459583,0
34.0313,-13.0323,0.460804,0
34.0412,-12.916,0.461995,0
34.0483,-12.7993,0.463167,0
34.0527,-12.6823,0.46432,0
34.0534,-12.5652,0.465169,0
34.0478,-12.4482,0.465071,0
34.0395,-12.3314,0.464905,0
34.0283,-12.2148,0.464691,0
34.0144,-12.0984,0.464427,0
33.9975,-11.9824,0.464105,0
33.9779,-11.8669,0.463734,0
33.9554,-11.7518,0.463314,0
33.9302,-11.6374,0.462835,0
33.9022,-11.5235,0.462298,0
33.8714,-11.4104,0.461722,0
33.8392,-11.2976,0.461448,0
33.8056,-11.1851,0.461536,0
28.1427,-17.6279,0.400628,0
28.2548,-17.6452,0.401146,0
28.3671,-17.6599,0.401634,0
28.4798,-17.6719,0.402103,0
28.5927,-17.6812,0.402552,0
28.7058,-17.6879,0.402972,0
28.8189,-17.6919,0.403372,0
28.9321,-17.6932,0.403743,0
29.0452,-17.6896,0.403499,0
29.1581,-17.683,0.403138,0
29.2708,-17.6737,0.402747,0
29.383,-17.6619,0.402347,0
29.4949,-17.6475,0.401956,0
29.6064,-17.6305,0.401546,0
29.7173,-17.611,0.401136,0
29.8276,-17.589,0.400716,0
29.9373,-17.5645,0.400296,0
30.0463,-17.5375,0.399857,0
30.1546,-17.5081,0.399417,0
30.2621,-17.4762,0.398978,0
30.369,-17.4428,0.398792,0
30.4767,-17.4121,0.400062,0
30.5837,-17.379,0.401312,0
30.69,-17.3433,0.402542,0
30.7955,-17.3052,0.403753,0
30.9,-17.2646,0.404954,0
31.0037,-17.2216,0.406116,0
31.1064,-17.1761,0.407279,0
31.208,-17.1282,0.408421,0
31.3086,-17.078,0.409525,0
31.408,-17.0254,0.410618,0
31.5062,-16.9704,0.411693,0
31.6031,-16.9132,0.412728,0
31.6987,-16.8537,0.413753,0
31.793,-16.7919,0.414749,0
31.8857,-16.7279,0.415726,0
31.977,-16.6618,0.416663,0
32.0668,-16.5934,0.417581,0
32.155,-16.523,0.41848,0
32.2416,-16.4505,0.419339,0
32.3264,-16.376,0.420179,0
32.4095,-16.2995,0.420989,0
32.4927,-16.2228,0.422474,0
32.5744,-16.1443,0.424007,0
32.6542,-16.0639,0.425521,0
32.7323,-15.9815,0.427025,0
32.8086,-15.8974,0.428529,0
32.8825,-15.811,0.429818,0
32.9543,-15.7227,0.431068,0
33.0241,-15.6328,0.432298,0
33.0919,-15.5412,0.433519,0
33.1576,-15.448,0.43473,0
33.2213,-15.3532,0.435931,0
33.2828,-15.257,0.437132,0
33.3422,-15.1593,0.438304,0
33.3994,-15.0601,0.439476,0
33.4543,-14.9596,0.440638,0
33.507,-14.8578,0.44178,0
33.5573,-14.7546,0.442904,0
33.6053,-14.6503,0.444017,0
33.651,-14.5448,0.44512,0
33.6942,-14.4382,0.446214,0
33.735,-14.3305,0.447278,0
33.7734,-14.2218,0.448323,0
33.8093,-14.1121,0.449359,0
33.8426,-14.0016,0.450384,0
33.8734,-13.8901,0.45137,0
33.9023,-13.7781,0.452503,0
33.9293,-13.6654,0.453821,0
33.9538,-13.552,0.45513,0
33.9755,-13.4379,0.456419,0
33.9948,-13.3232,0.457689,0
34.0113,-13.2079,0.458939,0
34.0252,-13.0922,0.460169,0
34.0364,-12.976,0.46138,0
34.0449,-12.8595,0.462571,0
34.0508,-12.7427,0.463724,0
34.0538,-12.6256,0.464876,0
34.0511,-12.5085,0.46512,0
34.0441,-12.3916,0.464993,0
34.0345,-12.2749,0.464808,0
34.0219,-12.1584,0.464573,0
34.0065,-12.0422,0.46428,0
33.9884,-11.9265,0.463939,0
33.9673,-11.8111,0.463529,0
33.9435,-11.6963,0.463089,0
33.917,-11.5822,0.462581,0
33.8876,-11.4686,0.462015,0
33.8555,-11.3559,0.461409,0
33.8233,-11.243,0.461497,0
28.085,-17.6179,0.400345,0
28.1968,-17.6366,0.400872,0
28.3091,-17.6527,0.40139,0
28.4216,-17.6661,0.401868,0
28.5344,-17.6768,0.402327,0
28.6474,-17.6848,0.402767,0
28.7605,-17.6901,0.403167,0
28.8737,-17.6928,0.403558,0
28.9869,-17.692,0.403695,0
29.0999,-17.6867,0.403323,0
29.2127,-17.6788,0.402943,0
29.3252,-17.6683,0.402552,0
29.4373,-17.6552,0.402152,0
29.5489,-17.6396,0.401761,0
29.6602,-17.6214,0.401341,0
29.7707,-17.6007,0.400931,0
29.8808,-17.5775,0.400511,0
29.9902,-17.5518,0.400081,0
30.0988,-17.5236,0.399652,0
30.2067,-17.4929,0.399212,0
30.3138,-17.4599,0.398773,0
30.4212,-17.4283,0.399407,0
30.5286,-17.3964,0.400667,0
30.6352,-17.3621,0.401907,0
30.7412,-17.3252,0.403128,0
30.8462,-17.2859,0.404329,0
30.9503,-17.2441,0.405521,0
31.0535,-17.1999,0.406683,0
31.1558,-17.1532,0.407825,0
31.2569,-17.1042,0.408948,0
31.3569,-17.0528,0.410062,0
31.4557,-16.9991,0.411136,0
31.5533,-16.943,0.412191,0
31.6495,-16.8847,0.413226,0
31.7445,-16.8241,0.414241,0
31.838,-16.7612,0.415218,0
31.9301,-16.6962,0.416175,0
32.0206,-16.629,0.417122,0
32.1097,-16.5596,0.418021,0
32.197,-16.4882,0.4189,0
32.2828,-16.4147,0.419749,0
32.3669,-16.3392,0.420579,0
32.4499,-16.2625,0.421683,0
32.5324,-16.185,0.423216,0
32.6133,-16.1056,0.424739,0
32.6923,-16.0242,0.426263,0
32.7695,-15.941,0.427757,0
32.8446,-15.8558,0.429183,0
32.9175,-15.7684,0.430423,0
32.9883,-15.6794,0.431653,0
33.0571,-15.5886,0.432884,0
33.124,-15.4963,0.434105,0
33.1887,-15.4023,0.435316,0
33.2513,-15.3068,0.436507,0
33.3119,-15.2099,0.437698,0
33.3702,-15.1114,0.43887,0
33.4263,-15.0116,0.440042,0
33.4801,-14.9105,0.441185,0
33.5316,-14.808,0.442327,0
33.5809,-14.7043,0.44345,0
33.6277,-14.5994,0.444564,0
33.6722,-14.4933,0.445648,0
33.7143,-14.3862,0.446732,0
33.7539,-14.278,0.447786,0
33.7911,-14.1688,0.448831,0
33.8257,-14.0587,0.449857,0
33.8578,-13.9477,0.450862,0
33.8874,-13.8359,0.451849,0
33.9156,-13.7236,0.453148,0
33.9414,-13.6106,0.454456,0
33.9646,-13.4968,0.455755,0
33.9852,-13.3824,0.457034,0
34.0031,-13.2675,0.458304,0
34.0184,-13.152,0.459544,0
34.0309,-13.036,0.460755,0
34.0409,-12.9197,0.461956,0
34.0481,-12.803,0.463128,0
34.0526,-12.686,0.46428,0
34.0534,-12.5689,0.465169,0
34.048,-12.4519,0.465062,0
34.0398,-12.3351,0.464905,0
34.0287,-12.2185,0.4647,0
34.0148,-12.1021,0.464437,0
33.998,-11.9861,0.464114,0
33.9785,-11.8705,0.463743,0
33.9562,-11.7555,0.463323,0
33.931,-11.641,0.462855,0
33.903,-11.5271,0.462318,0
33.8723,-11.4139,0.461732,0
33.8402,-11.3012,0.461448,0
33.8068,-11.1887,0.461536,0
28.1149,-17.4793,0.399124,0
28.2235,-17.4974,0.399642,0
28.3326,-17.5129,0.40013,0
28.4418,-17.5259,0.400599,0
28.5513,-17.5363,0.401048,0
28.6611,-17.544,0.401468,0
28.7709,-17.5492,0.401859,0
28.8809,-17.5517,0.402239,0
28.9908,-17.5517,0.402581,0
29.1006,-17.549,0.402894,0
29.2102,-17.5413,0.402523,0
29.3195,-17.5312,0.402132,0
29.4284,-17.5185,0.401751,0
29.537,-17.5033,0.40137,0
29.6451,-17.4857,0.40096,0
29.7526,-17.4656,0.40057,0
29.8595,-17.4431,0.40015,0
29.9659,-17.4181,0.39973,0
30.0715,-17.3908,0.39931,0
30.1764,-17.361,0.39889,0
30.2805,-17.3289,0.39845,0
30.3842,-17.2962,0.398529,0
30.4886,-17.2651,0.399739,0
30.5921,-17.2316,0.40095,0
30.6949,-17.1956,0.402132,0
30.797,-17.1572,0.403304,0
30.8981,-17.1165,0.404456,0
30.9984,-17.0734,0.405579,0
31.0976,-17.028,0.406693,0
31.1957,-16.9802,0.407786,0
31.2928,-16.9302,0.408861,0
31.3888,-16.8778,0.409905,0
31.4834,-16.8233,0.410941,0
31.577,-16.7664,0.411937,0
31.6691,-16.7074,0.412923,0
31.7598,-16.6463,0.41387,0
31.8493,-16.583,0.414808,0
31.9372,-16.5176,0.415706,0
32.0235,-16.4501,0.416585,0
32.1084,-16.3806,0.417435,0
32.1916,-16.3091,0.418265,0
32.2745,-16.2371,0.419622,0
32.3562,-16.1636,0.421126,0
32.4362,-16.0881,0.422611,0
32.5146,-16.0107,0.424095,0
32.5913,-15.9315,0.42557,0
32.6662,-15.8505,0.427025,0
32.7393,-15.7677,0.42848,0
32.8105,-15.6831,0.429905,0
32.8794,-15.5965,0.431155,0
32.9462,-15.5082,0.432347,0
33.0109,-15.4183,0.433529,0
33.0737,-15.3268,0.4347,0
33.1345,-15.2339,0.435862,0
33.1931,-15.1396,0.437015,0
33.2496,-15.0438,0.438157,0
33.304,-14.9467,0.43929,0
33.3562,-14.8483,0.440413,0
33.406,-14.7486,0.441507,0
33.4537,-14.6477,0.442591,0
33.4991,-14.5456,0.443675,0
33.5421,-14.4425,0.444739,0
33.5828,-14.3383,0.445784,0
33.6212,-14.2331,0.44681,0
33.657,-14.1269,0.447825,0
33.6905,-14.0199,0.448821,0
33.7216,-13.912,0.449788,0
33.7503,-13.8033,0.450814,0
33.7776,-13.6941,0.452112,0
33.8024,-13.5842,0.453392,0
33.8247,-13.4737,0.454652,0
33.8445,-13.3625,0.455902,0
33.8616,-13.2507,0.457122,0
33.8762,-13.1385,0.458314,0
33.8882,-13.0258,0.459505,0
33.8977,-12.9128,0.460667,0
33.9045,-12.7994,0.4618,0
33.9066,-12.6858,0.462376,0
33.904,-12.5722,0.462327,0
33.8986,-12.4587,0.46223,0
33.8905,-12.3454,0.462083,0
33.8795,-12.2322,0.461868,0
33.8659,-12.1193,0.461614,0
33.8496,-12.0068,0.461302,0
33.8305,-11.8946,0.460941,0
33.8088,-11.783,0.46053,0
33.7842,-11.6719,0.460062,0
33.757,-11.5614,0.459544,0
33.7272,-11.4516,0.458978,0
33.6949,-11.3425,0.458431,0
33.6623,-11.2334,0.458509,0
28.1675,-17.4884,0.399378,0
28.2763,-17.5053,0.399886,0
28.3854,-17.5195,0.400364,0
28.4948,-17.5312,0.400823,0
28.6045,-17.5403,0.401253,0
28.7143,-17.5468,0.401663,0
28.8241,-17.5507,0.402054,0
28.9341,-17.552,0.402405,0
29.0439,-17.5507,0.402737,0
29.1537,-17.5456,0.402708,0
29.2632,-17.5367,0.402327,0
29.3723,-17.5253,0.401946,0
29.481,-17.5115,0.401566,0
29.5893,-17.4951,0.401175,0
29.6971,-17.4763,0.400765,0
29.8045,-17.455,0.400364,0
29.911,-17.4313,0.399954,0
30.017,-17.4052,0.399534,0
30.1224,-17.3766,0.399114,0
30.2269,-17.3458,0.398685,0
30.3305,-17.3125,0.398245,0
30.4348,-17.2814,0.399114,0
30.5388,-17.2491,0.400325,0
30.642,-17.2144,0.401517,0
30.7445,-17.1773,0.402708,0
30.846,-17.1378,0.403861,0
30.9468,-17.0959,0.405003,0
31.0464,-17.0517,0.406126,0
31.1452,-17.0051,0.40722,0
31.2428,-16.9563,0.408314,0
31.3395,-16.9051,0.409368,0
31.4348,-16.8517,0.410404,0
31.5289,-16.796,0.411419,0
31.6217,-16.7381,0.412405,0
31.7133,-16.6781,0.413372,0
31.8034,-16.6159,0.41432,0
31.892,-16.5516,0.415237,0
31.9791,-16.4852,0.416136,0
32.0648,-16.4167,0.417005,0
32.1488,-16.3463,0.417845,0
32.2316,-16.2743,0.418851,0
32.3142,-16.2018,0.420355,0
32.3952,-16.1273,0.421849,0
32.4744,-16.0509,0.423333,0
32.552,-15.9726,0.424808,0
32.6278,-15.8925,0.426273,0
32.7019,-15.8106,0.427728,0
32.774,-15.727,0.429173,0
32.8442,-15.6414,0.43053,0
32.912,-15.554,0.431732,0
32.9778,-15.4649,0.432913,0
33.0416,-15.3742,0.434095,0
33.1034,-15.2821,0.435267,0
33.1631,-15.1884,0.436429,0
33.2207,-15.0934,0.437571,0
33.2762,-14.9969,0.438704,0
33.3295,-14.8992,0.439837,0
33.3805,-14.8001,0.440941,0
33.4295,-14.6999,0.442034,0
33.4759,-14.5984,0.443118,0
33.5202,-14.4958,0.444193,0
33.5621,-14.3922,0.445237,0
33.6016,-14.2875,0.446282,0
33.6388,-14.1818,0.447308,0
33.6735,-14.0752,0.448304,0
33.7059,-13.9677,0.44929,0
33.7357,-13.8594,0.450267,0
33.7639,-13.7506,0.451448,0
33.79,-13.641,0.452737,0
33.8136,-13.5308,0.454007,0
33.8346,-13.4199,0.455257,0
33.853,-13.3084,0.456488,0
33.8691,-13.1964,0.457698,0
33.8824,-13.084,0.45889,0
33.8931,-12.9711,0.460062,0
33.9012,-12.8579,0.461224,0
33.9066,-12.7444,0.462347,0
33.9056,-12.6308,0.462366,0
33.9017,-12.5173,0.462288,0
33.895,-12.4038,0.462171,0
33.8855,-12.2905,0.461986,0
33.8734,-12.1775,0.461751,0
33.8584,-12.0648,0.461468,0
33.8407,-11.9524,0.461126,0
33.8203,-11.8405,0.460736,0
33.7972,-11.7291,0.460306,0
33.7714,-11.6183,0.459818,0
33.7429,-11.5082,0.45928,0
33.7118,-11.3987,0.458685,0
33.6795,-11.2896,0.45847,0
28.1115,-17.4787,0.399105,0
28.2201,-17.4969,0.399622,0
28.3291,-17.5125,0.40012,0
28.4384,-17.5255,0.400589,0
28.5479,-17.536,0.401029,0
28.6576,-17.5438,0.401458,0
28.7674,-17.549,0.401849,0
28.8773,-17.5517,0.40222,0
28.9873,-17.5517,0.402571,0
29.097,-17.5492,0.402894,0
29.2067,-17.5416,0.402532,0
29.316,-17.5315,0.402152,0
29.425,-17.5189,0.401771,0
29.5335,-17.5038,0.40138,0
29.6416,-17.4863,0.40098,0
29.7491,-17.4663,0.400579,0
29.8562,-17.4438,0.400159,0
29.9625,-17.4189,0.399749,0
30.0681,-17.3916,0.399329,0
30.173,-17.362,0.398909,0
30.2772,-17.33,0.39847,0
30.3809,-17.2971,0.39848,0
30.4852,-17.2661,0.39971,0
30.5888,-17.2327,0.400911,0
30.6917,-17.1968,0.402093,0
30.7937,-17.1585,0.403275,0
30.8949,-17.1178,0.404417,0
30.9952,-17.0748,0.40555,0
31.0944,-17.0295,0.406663,0
31.1927,-16.9818,0.407747,0
31.2898,-16.9318,0.408821,0
31.3857,-16.8795,0.409876,0
31.4805,-16.825,0.410902,0
31.574,-16.7683,0.411898,0
31.6662,-16.7093,0.412884,0
31.757,-16.6482,0.413831,0
31.8464,-16.585,0.414769,0
31.9344,-16.5197,0.415667,0
32.0208,-16.4523,0.416556,0
32.1057,-16.3829,0.417415,0
32.1889,-16.3114,0.418236,0
32.2719,-16.2394,0.419573,0
32.3536,-16.1659,0.421077,0
32.4338,-16.0905,0.422571,0
32.5121,-16.0132,0.424046,0
32.5889,-15.9341,0.425521,0
32.6638,-15.8531,0.426976,0
32.737,-15.7703,0.428421,0
32.8083,-15.6858,0.429857,0
32.8772,-15.5993,0.431107,0
32.9441,-15.511,0.432308,0
33.0089,-15.4212,0.433489,0
33.0718,-15.3298,0.434661,0
33.1326,-15.2369,0.435823,0
33.1912,-15.1426,0.436976,0
33.2479,-15.0469,0.438128,0
33.3022,-14.9498,0.439251,0
33.3545,-14.8514,0.440374,0
33.4045,-14.7518,0.441478,0
33.4522,-14.6509,0.442571,0
33.4977,-14.5489,0.443636,0
33.5408,-14.4458,0.4447,0
33.5816,-14.3416,0.445745,0
33.6199,-14.2364,0.44678,0
33.6559,-14.1303,0.447786,0
33.6895,-14.0233,0.448782,0
33.7206,-13.9154,0.449769,0
33.7494,-13.8068,0.450775,0
33.7768,-13.6976,0.452064,0
33.8016,-13.5878,0.453353,0
33.8241,-13.4772,0.454612,0
33.8439,-13.366,0.455853,0
33.8612,-13.2543,0.457073,0
33.8759,-13.1421,0.458275,0
33.8879,-13.0294,0.459466,0
33.8974,-12.9164,0.460618,0
33.9042,-12.803,0.461771,0
33.9066,-12.6894,0.462386,0
33.9041,-12.5758,0.462337,0
33.8988,-12.4623,0.46223,0
33.8908,-12.349,0.462083,0
33.88,-12.2358,0.461878,0
33.8664,-12.1229,0.461624,0
33.8502,-12.0103,0.461312,0
33.8311,-11.8982,0.46095,0
33.8095,-11.7865,0.46054,0
33.7851,-11.6754,0.460071,0
33.7579,-11.5649,0.459564,0
33.7281,-11.4551,0.458997,0
33.6959,-11.346,0.458431,0
33.6633,-11.2369,0.458499,0
28.1399,-17.3474,0.397952,0
28.2455,-17.365,0.39846,0
28.3514,-17.3801,0.398939,0
28.4576,-17.3928,0.399388,0
28.564,-17.4029,0.399818,0
28.6706,-17.4104,0.400228,0
28.7774,-17.4155,0.400609,0
28.8842,-17.418,0.40098,0
28.991,-17.418,0.401321,0
29.0977,-17.4155,0.401634,0
29.2044,-17.4104,0.401917,0
29.3107,-17.4014,0.401761,0
29.4166,-17.3892,0.40139,0
29.5223,-17.3745,0.400999,0
29.6273,-17.3575,0.400618,0
29.732,-17.3381,0.400228,0
29.836,-17.3163,0.399827,0
29.9395,-17.2921,0.399417,0
30.0423,-17.2656,0.399017,0
30.1443,-17.2367,0.398607,0
30.2455,-17.2056,0.398177,0
30.3461,-17.1722,0.397767,0
30.4473,-17.1415,0.398831,0
30.548,-17.1088,0.400003,0
30.648,-17.0738,0.401155,0
30.7471,-17.0365,0.402288,0
30.8455,-16.9968,0.403411,0
30.9428,-16.9549,0.404515,0
31.0393,-16.9107,0.405589,0
31.1348,-16.8642,0.406644,0
31.2291,-16.8155,0.407689,0
31.3223,-16.7645,0.408704,0
31.4144,-16.7114,0.40971,0
31.5052,-16.6561,0.410677,0
31.5948,-16.5987,0.411634,0
31.683,-16.5392,0.412552,0
31.7698,-16.4776,0.41346,0
31.8553,-16.414,0.414339,0
31.9392,-16.3484,0.415198,0
32.022,-16.2812,0.416146,0
32.1043,-16.2133,0.41762,0
32.1852,-16.1436,0.419085,0
32.2646,-16.072,0.42055,0
32.3424,-15.9984,0.421986,0
32.4186,-15.9231,0.423441,0
32.493,-15.846,0.424866,0
32.5659,-15.7671,0.426292,0
32.6369,-15.6865,0.427689,0
32.7061,-15.6042,0.429085,0
32.7734,-15.5202,0.430472,0
32.8387,-15.4346,0.43179,0
32.9017,-15.3471,0.432943,0
32.9627,-15.2581,0.434085,0
33.0216,-15.1676,0.435208,0
33.0786,-15.0758,0.436331,0
33.1335,-14.9826,0.437445,0
33.1862,-14.8881,0.438548,0
33.2369,-14.7923,0.439622,0
33.2853,-14.6953,0.440696,0
33.3316,-14.5971,0.441761,0
33.3756,-14.4978,0.442806,0
33.4173,-14.3975,0.443841,0
33.4568,-14.2961,0.444857,0
33.494,-14.1937,0.445853,0
33.5288,-14.0905,0.446839,0
33.5612,-13.9863,0.447806,0
33.5913,-13.8814,0.448743,0
33.6195,-13.7758,0.449837,0
33.6459,-13.6696,0.451097,0
33.6698,-13.5627,0.452337,0
33.6914,-13.4551,0.453558,0
33.7104,-13.347,0.454769,0
33.727,-13.2383,0.45596,0
33.741,-13.1292,0.457122,0
33.7526,-13.0196,0.458265,0
33.7616,-12.9097,0.459407,0
33.7652,-12.7995,0.4597,0
33.7652,-12.6892,0.4597,0
33.7626,-12.5789,0.459652,0
33.7573,-12.4687,0.459544,0
33.7494,-12.3586,0.459398,0
33.7388,-12.2487,0.459202,0
33.7255,-12.139,0.458948,0
33.7097,-12.0297,0.458636,0
33.6911,-11.9209,0.458294,0
33.6699,-11.8124,0.457894,0
33.6461,-11.7046,0.457445,0
33.6197,-11.5973,0.456937,0
33.5907,-11.4906,0.45639,0
33.5591,-11.3848,0.455794,0
33.5267,-11.2791,0.455638,0
28.1909,-17.3562,0.398196,0
28.2966,-17.3726,0.398685,0
28.4027,-17.3866,0.399154,0
28.5091,-17.398,0.399603,0
28.6156,-17.4069,0.400023,0
28.7223,-17.4132,0.400423,0
28.8291,-17.417,0.400794,0
28.9359,-17.4183,0.401146,0
29.0427,-17.4171,0.401468,0
29.1494,-17.4134,0.401771,0
29.2559,-17.4067,0.401946,0
29.3621,-17.3958,0.401575,0
29.4679,-17.3824,0.401204,0
29.5732,-17.3666,0.400823,0
29.678,-17.3484,0.400423,0
29.7824,-17.3278,0.400032,0
29.8862,-17.3048,0.399632,0
29.9893,-17.2795,0.399232,0
30.0917,-17.2519,0.398821,0
30.1934,-17.2219,0.398402,0
30.2944,-17.1897,0.397972,0
30.3951,-17.1574,0.398226,0
30.4962,-17.126,0.399407,0
30.5965,-17.0922,0.40056,0
30.6961,-17.0561,0.401712,0
30.7948,-17.0176,0.402835,0
30.8927,-16.9768,0.403948,0
30.9897,-16.9338,0.405042,0
31.0856,-16.8884,0.406107,0
31.1805,-16.8409,0.407161,0
31.2744,-16.7911,0.408187,0
31.367,-16.7391,0.409202,0
31.4585,-16.6849,0.410179,0
31.5487,-16.6286,0.411146,0
31.6377,-16.5702,0.412083,0
31.7252,-16.5097,0.413001,0
31.8114,-16.4471,0.41389,0
31.8961,-16.3825,0.414759,0
31.9793,-16.3159,0.415599,0
32.062,-16.2486,0.416868,0
32.1437,-16.1798,0.418333,0
32.2239,-16.1091,0.419798,0
32.3025,-16.0366,0.421243,0
32.3795,-15.9622,0.422698,0
32.4548,-15.886,0.424124,0
32.5285,-15.808,0.42556,0
32.6005,-15.7283,0.426966,0
32.6706,-15.6468,0.428372,0
32.7389,-15.5637,0.429759,0
32.8054,-15.479,0.431136,0
32.8695,-15.3924,0.432347,0
32.9315,-15.3041,0.433489,0
32.9915,-15.2145,0.434622,0
33.0495,-15.1233,0.435765,0
33.1055,-15.0308,0.436868,0
33.1593,-14.937,0.437982,0
33.211,-14.8418,0.439066,0
33.2606,-14.7455,0.44015,0
33.308,-14.6479,0.441214,0
33.3532,-14.5492,0.442269,0
33.3961,-14.4494,0.443314,0
33.4367,-14.3485,0.444329,0
33.4751,-14.2467,0.445345,0
33.5112,-14.1439,0.446331,0
33.5448,-14.0402,0.447308,0
33.5761,-13.9356,0.448265,0
33.605,-13.8303,0.449212,0
33.6326,-13.7245,0.450452,0
33.6578,-13.6179,0.451702,0
33.6805,-13.5107,0.452933,0
33.7009,-13.4029,0.454154,0
33.7188,-13.2945,0.455345,0
33.7341,-13.1856,0.456527,0
33.7469,-13.0762,0.457689,0
33.7573,-12.9665,0.458821,0
33.7641,-12.8564,0.459681,0
33.7655,-12.7461,0.45971,0
33.7642,-12.6358,0.459681,0
33.7604,-12.5255,0.459612,0
33.7538,-12.4154,0.459486,0
33.7447,-12.3053,0.45931,0
33.7327,-12.1956,0.459085,0
33.7182,-12.0861,0.458812,0
33.701,-11.977,0.45848,0
33.6812,-11.8683,0.458099,0
33.6587,-11.7601,0.457679,0
33.6337,-11.6525,0.45721,0
33.606,-11.5456,0.456683,0
33.5758,-11.4393,0.456107,0
33.5434,-11.3336,0.455609,0
28.1366,-17.3468,0.397933,0
28.2421,-17.3645,0.398441,0
28.348,-17.3797,0.398919,0
28.4541,-17.3924,0.399378,0
28.5606,-17.4026,0.399808,0
28.6673,-17.4102,0.400218,0
28.774,-17.4154,0.400609,0
28.8809,-17.418,0.40096,0
28.9876,-17.418,0.401302,0
29.0944,-17.4156,0.401614,0
29.2009,-17.4106,0.401907,0
29.3073,-17.4017,0.401761,0
29.4133,-17.3896,0.4014,0
29.5189,-17.375,0.401009,0
29.624,-17.3581,0.400628,0
29.7287,-17.3387,0.400238,0
29.8327,-17.317,0.399837,0
29.9362,-17.2929,0.399437,0
30.039,-17.2664,0.399027,0
30.1411,-17.2377,0.398616,0
30.2424,-17.2066,0.398196,0
30.3429,-17.1733,0.397777,0
30.4441,-17.1425,0.398792,0
30.5448,-17.1099,0.399964,0
30.6448,-17.075,0.401126,0
30.7441,-17.0377,0.402249,0
30.8423,-16.9981,0.403372,0
30.9398,-16.9563,0.404476,0
31.0362,-16.9121,0.40556,0
31.1317,-16.8657,0.406614,0
31.2261,-16.8171,0.407659,0
31.3194,-16.7662,0.408685,0
31.4114,-16.7131,0.409671,0
31.5023,-16.6579,0.410648,0
31.592,-16.6006,0.411595,0
31.6802,-16.5411,0.412523,0
31.7671,-16.4796,0.413441,0
31.8526,-16.4161,0.41431,0
31.9366,-16.3505,0.415169,0
32.0193,-16.2833,0.416107,0
32.1018,-16.2155,0.417581,0
32.1827,-16.1458,0.419046,0
32.2621,-16.0743,0.420501,0
32.34,-16.0008,0.421946,0
32.4162,-15.9255,0.423382,0
32.4907,-15.8485,0.424818,0
32.5636,-15.7696,0.426234,0
32.6347,-15.6891,0.42765,0
32.7039,-15.6068,0.429046,0
32.7712,-15.5229,0.430433,0
32.8367,-15.4373,0.431751,0
32.8998,-15.3499,0.432903,0
32.9608,-15.2609,0.434046,0
33.0198,-15.1705,0.435179,0
33.0769,-15.0787,0.436292,0
33.1317,-14.9855,0.437405,0
33.1846,-14.8911,0.438509,0
33.2353,-14.7953,0.439593,0
33.2838,-14.6984,0.440667,0
33.3302,-14.6003,0.441732,0
33.3742,-14.501,0.442777,0
33.4161,-14.4007,0.443802,0
33.4555,-14.2993,0.444818,0
33.4928,-14.197,0.445823,0
33.5277,-14.0938,0.44681,0
33.5602,-13.9897,0.447777,0
33.5904,-13.8847,0.448714,0
33.6186,-13.7792,0.449798,0
33.6452,-13.673,0.451058,0
33.6691,-13.5661,0.452298,0
33.6908,-13.4586,0.453519,0
33.7099,-13.3505,0.45473,0
33.7265,-13.2418,0.455911,0
33.7406,-13.1327,0.457093,0
33.7522,-13.0231,0.458236,0
33.7613,-12.9132,0.459368,0
33.7651,-12.803,0.4597,0
33.7652,-12.6927,0.4597,0
33.7627,-12.5824,0.459652,0
33.7576,-12.4722,0.459554,0
33.7497,-12.3621,0.459407,0
33.7392,-12.2522,0.459212,0
33.726,-12.1425,0.458958,0
33.7102,-12.0332,0.458655,0
33.6917,-11.9243,0.458304,0
33.6707,-11.8159,0.457904,0
33.647,-11.708,0.457454,0
33.6206,-11.6007,0.456956,0
33.5916,-11.494,0.456409,0
33.5602,-11.3881,0.455814,0
33.5277,-11.2825,0.455638,0
28.1637,-17.2222,0.396839,0
28.2662,-17.2394,0.397327,0
28.3693,-17.2542,0.397796,0
28.4725,-17.2664,0.398236,0
28.576,-17.2763,0.398655,0
28.6798,-17.2837,0.399056,0
28.7836,-17.2886,0.399427,0
28.8874,-17.2911,0.399779,0
28.9912,-17.2912,0.40012,0
29.0951,-17.2888,0.400413,0
29.1987,-17.2839,0.400696,0
29.3023,-17.2766,0.40095,0
29.4055,-17.2663,0.401029,0
29.5083,-17.2521,0.400657,0
29.6106,-17.2357,0.400286,0
29.7123,-17.2168,0.399896,0
29.8137,-17.1957,0.399515,0
29.9144,-17.1723,0.399124,0
30.0145,-17.1466,0.398734,0
30.1137,-17.1186,0.398323,0
30.2124,-17.0884,0.397913,0
30.3102,-17.0559,0.397503,0
30.4082,-17.0241,0.397962,0
30.5062,-16.9923,0.399105,0
30.6034,-16.9582,0.400228,0
30.6998,-16.9218,0.401331,0
30.7955,-16.8832,0.402425,0
30.8902,-16.8423,0.403489,0
30.984,-16.7993,0.404544,0
31.0768,-16.754,0.40557,0
31.1686,-16.7065,0.406585,0
31.2592,-16.657,0.407571,0
31.3487,-16.6052,0.408538,0
31.4371,-16.5514,0.409486,0
31.5242,-16.4955,0.410413,0
31.61,-16.4376,0.411321,0
31.6945,-16.3777,0.412191,0
31.7776,-16.3157,0.41305,0
31.8601,-16.2529,0.41428,0
31.9416,-16.1887,0.415716,0
32.0218,-16.1226,0.417152,0
32.1005,-16.0547,0.418577,0
32.1777,-15.9849,0.419993,0
32.2533,-15.9132,0.4214,0
32.3273,-15.8398,0.422806,0
32.3998,-15.7647,0.424202,0
32.4705,-15.6878,0.425579,0
32.5395,-15.6093,0.426946,0
32.6068,-15.5291,0.428304,0
32.6722,-15.4474,0.429652,0
32.7359,-15.364,0.43098,0
32.7976,-15.2792,0.432298,0
32.8571,-15.1927,0.433489,0
32.9145,-15.1046,0.434593,0
32.9698,-15.0151,0.435687,0
33.0231,-14.9244,0.436771,0
33.0744,-14.8324,0.437835,0
33.1235,-14.7391,0.43889,0
33.1705,-14.6446,0.439935,0
33.2155,-14.5491,0.44096,0
33.2583,-14.4524,0.441976,0
33.2988,-14.3547,0.442982,0
33.3371,-14.256,0.443968,0
33.3732,-14.1564,0.444945,0
33.407,-14.0558,0.445892,0
33.4384,-13.9545,0.446839,0
33.4676,-13.8524,0.447767,0
33.4952,-13.7496,0.448909,0
33.5207,-13.6463,0.45013,0
33.544,-13.5422,0.451341,0
33.5648,-13.4376,0.452523,0
33.5831,-13.3323,0.453704,0
33.5991,-13.2266,0.454857,0
33.6127,-13.1204,0.455989,0
33.6234,-13.0138,0.457005,0
33.6285,-12.9068,0.457112,0
33.6312,-12.7996,0.457161,0
33.6312,-12.6924,0.457161,0
33.6287,-12.5852,0.457112,0
33.6236,-12.4781,0.457015,0
33.6158,-12.3711,0.456859,0
33.6055,-12.2643,0.456673,0
33.5926,-12.1578,0.456429,0
33.5771,-12.0515,0.456136,0
33.5591,-11.9457,0.455794,0
33.5384,-11.8404,0.455404,0
33.5153,-11.7355,0.454954,0
33.4897,-11.6312,0.454476,0
33.4615,-11.5276,0.453929,0
33.4307,-11.4247,0.453353,0
33.3982,-11.3224,0.452933,0
28.2133,-17.2308,0.397083,0
28.316,-17.2468,0.397562,0
28.4191,-17.2604,0.398011,0
28.5227,-17.2715,0.39845,0
28.6262,-17.2802,0.398851,0
28.73,-17.2864,0.399241,0
28.8337,-17.2902,0.399603,0
28.9377,-17.2915,0.399945,0
29.0415,-17.2903,0.400257,0
29.1453,-17.2867,0.40056,0
29.2489,-17.2807,0.400823,0
29.3523,-17.2722,0.401077,0
29.4553,-17.2598,0.400853,0
29.5579,-17.2445,0.400482,0
29.6599,-17.2268,0.400101,0
29.7616,-17.2069,0.39972,0
29.8625,-17.1846,0.399329,0
29.9629,-17.1601,0.398929,0
30.0627,-17.1333,0.398529,0
30.1616,-17.1042,0.398128,0
30.2599,-17.0729,0.397718,0
30.3574,-17.0397,0.397376,0
30.4557,-17.009,0.398519,0
30.5533,-16.9761,0.399652,0
30.6502,-16.9409,0.400765,0
30.7463,-16.9034,0.401859,0
30.8414,-16.8637,0.402943,0
30.9357,-16.8217,0.403997,0
31.0291,-16.7776,0.405042,0
31.1214,-16.7313,0.406068,0
31.2126,-16.6828,0.407064,0
31.3027,-16.6322,0.40804,0
31.3917,-16.5794,0.409007,0
31.4795,-16.5246,0.409935,0
31.5659,-16.4677,0.410853,0
31.651,-16.4088,0.411741,0
31.7349,-16.3479,0.412611,0
31.8174,-16.2853,0.413538,0
31.8997,-16.2221,0.414984,0
31.9806,-16.157,0.416409,0
32.0601,-16.09,0.417835,0
32.138,-16.0211,0.419261,0
32.2145,-15.9504,0.420677,0
32.2894,-15.8779,0.422093,0
32.3627,-15.8037,0.42348,0
32.4342,-15.7277,0.424876,0
32.5041,-15.65,0.426243,0
32.5723,-15.5707,0.427611,0
32.6387,-15.4898,0.428958,0
32.7033,-15.4072,0.430296,0
32.766,-15.3232,0.431624,0
32.8268,-15.2376,0.432923,0
32.8852,-15.1502,0.434027,0
32.9415,-15.0615,0.43513,0
32.9958,-14.9714,0.436214,0
33.0481,-14.88,0.437288,0
33.0984,-14.7874,0.438353,0
33.1466,-14.6935,0.439398,0
33.1926,-14.5985,0.440433,0
33.2365,-14.5024,0.441458,0
33.2782,-14.4052,0.442464,0
33.3176,-14.3071,0.44347,0
33.3548,-14.2079,0.444446,0
33.3898,-14.1078,0.445413,0
33.4225,-14.0069,0.446361,0
33.4529,-13.9051,0.447288,0
33.4811,-13.8027,0.448275,0
33.5078,-13.6997,0.449495,0
33.5323,-13.596,0.450716,0
33.5543,-13.4916,0.451917,0
33.574,-13.3867,0.453099,0
33.5912,-13.2812,0.454261,0
33.6059,-13.1752,0.455404,0
33.6183,-13.0688,0.456527,0
33.6262,-12.962,0.457064,0
33.6302,-12.8549,0.457142,0
33.6316,-12.7477,0.457171,0
33.6303,-12.6405,0.457142,0
33.6265,-12.5334,0.457073,0
33.6201,-12.4263,0.456946,0
33.6111,-12.3194,0.45678,0
33.5996,-12.2127,0.456566,0
33.5854,-12.1063,0.456292,0
33.5687,-12.0002,0.45597,0
33.5494,-11.8946,0.455609,0
33.5276,-11.7895,0.455189,0
33.5031,-11.685,0.45473,0
33.4763,-11.581,0.454212,0
33.4469,-11.4777,0.453655,0
33.415,-11.3752,0.45306,0
28.1603,-17.2216,0.396829,0
28.263,-17.2389,0.397308,0
28.3659,-17.2537,0.397777,0
28.4692,-17.2661,0.398226,0
28.5727,-17.276,0.398646,0
28.6764,-17.2835,0.399046,0
28.7802,-17.2885,0.399417,0
28.8841,-17.2911,0.399769,0
28.988,-17.2912,0.400101,0
29.0918,-17.2889,0.400403,0
29.1955,-17.2841,0.400687,0
29.299,-17.2769,0.40095,0
29.4023,-17.2667,0.401038,0
29.505,-17.2526,0.400677,0
29.6073,-17.2362,0.400296,0
29.7092,-17.2175,0.399915,0
29.8105,-17.1964,0.399525,0
29.9112,-17.173,0.399134,0
30.0112,-17.1474,0.398743,0
30.1106,-17.1195,0.398333,0
30.2093,-17.0894,0.397933,0
30.3072,-17.057,0.397513,0
30.4051,-17.0251,0.397933,0
30.503,-16.9934,0.399066,0
30.6002,-16.9593,0.400198,0
30.6967,-16.923,0.401292,0
30.7924,-16.8845,0.402386,0
30.8872,-16.8437,0.40346,0
30.981,-16.8007,0.404505,0
31.0739,-16.7555,0.40554,0
31.1656,-16.7081,0.406546,0
31.2563,-16.6586,0.407542,0
31.3459,-16.6069,0.408509,0
31.4344,-16.5532,0.409456,0
31.5214,-16.4973,0.410384,0
31.6073,-16.4395,0.411282,0
31.6918,-16.3796,0.412171,0
31.7749,-16.3177,0.413021,0
31.8574,-16.2549,0.414241,0
31.9391,-16.1908,0.415677,0
32.0192,-16.1248,0.417103,0
32.098,-16.0568,0.418528,0
32.1752,-15.9871,0.419945,0
32.2509,-15.9155,0.421361,0
32.325,-15.8422,0.422757,0
32.3975,-15.7671,0.424154,0
32.4683,-15.6903,0.42553,0
32.5373,-15.6118,0.426907,0
32.6047,-15.5317,0.428255,0
32.6702,-15.45,0.429603,0
32.7339,-15.3667,0.430941,0
32.7956,-15.2819,0.432259,0
32.8553,-15.1954,0.43346,0
32.9127,-15.1074,0.434554,0
32.968,-15.018,0.435648,0
33.0215,-14.9273,0.436732,0
33.0727,-14.8353,0.437796,0
33.122,-14.7421,0.438861,0
