74.0968,-51.5464,-3.18738,0
74.1302,-51.4554,-3.20248,0
74.1614,-51.3641,-3.21723,0
74.1903,-51.2725,-3.23163,0
74.2168,-51.1807,-3.24565,0
74.2411,-51.0889,-3.2593,0
74.2631,-50.9969,-3.27259,0
74.283,-50.905,-3.2855,0
74.3088,-50.8168,-3.29636,0
74.3354,-50.7294,-3.30634,0
74.36,-50.6416,-3.31601,0
74.3825,-50.5536,-3.32535,0
74.403,-50.4652,-3.33438,0
74.4215,-50.3767,-3.34308,0
74.438,-50.288,-3.35145,0
74.4525,-50.1992,-3.35951,0
74.4651,-50.1102,-3.36723,0
74.4756,-50.0213,-3.37463,0
74.4841,-49.9324,-3.38169,0
74.4908,-49.8435,-3.38842,0
74.4955,-49.7547,-3.39482,0
74.4983,-49.666,-3.40089,0
74.4991,-49.5775,-3.40663,0
74.498,-49.4892,-3.41203,0
74.4951,-49.4012,-3.41711,0
74.4903,-49.3135,-3.42184,0
74.4836,-49.2261,-3.42625,0
74.4751,-49.1391,-3.43033,0
74.4647,-49.0524,-3.43407,0
74.4526,-48.9662,-3.43749,0
74.4387,-48.8805,-3.44057,0
74.424,-48.7952,-3.44315,0
74.4129,-48.7097,-3.44456,0
74.4001,-48.6245,-3.44564,0
74.3856,-48.5397,-3.44637,0
74.3695,-48.4551,-3.44678,0
74.356,-48.37,-3.44614,0
74.3455,-48.284,-3.44442,0
74.333,-48.1981,-3.44235,0
74.319,-48.1122,-3.43995,0
74.3031,-48.0264,-3.43721,0
74.2855,-47.9408,-3.43413,0
74.266,-47.8553,-3.4307,0
74.2447,-47.77,-3.42693,0
74.2216,-47.6849,-3.42281,0
74.1967,-47.6002,-3.41835,0
74.1699,-47.5157,-3.41355,0
74.1414,-47.4316,-3.4084,0
74.111,-47.3479,-3.4029,0
74.0788,-47.2646,-3.39705,0
74.0448,-47.1817,-3.39086,0
74.0089,-47.0994,-3.38431,0
73.9712,-47.0176,-3.37742,0
73.9316,-46.9364,-3.37018,0
73.8901,-46.856,-3.36265,0
73.845,-46.7775,-3.35512,0
73.798,-46.6998,-3.34726,0
73.7494,-46.6229,-3.33906,0
73.6989,-46.547,-3.33053,0
73.6467,-46.472,-3.32168,0
73.5928,-46.3979,-3.31249,0
73.5372,-46.3249,-3.30297,0
73.4798,-46.253,-3.29313,0
73.4207,-46.1822,-3.28297,0
73.3599,-46.1125,-3.27249,0
73.2975,-46.044,-3.26169,0
73.5369,-52.3497,-3.00973,0
73.5937,-52.2689,-3.02766,0
73.648,-52.187,-3.04531,0
73.7001,-52.1041,-3.06269,0
73.7498,-52.0203,-3.07977,0
73.7972,-51.9357,-3.09654,0
73.8423,-51.8502,-3.11301,0
73.885,-51.7641,-3.12916,0
73.9255,-51.6774,-3.145,0
73.9637,-51.5901,-3.1605,0
73.9995,-51.5023,-3.17568,0
74.033,-51.4142,-3.1905,0
74.0645,-51.3256,-3.205,0
74.0935,-51.2368,-3.21913,0
74.1204,-51.1478,-3.23293,0
74.1451,-51.0586,-3.24636,0
74.1675,-50.9694,-3.25944,0
74.188,-50.8802,-3.2721,0
74.2166,-50.7955,-3.28225,0
74.2433,-50.7104,-3.2921,0
74.2679,-50.6249,-3.30163,0
74.2905,-50.5392,-3.31086,0
74.3113,-50.4531,-3.31976,0
74.33,-50.3668,-3.32837,0
74.3468,-50.2803,-3.33665,0
74.3616,-50.1936,-3.34462,0
74.3745,-50.1069,-3.35226,0
74.3855,-50.0201,-3.35959,0
74.3945,-49.9333,-3.3666,0
74.4017,-49.8466,-3.37328,0
74.4069,-49.7599,-3.37964,0
74.4102,-49.6733,-3.38568,0
74.4117,-49.5868,-3.39138,0
74.4112,-49.5006,-3.39677,0
74.409,-49.4146,-3.40183,0
74.4049,-49.3288,-3.40657,0
74.3991,-49.2433,-3.41098,0
74.3913,-49.1582,-3.41508,0
74.3818,-49.0735,-3.41884,0
74.3705,-48.9892,-3.42228,0
74.3574,-48.9053,-3.4254,0
74.347,-48.8215,-3.42747,0
74.3366,-48.7378,-3.42893,0
74.3245,-48.6544,-3.43007,0
74.3107,-48.5713,-3.43087,0
74.2953,-48.4885,-3.43134,0
74.2788,-48.4059,-3.43139,0
74.2687,-48.3219,-3.42974,0
74.257,-48.2378,-3.42777,0
74.2434,-48.1539,-3.42546,0
74.228,-48.07,-3.42281,0
74.2109,-47.9863,-3.41985,0
74.1921,-47.9027,-3.41653,0
74.1715,-47.8194,-3.41289,0
74.1491,-47.7362,-3.40891,0
74.125,-47.6534,-3.40459,0
74.0991,-47.5708,-3.39993,0
74.0714,-47.4886,-3.39493,0
74.0419,-47.4068,-3.3896,0
74.0106,-47.3254,-3.38393,0
73.9775,-47.2444,-3.3779,0
73.9427,-47.164,-3.37154,0
73.906,-47.0841,-3.36485,0
73.8677,-47.0047,-3.35781,0
73.8273,-46.9261,-3.35047,0
73.7834,-46.8494,-3.34315,0
73.7378,-46.7734,-3.33552,0
73.6905,-46.6983,-3.32756,0
73.6416,-46.624,-3.31927,0
73.5908,-46.5507,-3.31066,0
73.5384,-46.4784,-3.30172,0
73.4842,-46.407,-3.29246,0
73.4284,-46.3367,-3.2829,0
73.3709,-46.2675,-3.27302,0
73.3118,-46.1993,-3.26282,0
73.2511,-46.1324,-3.25232,0
72.3864,-53.3935,-2.70925,0
72.4775,-53.344,-2.72841,0
72.5649,-53.2877,-2.74894,0
72.6505,-53.2291,-2.76938,0
72.734,-53.1684,-2.78972,0
72.8156,-53.1056,-2.80995,0
72.8952,-53.0408,-2.83006,0
72.9727,-52.974,-2.85001,0
73.0481,-52.9054,-2.86981,0
73.1214,-52.8351,-2.88942,0
73.1925,-52.7631,-2.90886,0
73.2614,-52.6894,-2.92809,0
73.328,-52.6143,-2.9471,0
73.3924,-52.5377,-2.96589,0
73.4545,-52.4598,-2.98443,0
73.5145,-52.3806,-3.00273,0
73.572,-52.3002,-3.02076,0
73.6273,-52.2188,-3.03852,0
73.6802,-52.1362,-3.05601,0
73.7308,-52.0528,-3.0732,0
73.7791,-51.9685,-3.09009,0
73.8252,-51.8833,-3.10669,0
73.8688,-51.7975,-3.12297,0
73.9101,-51.711,-3.13891,0
73.9491,-51.6239,-3.15455,0
73.9859,-51.5363,-3.16986,0
74.0204,-51.4483,-3.18481,0
74.0526,-51.3599,-3.19944,0
74.0825,-51.2712,-3.21371,0
74.1103,-51.1822,-3.22763,0
74.1358,-51.0931,-3.24121,0
74.1591,-51.0039,-3.25443,0
74.1802,-50.9146,-3.26729,0
74.2058,-50.8283,-3.27837,0
74.2332,-50.7433,-3.28833,0
74.2586,-50.658,-3.29798,0
74.282,-50.5723,-3.30733,0
74.3035,-50.4864,-3.31636,0
74.323,-50.4002,-3.32508,0
74.3405,-50.3137,-3.33348,0
74.3562,-50.2271,-3.34157,0
74.3698,-50.1404,-3.34935,0
74.3815,-50.0537,-3.3568,0
74.3913,-49.9669,-3.36393,0
74.3991,-49.8801,-3.37074,0
74.4051,-49.7934,-3.37722,0
74.4091,-49.7067,-3.38338,0
74.4113,-49.6202,-3.38922,0
74.4116,-49.5339,-3.39473,0
74.4102,-49.4478,-3.39991,0
74.4067,-49.3619,-3.40478,0
74.4016,-49.2763,-3.40931,0
74.3945,-49.1911,-3.41353,0
74.3856,-49.1062,-3.41742,0
74.3751,-49.0217,-3.42098,0
74.3627,-48.9376,-3.42423,0
74.3505,-48.8539,-3.42681,0
74.3408,-48.7701,-3.4284,0
74.3294,-48.6866,-3.42966,0
74.3162,-48.6033,-3.4306,0
74.3014,-48.5204,-3.4312,0
74.285,-48.4378,-3.43148,0
74.2728,-48.3543,-3.43042,0
74.2617,-48.2703,-3.42857,0
74.2487,-48.1863,-3.42639,0
74.2341,-48.1024,-3.42388,0
74.2177,-48.0186,-3.42103,0
74.1996,-47.935,-3.41785,0
74.1797,-47.8516,-3.41433,0
74.158,-47.7683,-3.41049,0
74.1345,-47.6854,-3.4063,0
74.1093,-47.6027,-3.40178,0
74.0823,-47.5204,-3.39691,0
74.0535,-47.4384,-3.3917,0
74.0229,-47.3568,-3.38615,0
73.9905,-47.2757,-3.38027,0
73.9564,-47.195,-3.37404,0
73.9205,-47.1149,-3.36748,0
73.8827,-47.0353,-3.36057,0
73.8431,-46.9563,-3.35332,0
73.8005,-46.8789,-3.34603,0
73.7557,-46.8027,-3.33851,0
73.7091,-46.7272,-3.33067,0
73.6607,-46.6526,-3.32251,0
73.6105,-46.579,-3.31402,0
73.5588,-46.5062,-3.30522,0
73.5053,-46.4345,-3.29608,0
73.4502,-46.3637,-3.28665,0
73.3934,-46.2941,-3.27688,0
73.3348,-46.2255,-3.2668,0
73.2748,-46.1581,-3.25641,0
72.4427,-53.3639,-2.72084,0
72.5313,-53.3097,-2.74101,0
72.6176,-53.252,-2.76148,0
72.702,-53.1921,-2.78188,0
72.7843,-53.1301,-2.80215,0
72.8647,-53.0661,-2.8223,0
72.943,-53.0001,-2.84232,0
73.0192,-52.9322,-2.86217,0
73.0934,-52.8625,-2.88187,0
73.1652,-52.7911,-2.90137,0
73.235,-52.7181,-2.92068,0
73.3026,-52.6435,-2.93978,0
73.3679,-52.5675,-2.95865,0
73.4308,-52.4901,-2.97729,0
73.4916,-52.4114,-2.99569,0
73.55,-52.3314,-3.01383,0
73.6062,-52.2504,-3.0317,0
73.66,-52.1682,-3.04928,0
73.7115,-52.0851,-3.06659,0
73.7608,-52.0011,-3.08361,0
73.8077,-51.9163,-3.10031,0
73.8522,-51.8307,-3.11671,0
73.8945,-51.7445,-3.13279,0
73.9344,-51.6576,-3.14855,0
73.972,-51.5702,-3.16398,0
74.0073,-51.4823,-3.17907,0
74.0404,-51.3941,-3.19383,0
74.0713,-51.3055,-3.20823,0
74.0998,-51.2166,-3.2223,0
74.1262,-51.1276,-3.236,0
74.1503,-51.0384,-3.24936,0
74.1723,-50.9491,-3.26237,0
74.1948,-50.861,-3.27444,0
74.2228,-50.7762,-3.28451,0
74.249,-50.691,-3.29428,0
74.2732,-50.6055,-3.30375,0
74.2955,-50.5196,-3.31291,0
74.3156,-50.4335,-3.32175,0
74.334,-50.3471,-3.33028,0
74.3503,-50.2606,-3.33848,0
74.3648,-50.174,-3.34638,0
74.3772,-50.0872,-3.35396,0
74.3877,-50.0004,-3.36121,0
74.3963,-49.9136,-3.36814,0
74.403,-49.8269,-3.37475,0
74.4078,-49.7402,-3.38104,0
74.4107,-49.6536,-3.387,0
74.4118,-49.5672,-3.39263,0
74.4109,-49.481,-3.39795,0
74.4083,-49.3951,-3.40293,0
74.4037,-49.3094,-3.4076,0
74.3974,-49.224,-3.41194,0
74.3893,-49.139,-3.41595,0
74.3794,-49.0543,-3.41965,0
74.3677,-48.9701,-3.42301,0
74.3543,-48.8863,-3.42606,0
74.3448,-48.8025,-3.42783,0
74.334,-48.7188,-3.42922,0
74.3215,-48.6355,-3.43028,0
74.3073,-48.5524,-3.431,0
74.2916,-48.4697,-3.4314,0
74.2767,-48.3868,-3.43105,0
74.2662,-48.3028,-3.42932,0
74.254,-48.2188,-3.42727,0
74.2401,-48.1348,-3.42488,0
74.2243,-48.051,-3.42217,0
74.2068,-47.9673,-3.41912,0
74.1876,-47.8838,-3.41574,0
74.1666,-47.8005,-3.41201,0
74.1438,-47.7174,-3.40796,0
74.1192,-47.6346,-3.40356,0
74.093,-47.5521,-3.39882,0
74.0648,-47.47,-3.39375,0
74.035,-47.3883,-3.38834,0
74.0032,-47.307,-3.38258,0
73.9698,-47.2261,-3.37649,0
73.9345,-47.1458,-3.37006,0
73.8975,-47.066,-3.36328,0
73.8587,-46.9868,-3.35616,0
73.8174,-46.9086,-3.34884,0
73.7733,-46.8321,-3.34145,0
73.7273,-46.7563,-3.33374,0
73.6795,-46.6814,-3.3257,0
73.6302,-46.6073,-3.31735,0
73.5791,-46.5342,-3.30866,0
73.5262,-46.4621,-3.29965,0
73.4716,-46.3909,-3.29033,0
73.4155,-46.3209,-3.28069,0
73.3576,-46.2519,-3.27074,0
73.2981,-46.184,-3.26046,0
73.237,-46.1174,-3.24989,0
73.4601,-52.2616,-3.00604,0
73.5155,-52.1834,-3.0235,0
73.5688,-52.1042,-3.04069,0
73.6198,-52.0239,-3.05761,0
73.6687,-51.9428,-3.07426,0
73.7152,-51.8608,-3.09062,0
73.7595,-51.778,-3.10668,0
73.8016,-51.6946,-3.12244,0
73.8414,-51.6105,-3.13788,0
73.8791,-51.5259,-3.15302,0
73.9144,-51.4407,-3.16783,0
73.9476,-51.3552,-3.18233,0
73.9786,-51.2692,-3.19649,0
74.0073,-51.183,-3.21031,0
74.034,-51.0965,-3.2238,0
74.0585,-51.0099,-3.23694,0
74.0808,-50.9231,-3.24975,0
74.1062,-50.8388,-3.26103,0
74.1344,-50.7562,-3.27096,0
74.1606,-50.6732,-3.2806,0
74.1849,-50.5899,-3.28994,0
74.2073,-50.5062,-3.29898,0
74.2277,-50.4222,-3.30772,0
74.2462,-50.338,-3.31614,0
74.2628,-50.2536,-3.32427,0
74.2775,-50.1691,-3.33208,0
74.2903,-50.0844,-3.33958,0
74.3012,-49.9997,-3.34677,0
74.3103,-49.9149,-3.35364,0
74.3175,-49.8302,-3.36021,0
74.3228,-49.7455,-3.36645,0
74.3262,-49.6609,-3.37238,0
74.3279,-49.5765,-3.378,0
74.3277,-49.4922,-3.38329,0
74.3257,-49.4082,-3.38827,0
74.3219,-49.3244,-3.39293,0
74.3162,-49.2409,-3.39727,0
74.3089,-49.1577,-3.4013,0
74.2998,-49.0749,-3.40501,0
74.2889,-48.9925,-3.4084,0
74.2792,-48.9102,-3.41097,0
74.2707,-48.8281,-3.41273,0
74.2606,-48.7462,-3.41417,0
74.2487,-48.6645,-3.41528,0
74.2354,-48.5832,-3.41608,0
74.2202,-48.5021,-3.41654,0
74.2035,-48.4214,-3.4167,0
74.1926,-48.3394,-3.41523,0
74.1808,-48.2573,-3.41326,0
74.1673,-48.1752,-3.41098,0
74.1522,-48.0932,-3.40836,0
74.1353,-48.0114,-3.40542,0
74.1168,-47.9297,-3.40215,0
74.0964,-47.8482,-3.39855,0
74.0744,-47.767,-3.39463,0
74.0505,-47.686,-3.39037,0
74.025,-47.6054,-3.38577,0
73.9978,-47.5251,-3.38085,0
73.9688,-47.4452,-3.3756,0
73.9379,-47.3657,-3.37001,0
73.9055,-47.2866,-3.36409,0
73.8712,-47.2081,-3.35784,0
73.8352,-47.1301,-3.35125,0
73.7974,-47.0527,-3.34434,0
73.7574,-46.9762,-3.33719,0
73.7145,-46.9013,-3.33002,0
73.6698,-46.8272,-3.32253,0
73.6234,-46.7539,-3.31471,0
73.5753,-46.6815,-3.30658,0
73.5255,-46.61,-3.29814,0
73.4741,-46.5394,-3.28938,0
73.4212,-46.4699,-3.28031,0
73.3665,-46.4013,-3.27093,0
73.3102,-46.3339,-3.26125,0
73.2523,-46.2675,-3.25126,0
73.1928,-46.2023,-3.24097,0
72.3391,-53.2716,-2.71321,0
72.4266,-53.2211,-2.7327,0
72.5116,-53.1669,-2.7526,0
72.5948,-53.1105,-2.77243,0
72.6762,-53.052,-2.79219,0
72.7557,-52.9915,-2.81183,0
72.8333,-52.929,-2.83134,0
72.9088,-52.8646,-2.85072,0
72.9823,-52.7985,-2.86995,0
73.0539,-52.7306,-2.88902,0
73.1233,-52.661,-2.9079,0
73.1905,-52.5899,-2.9266,0
73.2557,-52.5174,-2.94509,0
73.3186,-52.4434,-2.96337,0
73.3794,-52.368,-2.98141,0
73.438,-52.2915,-2.99922,0
73.4944,-52.2137,-3.01677,0
73.5485,-52.1349,-3.03408,0
73.6004,-52.055,-3.05111,0
73.6501,-51.9742,-3.06786,0
73.6975,-51.8926,-3.08433,0
73.7427,-51.8101,-3.10051,0
73.7856,-51.7269,-3.11638,0
73.8262,-51.6431,-3.13195,0
73.8647,-51.5586,-3.14721,0
73.901,-51.4737,-3.16215,0
73.935,-51.3883,-3.17676,0
73.9669,-51.3025,-3.19105,0
73.9965,-51.2164,-3.205,0
74.024,-51.13,-3.21862,0
74.0493,-51.0434,-3.23191,0
74.0724,-50.9567,-3.24484,0
74.0949,-50.8705,-3.25711,0
74.1237,-50.7882,-3.26716,0
74.1508,-50.7053,-3.27691,0
74.1757,-50.6221,-3.28636,0
74.1989,-50.5386,-3.29552,0
74.2201,-50.4547,-3.30438,0
74.2393,-50.3706,-3.31293,0
74.2566,-50.2862,-3.32116,0
74.2721,-50.2017,-3.3291,0
74.2856,-50.1171,-3.33672,0
74.2973,-50.0324,-3.34403,0
74.307,-49.9477,-3.35102,0
74.3149,-49.8629,-3.3577,0
74.3209,-49.7782,-3.36407,0
74.3252,-49.6936,-3.37012,0
74.3275,-49.6091,-3.37586,0
74.328,-49.5248,-3.38128,0
74.3266,-49.4407,-3.38637,0
74.3236,-49.3568,-3.39116,0
74.3186,-49.2731,-3.39563,0
74.312,-49.1898,-3.39978,0
74.3035,-49.1068,-3.40361,0
74.2934,-49.0243,-3.40713,0
74.2821,-48.942,-3.4102,0
74.2743,-48.8598,-3.41208,0
74.2647,-48.7778,-3.41365,0
74.2535,-48.6961,-3.41489,0
74.2407,-48.6146,-3.41581,0
74.2262,-48.5334,-3.4164,0
74.2102,-48.4526,-3.41668,0
74.1966,-48.3712,-3.4159,0
74.1855,-48.289,-3.41406,0
74.1728,-48.2069,-3.4119,0
74.1583,-48.1249,-3.40941,0
74.1421,-48.043,-3.40659,0
74.1241,-47.9612,-3.40345,0
74.1045,-47.8797,-3.39998,0
74.0831,-47.7983,-3.39618,0
74.06,-47.7173,-3.39205,0
74.0351,-47.6365,-3.38759,0
74.0085,-47.5561,-3.38279,0
73.9802,-47.476,-3.37766,0
73.9501,-47.3963,-3.37221,0
73.9183,-47.3171,-3.36642,0
73.8846,-47.2384,-3.36029,0
73.8493,-47.1602,-3.35384,0
73.8123,-47.0825,-3.34705,0
73.7734,-47.0055,-3.33992,0
73.7312,-46.9301,-3.33282,0
73.6873,-46.8557,-3.32546,0
73.6415,-46.7821,-3.31777,0
73.5941,-46.7094,-3.30976,0
73.545,-46.6375,-3.30144,0
73.4942,-46.5666,-3.2928,0
73.4418,-46.4966,-3.28385,0
73.3877,-46.4277,-3.27459,0
73.3321,-46.3598,-3.26503,0
73.2748,-46.293,-3.25517,0
73.2159,-46.2274,-3.24498,0
72.3932,-53.2414,-2.72499,0
72.4789,-53.1881,-2.74492,0
72.5628,-53.1325,-2.76479,0
72.645,-53.0748,-2.78456,0
72.7252,-53.0151,-2.80425,0
72.8035,-52.9534,-2.82382,0
72.8799,-52.8897,-2.84325,0
72.9542,-52.8242,-2.86254,0
73.0265,-52.757,-2.88167,0
73.0967,-52.6881,-2.90062,0
73.1648,-52.6176,-2.9194,0
73.2308,-52.5456,-2.93797,0
73.2946,-52.4721,-2.95633,0
73.3562,-52.3973,-2.97446,0
73.4156,-52.3212,-2.99236,0
73.4729,-52.2439,-3.01002,0
73.5278,-52.1655,-3.02742,0
73.5806,-52.086,-3.04456,0
73.6312,-52.0056,-3.06142,0
73.6794,-51.9242,-3.078,0
73.7255,-51.8421,-3.09429,0
73.7693,-51.7591,-3.11029,0
73.8108,-51.6755,-3.12598,0
73.8502,-51.5913,-3.14135,0
73.8873,-51.5066,-3.15641,0
73.9221,-51.4213,-3.17116,0
73.9548,-51.3357,-3.18557,0
73.9853,-51.2497,-3.19966,0
74.0136,-51.1634,-3.21341,0
74.0397,-51.0769,-3.22681,0
74.0638,-50.9902,-3.23988,0
74.0856,-50.9034,-3.2526,0
74.1128,-50.8201,-3.26331,0
74.1406,-50.7374,-3.27318,0
74.1663,-50.6543,-3.28275,0
74.1902,-50.5709,-3.29202,0
74.212,-50.4871,-3.30099,0
74.232,-50.4031,-3.30966,0
74.2502,-50.3188,-3.31802,0
74.2663,-50.2344,-3.32607,0
74.2806,-50.1498,-3.33382,0
74.293,-50.0651,-3.34125,0
74.3034,-49.9804,-3.34836,0
74.3121,-49.8957,-3.35517,0
74.3188,-49.8109,-3.36165,0
74.3237,-49.7263,-3.36782,0
74.3267,-49.6418,-3.37367,0
74.328,-49.5573,-3.37923,0
74.3273,-49.4731,-3.38444,0
74.3249,-49.3891,-3.38935,0
74.3207,-49.3054,-3.39394,0
74.3148,-49.222,-3.39821,0
74.307,-49.1389,-3.40217,0
74.2975,-49.0561,-3.40581,0
74.2862,-48.9738,-3.40913,0
74.2775,-48.8916,-3.4114,0
74.2686,-48.8095,-3.41309,0
74.258,-48.7276,-3.41445,0
74.2459,-48.646,-3.41549,0
74.232,-48.5647,-3.41621,0
74.2166,-48.4838,-3.41661,0
74.2004,-48.403,-3.41653,0
74.19,-48.3208,-3.41481,0
74.1779,-48.2386,-3.41277,0
74.1641,-48.1566,-3.41042,0
74.1485,-48.0746,-3.40772,0
74.1312,-47.9928,-3.40471,0
74.1123,-47.9112,-3.40136,0
74.0916,-47.8298,-3.39769,0
74.0691,-47.7486,-3.39369,0
74.0449,-47.6677,-3.38935,0
74.019,-47.5871,-3.38468,0
73.9913,-47.5069,-3.37969,0
73.9619,-47.4271,-3.37436,0
73.9308,-47.3477,-3.3687,0
73.8978,-47.2688,-3.3627,0
73.8631,-47.1903,-3.35637,0
73.8267,-47.1125,-3.34972,0
73.7886,-47.0352,-3.34273,0
73.7479,-46.9591,-3.33559,0
73.7045,-46.8844,-3.32834,0
73.6594,-46.8105,-3.32077,0
73.6126,-46.7374,-3.31289,0
73.5642,-46.6652,-3.30469,0
73.5141,-46.5939,-3.29618,0
73.4623,-46.5235,-3.28735,0
73.4089,-46.4542,-3.2782,0
73.3538,-46.3859,-3.26876,0
73.2971,-46.3187,-3.25901,0
73.2389,-46.2526,-3.24896,0
73.1791,-46.1876,-3.2386,0
73.387,-52.1778,-3.00253,0
73.4413,-52.1021,-3.01953,0
73.4934,-52.0253,-3.03629,0
73.5435,-51.9476,-3.05279,0
73.5914,-51.869,-3.06902,0
73.6372,-51.7895,-3.08497,0
73.6807,-51.7093,-3.10064,0
73.722,-51.6283,-3.11603,0
73.7612,-51.5467,-3.13111,0
73.7984,-51.4646,-3.1459,0
73.8333,-51.382,-3.16037,0
73.866,-51.2989,-3.17453,0
73.8966,-51.2154,-3.18837,0
73.9251,-51.1316,-3.20189,0
73.9515,-51.0476,-3.21508,0
73.9759,-50.9634,-3.22794,0
73.9984,-50.8792,-3.24039,0
74.028,-50.7991,-3.25041,0
74.0557,-50.7186,-3.26014,0
74.0815,-50.6376,-3.26959,0
74.1054,-50.5562,-3.27874,0
74.1274,-50.4746,-3.28759,0
74.1476,-50.3926,-3.29615,0
74.1659,-50.3104,-3.30443,0
74.1823,-50.228,-3.31239,0
74.197,-50.1454,-3.32006,0
74.2096,-50.0628,-3.32741,0
74.2205,-49.98,-3.33447,0
74.2295,-49.8973,-3.34121,0
74.2367,-49.8145,-3.34765,0
74.2421,-49.7318,-3.3538,0
74.2457,-49.6491,-3.35962,0
74.2474,-49.5666,-3.36513,0
74.2474,-49.4842,-3.37034,0
74.2456,-49.4021,-3.37524,0
74.2421,-49.3202,-3.37982,0
74.2368,-49.2385,-3.38411,0
74.2298,-49.1572,-3.38807,0
74.221,-49.0762,-3.39172,0
74.2123,-48.9955,-3.39476,0
74.2056,-48.9149,-3.39681,0
74.1973,-48.8345,-3.39853,0
74.1874,-48.7543,-3.39995,0
74.1759,-48.6743,-3.40105,0
74.1627,-48.5946,-3.40184,0
74.148,-48.5153,-3.4023,0
74.1317,-48.4363,-3.40245,0
74.1192,-48.3563,-3.40127,0
74.1076,-48.276,-3.39932,0
74.0943,-48.1957,-3.39705,0
74.0793,-48.1155,-3.39446,0
74.0627,-48.0355,-3.39155,0
74.0443,-47.9556,-3.38832,0
74.0242,-47.876,-3.38476,0
74.0025,-47.7965,-3.38089,0
73.979,-47.7174,-3.3767,0
73.9539,-47.6386,-3.37216,0
73.927,-47.5601,-3.36732,0
73.8984,-47.4821,-3.36215,0
73.8682,-47.4044,-3.35665,0
73.8362,-47.3272,-3.35082,0
73.8025,-47.2505,-3.34467,0
73.7671,-47.1743,-3.3382,0
73.73,-47.0987,-3.3314,0
73.6904,-47.0242,-3.32445,0
73.6483,-46.9511,-3.3174,0
73.6044,-46.8788,-3.31004,0
73.5589,-46.8073,-3.30237,0
73.5118,-46.7366,-3.2944,0
73.463,-46.6669,-3.28612,0
73.4127,-46.598,-3.27754,0
73.3606,-46.5302,-3.26865,0
73.3071,-46.4633,-3.25945,0
73.2519,-46.3976,-3.24996,0
73.1952,-46.3329,-3.24017,0
73.137,-46.2693,-3.23008,0
72.2909,-53.1482,-2.71954,0
72.3783,-53.1046,-2.73675,0
72.4611,-53.0524,-2.75607,0
72.5421,-52.998,-2.77534,0
72.6214,-52.9416,-2.79452,0
72.6989,-52.8832,-2.8136,0
72.7745,-52.8229,-2.83257,0
72.8482,-52.7608,-2.85139,0
72.92,-52.6969,-2.87009,0
72.9898,-52.6313,-2.88863,0
73.0575,-52.5641,-2.907,0
73.1233,-52.4954,-2.92519,0
73.1869,-52.4252,-2.94318,0
73.2485,-52.3537,-2.96096,0
73.308,-52.2808,-2.97854,0
73.3653,-52.2067,-2.99588,0
73.4205,-52.1315,-3.01298,0
73.4736,-52.0551,-3.02985,0
73.5245,-51.9778,-3.04645,0
73.5731,-51.8995,-3.06278,0
73.6198,-51.8203,-3.07885,0
73.6641,-51.7404,-3.09463,0
73.7064,-51.6597,-3.11012,0
73.7464,-51.5783,-3.12532,0
73.7843,-51.4964,-3.14022,0
73.82,-51.414,-3.15481,0
73.8536,-51.331,-3.16909,0
73.885,-51.2477,-3.18306,0
73.9143,-51.164,-3.19671,0
73.9416,-51.0801,-3.21003,0
73.9666,-50.9959,-3.22301,0
73.9897,-50.9116,-3.23567,0
74.0168,-50.8301,-3.24656,0
74.0452,-50.7497,-3.25641,0
74.0717,-50.6689,-3.26598,0
74.0963,-50.5877,-3.27524,0
74.1191,-50.5062,-3.28421,0
74.14,-50.4243,-3.29288,0
74.1591,-50.3422,-3.30127,0
74.1762,-50.2599,-3.30935,0
74.1915,-50.1774,-3.31713,0
74.2049,-50.0947,-3.32461,0
74.2165,-50.012,-3.33178,0
74.2262,-49.9292,-3.33864,0
74.2341,-49.8465,-3.34521,0
74.2402,-49.7637,-3.35146,0
74.2445,-49.681,-3.35741,0
74.2469,-49.5985,-3.36304,0
74.2477,-49.5161,-3.36837,0
74.2466,-49.4338,-3.37338,0
74.2437,-49.3518,-3.37809,0
74.2391,-49.2701,-3.38249,0
74.2327,-49.1886,-3.38657,0
74.2246,-49.1075,-3.39035,0
74.2148,-49.0267,-3.39381,0
74.2084,-48.946,-3.39605,0
74.2008,-48.8655,-3.39791,0
74.1914,-48.7852,-3.39944,0
74.1805,-48.7052,-3.40066,0
74.168,-48.6254,-3.40156,0
74.1538,-48.5459,-3.40216,0
74.1382,-48.4668,-3.40243,0
74.1233,-48.3874,-3.40194,0
74.1123,-48.307,-3.40011,0
74.0997,-48.2267,-3.39796,0
74.0853,-48.1465,-3.3955,0
74.0693,-48.0664,-3.39272,0
74.0516,-47.9864,-3.38961,0
74.0322,-47.9067,-3.38617,0
74.0111,-47.8272,-3.38242,0
73.9883,-47.748,-3.37835,0
73.9637,-47.669,-3.37396,0
73.9377,-47.5904,-3.36923,0
73.9097,-47.5122,-3.36418,0
73.8801,-47.4344,-3.35881,0
73.8487,-47.357,-3.35311,0
73.8157,-47.2801,-3.34709,0
73.7809,-47.2037,-3.34074,0
73.7445,-47.1279,-3.33406,0
73.7063,-47.0527,-3.32708,0
73.6648,-46.9793,-3.32016,0
73.6216,-46.9067,-3.31293,0
73.5767,-46.8348,-3.30538,0
73.5302,-46.7638,-3.29753,0
73.4821,-46.6937,-3.28936,0
73.4323,-46.6245,-3.28089,0
73.3809,-46.5563,-3.27212,0
73.328,-46.489,-3.26304,0
73.2734,-46.4229,-3.25366,0
73.2173,-46.3577,-3.24399,0
73.1596,-46.2937,-3.23402,0
72.3455,-53.1235,-2.72952,0
72.4292,-53.0728,-2.74862,0
72.5109,-53.0193,-2.76791,0
72.5909,-52.9637,-2.78712,0
72.6691,-52.906,-2.80624,0
72.7455,-52.8465,-2.82525,0
72.8199,-52.785,-2.84414,0
72.8925,-52.7218,-2.86289,0
72.963,-52.6569,-2.88148,0
73.0316,-52.5903,-2.89992,0
73.0981,-52.5222,-2.91818,0
73.1626,-52.4525,-2.93625,0
73.225,-52.3815,-2.95412,0
73.2852,-52.3091,-2.97177,0
73.3434,-52.2355,-2.98921,0
73.3995,-52.1607,-3.0064,0
73.4534,-52.0847,-3.02336,0
73.5051,-52.0078,-3.04006,0
73.5546,-51.9298,-3.0565,0
73.602,-51.851,-3.07267,0
73.6472,-51.7714,-3.08856,0
73.6903,-51.6909,-3.10417,0
73.7312,-51.6098,-3.11948,0
73.7698,-51.5281,-3.13449,0
73.8064,-51.4459,-3.14921,0
73.8409,-51.3631,-3.16361,0
73.8731,-51.2799,-3.1777,0
73.9033,-51.1964,-3.19147,0
73.9313,-51.1126,-3.20492,0
73.9573,-51.0285,-3.21804,0
73.9811,-50.9442,-3.23083,0
74.0053,-50.861,-3.24269,0
74.0345,-50.7808,-3.25265,0
74.0617,-50.7002,-3.26232,0
74.087,-50.6191,-3.2717,0
74.1105,-50.5377,-3.28078,0
74.1322,-50.456,-3.28957,0
74.1519,-50.374,-3.29807,0
74.1698,-50.2917,-3.30626,0
74.1858,-50.2093,-3.31416,0
74.1999,-50.1267,-3.32175,0
74.2122,-50.044,-3.32904,0
74.2227,-49.9612,-3.33603,0
74.2313,-49.8785,-3.34271,0
74.238,-49.7957,-3.34908,0
74.243,-49.713,-3.35514,0
74.2462,-49.6304,-3.3609,0
74.2476,-49.5479,-3.36634,0
74.2472,-49.4656,-3.37148,0
74.245,-49.3835,-3.37631,0
74.241,-49.3016,-3.38082,0
74.2354,-49.22,-3.38503,0
74.228,-49.1388,-3.38892,0
74.2188,-49.0579,-3.39252,0
74.2109,-48.9772,-3.39525,0
74.2039,-48.8966,-3.39723,0
74.1952,-48.8162,-3.39889,0
74.1849,-48.7361,-3.40023,0
74.173,-48.6562,-3.40126,0
74.1595,-48.5766,-3.40197,0
74.1445,-48.4973,-3.40236,0
74.1277,-48.4184,-3.40244,0
74.1168,-48.3381,-3.40086,0
74.1047,-48.2577,-3.39883,0
74.0911,-48.1775,-3.39649,0
74.0757,-48.0973,-3.39383,0
74.0587,-48.0173,-3.39085,0
74.0398,-47.9375,-3.38754,0
74.0195,-47.8579,-3.38392,0
73.9973,-47.7785,-3.37997,0
73.9734,-47.6995,-3.3757,0
73.948,-47.6208,-3.37109,0
73.9206,-47.5424,-3.36617,0
73.8917,-47.4644,-3.36092,0
73.861,-47.3868,-3.35535,0
73.8287,-47.3097,-3.34945,0
73.7946,-47.2331,-3.34323,0
73.7588,-47.1571,-3.33668,0
73.7213,-47.0816,-3.32981,0
73.681,-47.0076,-3.32287,0
73.6384,-46.9346,-3.31576,0
73.5942,-46.8625,-3.30833,0
73.5484,-46.7912,-3.3006,0
73.5009,-46.7207,-3.29255,0
73.4517,-46.6512,-3.2842,0
73.4009,-46.5825,-3.27554,0
73.3486,-46.5149,-3.26658,0
73.2947,-46.4483,-3.25732,0
73.2391,-46.3828,-3.24777,0
73.1821,-46.3183,-3.23791,0
73.1235,-46.255,-3.22776,0
73.3173,-52.098,-2.99918,0
73.3705,-52.0246,-3.01575,0
73.4217,-51.9502,-3.0321,0
73.4709,-51.8749,-3.04819,0
73.5178,-51.7986,-3.06403,0
73.5627,-51.7215,-3.07959,0
73.6055,-51.6437,-3.09489,0
73.6462,-51.5651,-3.10991,0
73.6848,-51.4859,-3.12465,0
73.7213,-51.4061,-3.13909,0
73.7558,-51.3258,-3.15324,0
73.7881,-51.2451,-3.16708,0
73.8184,-51.164,-3.18062,0
73.8466,-51.0825,-3.19384,0
73.8727,-51.0008,-3.20675,0
73.8969,-50.9189,-3.21935,0
73.9238,-50.8392,-3.23041,0
73.9529,-50.761,-3.24023,0
73.9802,-50.6824,-3.24977,0
74.0055,-50.6034,-3.25902,0
74.0291,-50.524,-3.26799,0
74.0508,-50.4443,-3.27667,0
74.0707,-50.3642,-3.28507,0
74.0888,-50.2839,-3.29318,0
74.105,-50.2034,-3.30099,0
74.1195,-50.1228,-3.30851,0
74.1321,-50.042,-3.31573,0
74.1429,-49.9612,-3.32266,0
74.1519,-49.8803,-3.32928,0
74.1591,-49.7994,-3.33561,0
74.1645,-49.7185,-3.34164,0
74.1683,-49.6378,-3.34736,0
74.1702,-49.5571,-3.35278,0
74.1703,-49.4766,-3.35791,0
74.1687,-49.3962,-3.36272,0
74.1655,-49.3161,-3.36724,0
74.1604,-49.2363,-3.37145,0
74.1537,-49.1567,-3.37535,0
74.1461,-49.0775,-3.37882,0
74.1412,-48.9984,-3.38114,0
74.1346,-48.9194,-3.38316,0
74.1266,-48.8406,-3.38486,0
74.117,-48.762,-3.38625,0
74.1056,-48.6837,-3.38733,0
74.0928,-48.6057,-3.38811,0
74.0784,-48.528,-3.38856,0
74.0624,-48.4505,-3.38871,0
74.0486,-48.3726,-3.38783,0
74.0372,-48.294,-3.38589,0
74.024,-48.2154,-3.38364,0
74.0091,-48.137,-3.38107,0
73.9927,-48.0587,-3.3782,0
73.9746,-47.9805,-3.37501,0
73.9548,-47.9026,-3.37151,0
73.9334,-47.825,-3.36767,0
73.9102,-47.7476,-3.36353,0
73.8854,-47.6706,-3.35908,0
73.859,-47.5938,-3.3543,0
73.8309,-47.5175,-3.3492,0
73.801,-47.4416,-3.34379,0
73.7695,-47.3662,-3.33806,0
73.7365,-47.2912,-3.33201,0
73.7016,-47.2168,-3.32565,0
73.6652,-47.143,-3.31896,0
73.626,-47.0704,-3.31219,0
73.5846,-46.999,-3.30528,0
73.5416,-46.9284,-3.29806,0
73.497,-46.8586,-3.29054,0
73.4508,-46.7896,-3.28272,0
73.4029,-46.7215,-3.27459,0
73.3535,-46.6543,-3.26616,0
73.3026,-46.5881,-3.25744,0
73.25,-46.5229,-3.24843,0
73.1959,-46.4587,-3.23913,0
73.1404,-46.3956,-3.22953,0
73.0833,-46.3336,-3.21965,0
72.2455,-53.0315,-2.72552,0
72.3315,-52.992,-2.74134,0
72.4131,-52.9437,-2.75938,0
72.492,-52.8913,-2.77809,0
72.5694,-52.8368,-2.79674,0
72.6449,-52.7804,-2.81528,0
72.7187,-52.7222,-2.83372,0
72.7906,-52.6621,-2.85204,0
72.8607,-52.6004,-2.87022,0
72.9288,-52.537,-2.88826,0
72.995,-52.472,-2.90613,0
73.0593,-52.4055,-2.92384,0
73.1216,-52.3376,-2.94136,0
73.1818,-52.2683,-2.95869,0
73.24,-52.1978,-2.97581,0
73.2961,-52.126,-2.9927,0
73.3502,-52.0531,-3.00937,0
73.4022,-51.9791,-3.02581,0
73.4521,-51.9041,-3.042,0
73.4999,-51.8282,-3.05794,0
73.5456,-51.7514,-3.07361,0
73.5892,-51.6739,-3.08902,0
73.6308,-51.5956,-3.10414,0
73.6702,-51.5166,-3.11899,0
73.7074,-51.437,-3.13354,0
73.7427,-51.3569,-3.1478,0
73.7759,-51.2764,-3.16176,0
73.8069,-51.1954,-3.17543,0
73.8359,-51.114,-3.18877,0
73.8628,-51.0324,-3.2018,0
73.8877,-50.9505,-3.21452,0
73.912,-50.8693,-3.22655,0
73.9419,-50.7913,-3.23647,0
73.9698,-50.7129,-3.24611,0
73.9959,-50.634,-3.25548,0
74.0202,-50.5547,-3.26456,0
74.0427,-50.4751,-3.27336,0
74.0632,-50.3952,-3.28186,0
74.082,-50.315,-3.29008,0
74.099,-50.2346,-3.298,0
74.1141,-50.154,-3.30564,0
74.1274,-50.0732,-3.31298,0
74.1389,-49.9924,-3.32002,0
74.1487,-49.9115,-3.32676,0
74.1566,-49.8307,-3.3332,0
74.1627,-49.7498,-3.33934,0
74.167,-49.669,-3.34518,0
74.1696,-49.5882,-3.35072,0
74.1705,-49.5077,-3.35596,0
74.1695,-49.4273,-3.3609,0
74.1669,-49.3471,-3.36553,0
74.1626,-49.2671,-3.36985,0
74.1565,-49.1874,-3.37388,0
74.1488,-49.1081,-3.3776,0
74.1432,-49.0289,-3.38028,0
74.1373,-48.9499,-3.38242,0
74.1299,-48.871,-3.38424,0
74.1209,-48.7924,-3.38575,0
74.1102,-48.714,-3.38695,0
74.0979,-48.6358,-3.38784,0
74.0841,-48.558,-3.38842,0
74.0687,-48.4804,-3.38869,0
74.0527,-48.403,-3.38849,0
74.0417,-48.3244,-3.38668,0
74.0292,-48.2458,-3.38454,0
74.0151,-48.1673,-3.3821,0
73.9992,-48.0889,-3.37934,0
73.9817,-48.0107,-3.37628,0
73.9626,-47.9327,-3.37289,0
73.9418,-47.855,-3.36919,0
73.9193,-47.7775,-3.36517,0
73.8952,-47.7003,-3.36084,0
73.8694,-47.6234,-3.35618,0
73.8419,-47.547,-3.35122,0
73.8127,-47.4709,-3.34592,0
73.782,-47.3953,-3.34031,0
73.7495,-47.3201,-3.33439,0
73.7153,-47.2455,-3.32815,0
73.6795,-47.1715,-3.32158,0
73.6416,-47.0982,-3.31478,0
73.6009,-47.0265,-3.30799,0
73.5584,-46.9556,-3.30089,0
73.5145,-46.8855,-3.29347,0
73.4688,-46.8161,-3.28577,0
73.4216,-46.7477,-3.27776,0
73.3728,-46.6802,-3.26945,0
73.3225,-46.6136,-3.26084,0
73.2705,-46.548,-3.25194,0
73.217,-46.4834,-3.24276,0
73.162,-46.4199,-3.23327,0
73.1055,-46.3575,-3.22349,0
72.2984,-53.0075,-2.73522,0
72.3821,-52.9634,-2.75214,0
72.4617,-52.9118,-2.77088,0
72.5397,-52.8581,-2.78954,0
72.6159,-52.8024,-2.80813,0
72.6904,-52.7449,-2.82661,0
72.763,-52.6855,-2.84498,0
72.8338,-52.6244,-2.86321,0
72.9027,-52.5617,-2.88131,0
72.9697,-52.4973,-2.89925,0
73.0347,-52.4314,-2.91702,0
73.0977,-52.364,-2.93461,0
73.1587,-52.2953,-2.95201,0
73.2177,-52.2252,-2.96921,0
73.2747,-52.1539,-2.98619,0
73.3295,-52.0814,-3.00296,0
73.3823,-52.0078,-3.01949,0
73.433,-51.9332,-3.03577,0
73.4817,-51.8577,-3.0518,0
73.5282,-51.7812,-3.06758,0
73.5727,-51.7039,-3.08309,0
73.6149,-51.6259,-3.09834,0
73.6552,-51.5472,-3.11328,0
73.6934,-51.4678,-3.12795,0
73.7293,-51.3879,-3.14233,0
73.7633,-51.3075,-3.15641,0
73.7952,-51.2267,-3.17019,0
73.8249,-51.1455,-3.18365,0
73.8527,-51.064,-3.1968,0
73.8784,-50.9822,-3.20964,0
73.902,-50.9002,-3.22216,0
73.9306,-50.8215,-3.23267,0
73.9593,-50.7432,-3.24242,0
73.986,-50.6645,-3.25189,0
74.0111,-50.5854,-3.26108,0
74.0342,-50.5059,-3.26998,0
74.0555,-50.4261,-3.27861,0
74.075,-50.346,-3.28694,0
74.0927,-50.2657,-3.29497,0
74.1084,-50.1851,-3.30273,0
74.1225,-50.1045,-3.31018,0
74.1347,-50.0237,-3.31733,0
74.1452,-49.9428,-3.32419,0
74.1537,-49.8619,-3.33074,0
74.1605,-49.781,-3.33701,0
74.1655,-49.7002,-3.34296,0
74.1688,-49.6194,-3.34862,0
74.1704,-49.5388,-3.35398,0
74.1702,-49.4583,-3.35902,0
74.1681,-49.378,-3.36378,0
74.1645,-49.298,-3.36822,0
74.1591,-49.2182,-3.37236,0
74.152,-49.1387,-3.3762,0
74.1452,-49.0595,-3.37938,0
74.1398,-48.9804,-3.38162,0
74.133,-48.9015,-3.38357,0
74.1245,-48.8227,-3.3852,0
74.1145,-48.7442,-3.38653,0
74.1028,-48.666,-3.38754,0
74.0896,-48.588,-3.38824,0
74.0748,-48.5103,-3.38863,0
74.0586,-48.433,-3.38871,0
74.0462,-48.3548,-3.38741,0
74.0343,-48.2761,-3.3854,0
74.0207,-48.1976,-3.38308,0
74.0055,-48.1192,-3.38045,0
73.9887,-48.0409,-3.3775,0
73.9702,-47.9628,-3.37424,0
73.9501,-47.885,-3.37066,0
73.9282,-47.8074,-3.36677,0
73.9047,-47.7301,-3.36256,0
73.8796,-47.6531,-3.35801,0
73.8527,-47.5765,-3.35317,0
73.8242,-47.5003,-3.348,0
73.7941,-47.4245,-3.34252,0
73.7622,-47.3491,-3.33671,0
73.7287,-47.2743,-3.3306,0
73.6935,-47.2,-3.32415,0
73.6566,-47.1263,-3.31739,0
73.6167,-47.0541,-3.31065,0
73.5751,-46.9829,-3.30366,0
73.5316,-46.9125,-3.29638,0
73.4866,-46.8428,-3.28878,0
73.44,-46.774,-3.28089,0
73.3918,-46.7062,-3.2727,0
73.3421,-46.6392,-3.26421,0
73.2908,-46.5732,-3.25543,0
73.2379,-46.5082,-3.24634,0
73.1835,-46.4443,-3.23696,0
73.1276,-46.3815,-3.2273,0
73.0701,-46.3197,-3.21736,0
73.2509,-52.0219,-2.99598,0
73.303,-51.9508,-3.01216,0
73.3532,-51.8786,-3.02809,0
73.4014,-51.8055,-3.0438,0
73.4476,-51.7315,-3.05926,0
73.4916,-51.6567,-3.07446,0
73.5337,-51.5811,-3.0894,0
73.5737,-51.5047,-3.10407,0
73.6118,-51.4278,-3.11847,0
73.6477,-51.3503,-3.13258,0
73.6816,-51.2722,-3.14641,0
73.7135,-51.1937,-3.15996,0
73.7435,-51.1148,-3.1732,0
73.7714,-51.0356,-3.18614,0
73.7973,-50.956,-3.19879,0
73.8218,-50.8766,-3.21095,0
73.8522,-50.8008,-3.22084,0
73.8808,-50.7245,-3.23046,0
73.9077,-50.6478,-3.2398,0
73.9326,-50.5706,-3.24888,0
73.9558,-50.493,-3.25767,0
73.9772,-50.4151,-3.26619,0
73.9969,-50.3369,-3.27442,0
74.0147,-50.2585,-3.28238,0
74.0308,-50.1799,-3.29004,0
74.0451,-50.101,-3.29742,0
74.0576,-50.0221,-3.30451,0
74.0684,-49.9431,-3.31131,0
74.0773,-49.864,-3.31782,0
74.0846,-49.7849,-3.32403,0
74.0901,-49.7058,-3.32995,0
74.0938,-49.6268,-3.33558,0
74.0959,-49.5479,-3.34091,0
74.0962,-49.4692,-3.34594,0
74.0948,-49.3906,-3.35069,0
74.0917,-49.3122,-3.35513,0
74.087,-49.2341,-3.35927,0
74.0805,-49.1563,-3.36312,0
74.0773,-49.0786,-3.36573,0
74.0726,-49.0011,-3.36801,0
74.0662,-48.9237,-3.37,0
74.0584,-48.8465,-3.37167,0
74.0489,-48.7695,-3.37304,0
74.0379,-48.6928,-3.37411,0
74.0253,-48.6163,-3.37486,0
74.0112,-48.5402,-3.37532,0
73.9956,-48.4643,-3.37547,0
73.9806,-48.3883,-3.37487,0
73.9692,-48.3113,-3.37295,0
73.9562,-48.2344,-3.37072,0
73.9416,-48.1576,-3.36818,0
73.9252,-48.081,-3.36533,0
73.9074,-48.0046,-3.36219,0
73.8879,-47.9283,-3.35872,0
73.8666,-47.8524,-3.35495,0
73.8439,-47.7767,-3.35087,0
73.8195,-47.7013,-3.34647,0
73.7934,-47.6263,-3.34176,0
73.7657,-47.5517,-3.33675,0
73.7364,-47.4775,-3.33141,0
73.7055,-47.4037,-3.32577,0
73.6728,-47.3305,-3.31982,0
73.6387,-47.2577,-3.31356,0
73.6028,-47.1856,-3.30698,0
73.5641,-47.1149,-3.30042,0
73.5234,-47.0451,-3.29362,0
73.4812,-46.9761,-3.28653,0
73.4374,-46.9079,-3.27914,0
73.392,-46.8405,-3.27146,0
73.3452,-46.774,-3.26349,0
73.2967,-46.7084,-3.25523,0
73.2467,-46.6438,-3.24667,0
73.1952,-46.5801,-3.23783,0
73.1422,-46.5175,-3.2287,0
73.0877,-46.4559,-3.21929,0
73.0318,-46.3954,-3.20961,0
72.2023,-52.9209,-2.73119,0
72.2859,-52.8826,-2.74655,0
72.3675,-52.8404,-2.76252,0
72.4445,-52.7897,-2.78072,0
72.5198,-52.7371,-2.79884,0
72.5936,-52.6826,-2.81689,0
72.6656,-52.6263,-2.83483,0
72.7358,-52.5682,-2.85265,0
72.8042,-52.5085,-2.87036,0
72.8708,-52.4471,-2.88792,0
72.9355,-52.3842,-2.90532,0
72.9984,-52.3199,-2.92257,0
73.0592,-52.2541,-2.93963,0
73.1181,-52.187,-2.95651,0
73.1752,-52.1186,-2.97319,0
73.2301,-52.0491,-2.98967,0
73.2831,-51.9784,-3.00593,0
73.3341,-51.9066,-3.02196,0
73.383,-51.8339,-3.03776,0
73.43,-51.7602,-3.05331,0
73.4748,-51.6857,-3.06861,0
73.5177,-51.6104,-3.08366,0
73.5585,-51.5343,-3.09843,0
73.5973,-51.4576,-3.11294,0
73.6341,-51.3803,-3.12716,0
73.6688,-51.3024,-3.14111,0
73.7015,-51.2241,-3.15476,0
73.7322,-51.1453,-3.16812,0
73.7609,-51.0662,-3.18118,0
73.7875,-50.9868,-3.19394,0
73.8122,-50.9071,-3.20639,0
73.8407,-50.8302,-3.21705,0
73.8699,-50.7541,-3.22677,0
73.8974,-50.6775,-3.23622,0
73.9231,-50.6004,-3.2454,0
73.947,-50.523,-3.25431,0
73.9691,-50.4453,-3.26293,0
73.9895,-50.3672,-3.27127,0
74.008,-50.2888,-3.27933,0
74.0248,-50.2103,-3.28711,0
74.0398,-50.1315,-3.2946,0
74.053,-50.0526,-3.30181,0
74.0644,-49.9736,-3.30872,0
74.074,-49.8945,-3.31533,0
74.082,-49.8154,-3.32167,0
74.0881,-49.7364,-3.3277,0
74.0926,-49.6573,-3.33344,0
74.0953,-49.5784,-3.33888,0
74.0962,-49.4996,-3.34403,0
74.0955,-49.4209,-3.34889,0
74.0931,-49.3425,-3.35344,0
74.089,-49.2643,-3.35771,0
74.0832,-49.1863,-3.36167,0
74.0787,-49.1086,-3.36476,0
74.0745,-49.031,-3.36716,0
74.0689,-48.9536,-3.36926,0
74.0616,-48.8763,-3.37106,0
74.0527,-48.7993,-3.37254,0
74.0423,-48.7224,-3.37373,0
74.0304,-48.6458,-3.37461,0
74.0169,-48.5696,-3.37518,0
74.0018,-48.4936,-3.37545,0
73.9852,-48.418,-3.37541,0
73.9738,-48.3411,-3.37373,0
73.9614,-48.2641,-3.37162,0
73.9473,-48.1873,-3.3692,0
73.9317,-48.1106,-3.36647,0
73.9145,-48.0341,-3.36344,0
73.8955,-47.9578,-3.36009,0
73.8751,-47.8817,-3.35644,0
73.8529,-47.8059,-3.35248,0
73.8291,-47.7304,-3.3482,0
73.8037,-47.6552,-3.34362,0
73.7766,-47.5805,-3.33872,0
73.7479,-47.5061,-3.33351,0
73.7177,-47.4322,-3.32799,0
73.6856,-47.3587,-3.32216,0
73.652,-47.2858,-3.31602,0
73.6168,-47.2134,-3.30957,0
73.5794,-47.142,-3.30295,0
73.5394,-47.072,-3.29628,0
73.4977,-47.0027,-3.28931,0
73.4545,-46.9341,-3.28204,0
73.4098,-46.8664,-3.27447,0
73.3635,-46.7996,-3.26661,0
73.3156,-46.7337,-3.25845,0
73.2663,-46.6686,-3.25002,0
73.2153,-46.6046,-3.24128,0
73.1629,-46.5416,-3.23227,0
73.1089,-46.4796,-3.22297,0
73.0536,-46.4187,-3.21338,0
72.2537,-52.8977,-2.74061,0
72.3365,-52.8579,-2.75603,0
72.4149,-52.8095,-2.77369,0
72.491,-52.7577,-2.79184,0
72.5653,-52.7039,-2.80993,0
72.638,-52.6483,-2.8279,0
72.7089,-52.5909,-2.84577,0
72.778,-52.5318,-2.86353,0
72.8453,-52.471,-2.88114,0
72.9107,-52.4087,-2.89861,0
72.9743,-52.3449,-2.91592,0
73.0359,-52.2797,-2.93305,0
73.0956,-52.2131,-2.95001,0
73.1534,-52.1452,-2.96677,0
73.2091,-52.0761,-2.98333,0
73.2628,-52.0058,-2.99967,0
73.3146,-51.9345,-3.0158,0
73.3644,-51.8621,-3.03169,0
73.4121,-51.7888,-3.04733,0
73.4578,-51.7146,-3.06273,0
73.5014,-51.6396,-3.07787,0
73.543,-51.5638,-3.09275,0
73.5826,-51.4873,-3.10737,0
73.6202,-51.4102,-3.1217,0
73.6556,-51.3326,-3.13575,0
73.6891,-51.2544,-3.14952,0
73.7205,-51.1758,-3.16299,0
73.75,-51.0968,-3.17617,0
73.7774,-51.0175,-3.18904,0
73.8029,-50.9379,-3.20162,0
73.8289,-50.8594,-3.21322,0
73.8588,-50.7835,-3.22304,0
73.887,-50.7071,-3.2326,0
73.9134,-50.6303,-3.24189,0
73.938,-50.553,-3.2509,0
73.9609,-50.4753,-3.25963,0
73.9819,-50.3974,-3.26808,0
74.0011,-50.3191,-3.27625,0
74.0185,-50.2407,-3.28414,0
74.0342,-50.162,-3.29174,0
74.048,-50.0831,-3.29905,0
74.0602,-50.0042,-3.30608,0
74.0705,-49.9251,-3.31281,0
74.0791,-49.846,-3.31925,0
74.0859,-49.7669,-3.3254,0
74.0911,-49.6879,-3.33126,0
74.0945,-49.6089,-3.33682,0
74.096,-49.53,-3.34208,0
74.096,-49.4513,-3.34705,0
74.0942,-49.3728,-3.35172,0
74.0909,-49.2945,-3.3561,0
74.0857,-49.2164,-3.36017,0
74.0799,-49.1386,-3.36376,0
74.0763,-49.061,-3.36627,0
74.0713,-48.9835,-3.36849,0
74.0646,-48.9062,-3.37041,0
74.0563,-48.829,-3.372,0
74.0465,-48.7521,-3.37331,0
74.0352,-48.6754,-3.3743,0
74.0222,-48.599,-3.37499,0
74.0078,-48.5229,-3.37539,0
73.9919,-48.4472,-3.37547,0
73.9782,-48.3708,-3.37446,0
73.9663,-48.2939,-3.37247,0
73.953,-48.217,-3.37017,0
73.938,-48.1402,-3.36757,0
73.9213,-48.0636,-3.36465,0
73.9031,-47.9872,-3.36142,0
73.8832,-47.9111,-3.35789,0
73.8616,-47.8352,-3.35405,0
73.8385,-47.7595,-3.34989,0
73.8138,-47.6843,-3.34542,0
73.7873,-47.6093,-3.34065,0
73.7592,-47.5348,-3.33556,0
73.7295,-47.4607,-3.33017,0
73.6982,-47.387,-3.32445,0
73.6652,-47.3139,-3.31842,0
73.6306,-47.2413,-3.3121,0
73.5945,-47.1693,-3.30546,0
73.555,-47.099,-3.29889,0
73.514,-47.0294,-3.29203,0
73.4715,-46.9605,-3.28488,0
73.4273,-46.8925,-3.27742,0
73.3816,-46.8253,-3.26968,0
73.3343,-46.759,-3.26164,0
73.2855,-46.6937,-3.25331,0
73.2352,-46.6292,-3.24469,0
73.1834,-46.5658,-3.23578,0
73.13,-46.5034,-3.22659,0
73.0752,-46.4421,-3.21712,0
73.0189,-46.3819,-3.20737,0
73.1874,-51.9492,-2.99294,0
73.2386,-51.8802,-3.00872,0
73.2879,-51.8102,-3.02427,0
73.3352,-51.7392,-3.03961,0
73.3805,-51.6673,-3.0547,0
73.4238,-51.5946,-3.06955,0
73.4652,-51.5212,-3.08415,0
73.5045,-51.447,-3.09849,0
73.542,-51.3722,-3.11256,0
73.5773,-51.2968,-3.12637,0
73.6108,-51.2209,-3.13989,0
73.6423,-51.1445,-3.15314,0
73.6718,-51.0677,-3.16611,0
73.6994,-50.9906,-3.17878,0
73.725,-50.9132,-3.19115,0
73.7535,-50.838,-3.20195,0
73.7834,-50.764,-3.21164,0
73.8115,-50.6894,-3.22107,0
73.8379,-50.6144,-3.23023,0
73.8625,-50.539,-3.23912,0
73.8854,-50.4632,-3.24775,0
73.9065,-50.3871,-3.2561,0
73.9259,-50.3107,-3.26418,0
73.9435,-50.234,-3.27198,0
73.9594,-50.1572,-3.27951,0
73.9735,-50.0801,-3.28675,0
73.9859,-50.0029,-3.29372,0
73.9966,-49.9256,-3.30039,0
74.0055,-49.8483,-3.30679,0
74.0128,-49.7709,-3.31289,0
74.0184,-49.6936,-3.31871,0
74.0222,-49.6163,-3.32424,0
74.0243,-49.5391,-3.32948,0
74.0248,-49.4621,-3.33444,0
74.0236,-49.3852,-3.33909,0
74.0208,-49.3085,-3.34347,0
74.0163,-49.232,-3.34756,0
74.014,-49.1558,-3.35055,0
74.011,-49.0797,-3.35309,0
74.0063,-49.0037,-3.35534,0
74.0002,-48.9279,-3.35729,0
73.9925,-48.8522,-3.35894,0
73.9832,-48.7768,-3.36029,0
73.9724,-48.7016,-3.36134,0
73.9602,-48.6266,-3.36209,0
73.9464,-48.552,-3.36254,0
73.9311,-48.4776,-3.36269,0
73.915,-48.4035,-3.36238,0
73.9037,-48.3281,-3.36047,0
73.8908,-48.2528,-3.35827,0
73.8763,-48.1776,-3.35575,0
73.8602,-48.1026,-3.35294,0
73.8427,-48.0277,-3.34982,0
73.8234,-47.9531,-3.34641,0
73.8024,-47.8788,-3.34269,0
73.7801,-47.8047,-3.33865,0
73.756,-47.731,-3.33432,0
73.7303,-47.6576,-3.32969,0
73.703,-47.5846,-3.32474,0
73.6742,-47.512,-3.31949,0
73.6437,-47.4399,-3.31394,0
73.6116,-47.3682,-3.30809,0
73.578,-47.2971,-3.30194,0
73.5427,-47.2266,-3.29546,0
73.5044,-47.1576,-3.28906,0
73.4646,-47.0894,-3.28239,0
73.4231,-47.022,-3.27543,0
73.3802,-46.9553,-3.26818,0
73.3356,-46.8895,-3.26065,0
73.2896,-46.8245,-3.25282,0
73.242,-46.7605,-3.2447,0
73.193,-46.6973,-3.23631,0
73.1425,-46.6352,-3.22764,0
73.0905,-46.574,-3.21869,0
73.0371,-46.5139,-3.20946,0
72.9823,-46.4549,-3.19996,0
72.1612,-52.8158,-2.73658,0
72.2426,-52.7787,-2.75151,0
72.3227,-52.7392,-2.76652,0
72.3992,-52.6931,-2.78321,0
72.4727,-52.6422,-2.80085,0
72.5448,-52.5894,-2.81841,0
72.615,-52.535,-2.83588,0
72.6836,-52.4788,-2.85324,0
72.7505,-52.4209,-2.87047,0
72.8155,-52.3615,-2.88757,0
72.8787,-52.3006,-2.90454,0
72.9402,-52.2382,-2.92134,0
72.9998,-52.1745,-2.93798,0
73.0574,-52.1094,-2.95444,0
73.1133,-52.0431,-2.9707,0
73.1672,-51.9756,-2.98678,0
73.2191,-51.907,-3.00264,0
73.2691,-51.8374,-3.01829,0
73.3171,-51.7668,-3.03371,0
73.3632,-51.6952,-3.04889,0
73.4073,-51.6228,-3.06384,0
73.4494,-51.5497,-3.07854,0
73.4895,-51.4757,-3.09298,0
73.5277,-51.4012,-3.10716,0
73.5639,-51.326,-3.12107,0
73.5981,-51.2503,-3.13469,0
73.6303,-51.1741,-3.14805,0
73.6606,-51.0974,-3.16113,0
73.689,-51.0204,-3.17391,0
73.7154,-50.9431,-3.1864,0
73.7415,-50.8664,-3.19814,0
73.772,-50.7926,-3.20793,0
73.8009,-50.7183,-3.21745,0
73.8279,-50.6435,-3.22672,0
73.8532,-50.5682,-3.23571,0
73.8768,-50.4926,-3.24445,0
73.8986,-50.4166,-3.25291,0
73.9186,-50.3403,-3.26109,0
73.9369,-50.2637,-3.269,0
73.9534,-50.1869,-3.27663,0
73.9682,-50.1099,-3.28399,0
73.9813,-50.0328,-3.29106,0
73.9927,-49.9555,-3.29784,0
74.0023,-49.8782,-3.30435,0
74.0102,-49.8008,-3.31056,0
74.0164,-49.7235,-3.3165,0
74.0209,-49.6462,-3.32214,0
74.0238,-49.5689,-3.32749,0
74.0248,-49.4918,-3.33256,0
74.0242,-49.4149,-3.33733,0
74.0221,-49.3381,-3.34181,0
74.0182,-49.2615,-3.34601,0
74.0148,-49.1852,-3.34948,0
74.0123,-49.1091,-3.35215,0
74.0083,-49.0331,-3.35451,0
74.0027,-48.9572,-3.35657,0
73.9956,-48.8814,-3.35834,0
73.987,-48.8059,-3.3598,0
73.9768,-48.7306,-3.36097,0
73.9652,-48.6556,-3.36183,0
73.9519,-48.5808,-3.3624,0
73.9372,-48.5063,-3.36266,0
73.9209,-48.4322,-3.36264,0
73.9083,-48.3572,-3.36124,0
73.896,-48.2819,-3.35915,0
73.8821,-48.2066,-3.35676,0
73.8666,-48.1315,-3.35406,0
73.8496,-48.0566,-3.35107,0
73.8309,-47.9819,-3.34777,0
73.8107,-47.9075,-3.34416,0
73.7889,-47.8333,-3.34025,0
73.7654,-47.7594,-3.33603,0
73.7404,-47.6859,-3.33152,0
73.7137,-47.6127,-3.32669,0
73.6855,-47.54,-3.32156,0
73.6556,-47.4677,-3.31613,0
73.6242,-47.3959,-3.31039,0
73.5912,-47.3246,-3.30435,0
73.5566,-47.2538,-3.298,0
73.5195,-47.1842,-3.29156,0
73.4802,-47.1157,-3.28501,0
73.4393,-47.048,-3.27817,0
73.3969,-46.981,-3.27102,0
73.353,-46.9148,-3.2636,0
73.3075,-46.8495,-3.25589,0
73.2605,-46.7851,-3.24788,0
73.2122,-46.7216,-3.23959,0
73.1622,-46.6591,-3.23103,0
73.1108,-46.5975,-3.22218,0
73.0579,-46.537,-3.21306,0
73.0036,-46.4775,-3.20367,0
72.2113,-52.7933,-2.74572,0
72.2919,-52.7548,-2.76071,0
72.3704,-52.7122,-2.77638,0
72.4445,-52.6621,-2.79404,0
72.5171,-52.61,-2.81163,0
72.588,-52.5562,-2.82914,0
72.6573,-52.5007,-2.84654,0
72.7248,-52.4435,-2.86383,0
72.7905,-52.3846,-2.88098,0
72.8545,-52.3243,-2.898,0
72.9167,-52.2625,-2.91487,0
72.977,-52.1992,-2.93157,0
73.0354,-52.1347,-2.9481,0
73.0919,-52.0689,-2.96445,0
73.1465,-52.0018,-2.98059,0
73.1992,-51.9337,-2.99654,0
73.2499,-51.8644,-3.01226,0
73.2988,-51.7942,-3.02778,0
73.3456,-51.723,-3.04306,0
73.3905,-51.6509,-3.05809,0
73.4334,-51.578,-3.07289,0
73.4742,-51.5044,-3.08742,0
73.5131,-51.4301,-3.10171,0
73.5502,-51.3551,-3.11572,0
73.5851,-51.2796,-3.12946,0
73.6181,-51.2036,-3.14293,0
73.6491,-51.1271,-3.15612,0
73.6783,-51.0502,-3.169,0
73.7054,-50.973,-3.18161,0
73.7306,-50.8955,-3.19393,0
73.7605,-50.8212,-3.20417,0
73.7899,-50.7471,-3.21381,0
73.8177,-50.6724,-3.22317,0
73.8436,-50.5974,-3.23227,0
73.8679,-50.5219,-3.24111,0
73.8904,-50.446,-3.24967,0
73.9111,-50.3698,-3.25797,0
73.93,-50.2933,-3.26598,0
73.9473,-50.2166,-3.27372,0
73.9627,-50.1397,-3.28118,0
73.9766,-50.0626,-3.28836,0
73.9885,-49.9854,-3.29525,0
73.9987,-49.9081,-3.30187,0
74.0073,-49.8307,-3.3082,0
74.0142,-49.7534,-3.31423,0
74.0194,-49.676,-3.31999,0
74.0228,-49.5988,-3.32546,0
74.0245,-49.5216,-3.33063,0
74.0247,-49.4446,-3.33551,0
74.0231,-49.3677,-3.34012,0
74.0199,-49.2911,-3.34442,0
74.0154,-49.2147,-3.34838,0
74.0134,-49.1385,-3.35115,0
74.01,-49.0624,-3.35363,0
74.0051,-48.9865,-3.35582,0
73.9985,-48.9107,-3.35769,0
73.9905,-48.8351,-3.35927,0
73.9809,-48.7597,-3.36056,0
73.9698,-48.6845,-3.36154,0
73.9573,-48.6096,-3.36221,0
73.943,-48.5351,-3.3626,0
73.9273,-48.4608,-3.36269,0
73.9126,-48.3863,-3.36197,0
73.9009,-48.311,-3.36,0
73.8877,-48.2357,-3.35772,0
73.8729,-48.1605,-3.35513,0
73.8564,-48.0856,-3.35225,0
73.8384,-48.0108,-3.34907,0
73.8187,-47.9362,-3.34559,0
73.7976,-47.8619,-3.34179,0
73.7747,-47.7879,-3.3377,0
73.7502,-47.7143,-3.3333,0
73.7242,-47.6409,-3.32859,0
73.6966,-47.5681,-3.32358,0
73.6674,-47.4956,-3.31827,0
73.6366,-47.4236,-3.31264,0
73.6041,-47.352,-3.30672,0
73.5702,-47.2811,-3.30049,0
73.5342,-47.2108,-3.29402,0
73.4955,-47.1421,-3.28758,0
73.4553,-47.0741,-3.28085,0
73.4134,-47.0068,-3.27381,0
73.3702,-46.9403,-3.2665,0
73.3252,-46.8747,-3.25889,0
73.2789,-46.8099,-3.251,0
73.231,-46.746,-3.24282,0
73.1817,-46.6831,-3.23437,0
73.1308,-46.6212,-3.22563,0
73.0786,-46.5603,-3.21662,0
73.0248,-46.5004,-3.20733,0
72.9696,-46.4416,-3.19777,0
73.1268,-51.8798,-2.99003,0
73.177,-51.8128,-3.00543,0
73.2254,-51.7448,-3.02062,0
73.2717,-51.6758,-3.0356,0
73.3162,-51.606,-3.05034,0
73.3588,-51.5353,-3.06485,0
73.3995,-51.4639,-3.07912,0
73.4382,-51.3917,-3.09314,0
73.475,-51.319,-3.10691,0
73.5099,-51.2456,-3.12041,0
73.5429,-51.1717,-3.13364,0
73.574,-51.0974,-3.14661,0
73.6031,-51.0226,-3.1593,0
73.6304,-50.9475,-3.17171,0
73.6568,-50.8726,-3.18355,0
73.6878,-50.8008,-3.19329,0
73.7173,-50.7285,-3.20279,0
73.7449,-50.6557,-3.21203,0
73.7709,-50.5824,-3.22102,0
73.7952,-50.5087,-3.22974,0
73.8176,-50.4346,-3.2382,0
73.8385,-50.3602,-3.2464,0
73.8576,-50.2855,-3.25433,0
73.875,-50.2105,-3.26199,0
73.8906,-50.1353,-3.26937,0
73.9047,-50.06,-3.27648,0
73.917,-49.9845,-3.28332,0
73.9276,-49.9089,-3.28988,0
73.9365,-49.8332,-3.29617,0
73.9437,-49.7575,-3.30217,0
73.9493,-49.6818,-3.30788,0
73.9532,-49.6062,-3.31332,0
73.9555,-49.5306,-3.31847,0
73.9561,-49.4552,-3.32335,0
73.9551,-49.3799,-3.32794,0
73.9524,-49.3049,-3.33224,0
73.9512,-49.23,-3.33559,0
73.9498,-49.1553,-3.33839,0
73.9469,-49.0807,-3.34089,0
73.9423,-49.0062,-3.3431,0
73.9364,-48.9319,-3.34502,0
73.9289,-48.8577,-3.34665,0
73.9198,-48.7838,-3.34798,0
73.9094,-48.71,-3.34901,0
73.8973,-48.6366,-3.34974,0
73.8838,-48.5634,-3.35019,0
73.8688,-48.4905,-3.35034,0
73.8523,-48.4179,-3.3502,0
73.8405,-48.3442,-3.34843,0
73.8278,-48.2705,-3.34624,0
73.8134,-48.1968,-3.34376,0
73.7976,-48.1234,-3.34097,0
73.7802,-48.0501,-3.3379,0
73.7611,-47.977,-3.33452,0
73.7405,-47.9042,-3.33085,0
73.7184,-47.8317,-3.32688,0
73.6947,-47.7595,-3.32261,0
73.6694,-47.6877,-3.31804,0
73.6426,-47.6163,-3.31317,0
73.6141,-47.5453,-3.30801,0
