54.7303,-58.131,-0.49259,0
54.9365,-58.0746,-0.510729,0
55.1388,-58.0068,-0.52966,0
55.3354,-57.9248,-0.549709,0
55.5316,-57.8409,-0.56925,0
55.7353,-57.7687,-0.586569,0
55.9371,-57.6901,-0.603986,0
56.1369,-57.6052,-0.621467,0
56.3344,-57.5141,-0.639001,0
56.5294,-57.4167,-0.656574,0
56.7216,-57.3131,-0.674157,0
56.9109,-57.2035,-0.69174,0
57.097,-57.0878,-0.709303,0
57.2796,-56.9662,-0.726813,0
57.4586,-56.8387,-0.744264,0
57.6159,-56.6859,-0.764011,0
57.7563,-56.5164,-0.785021,0
57.8921,-56.3437,-0.805627,0
58.023,-56.1681,-0.825812,0
58.1491,-55.9897,-0.845573,0
58.2678,-55.8066,-0.865134,0
58.3548,-55.5993,-0.886945,0
58.4359,-55.3911,-0.908156,0
58.5109,-55.1822,-0.928766,0
58.5799,-54.9728,-0.948776,0
58.6431,-54.7632,-0.968176,0
58.6937,-54.549,-0.987516,0
58.7344,-54.3329,-1.00654,0
58.769,-54.1174,-1.02493,0
58.7977,-53.9029,-1.04267,0
58.8205,-53.6894,-1.05976,0
58.8377,-53.4773,-1.0762,0
58.8696,-53.2757,-1.09066,0
58.925,-53.0872,-1.10265,0
58.9755,-52.8978,-1.11418,0
59.0209,-52.7077,-1.12525,0
59.0613,-52.5171,-1.13584,0
59.0967,-52.326,-1.14597,0
59.1273,-52.1348,-1.15561,0
59.1529,-51.9434,-1.16478,0
59.1737,-51.752,-1.17347,0
59.2046,-51.5641,-1.18089,0
59.2363,-51.3768,-1.18756,0
59.2639,-51.1891,-1.19375,0
59.2873,-51.0009,-1.19948,0
59.3054,-50.8123,-1.20478,0
59.317,-50.6233,-1.20972,0
59.3244,-50.4343,-1.21418,0
47.4783,-56.0429,-0.000748825,0
47.6047,-56.1733,-0.00558281,0
47.7397,-56.293,-0.0129021,0
47.8801,-56.406,-0.0215301,0
48.0233,-56.517,-0.0302752,0
48.1693,-56.626,-0.039157,0
48.318,-56.733,-0.0481707,0
48.4694,-56.8378,-0.0573016,0
48.6237,-56.9404,-0.066574,0
48.7806,-57.0408,-0.0759588,0
48.9375,-57.1481,-0.0835857,0
49.0952,-57.2614,-0.089699,0
49.2562,-57.3729,-0.0959686,0
49.421,-57.4824,-0.102404,0
49.5893,-57.5899,-0.108981,0
49.7612,-57.6953,-0.115715,0
49.9369,-57.7985,-0.122609,0
50.1162,-57.8993,-0.12966,0
50.3065,-57.9384,-0.147512,0
50.4971,-57.9819,-0.163971,0
50.6871,-58.0466,-0.176149,0
50.8797,-58.1071,-0.18863,0
51.0747,-58.1631,-0.201388,0
51.2719,-58.2146,-0.21443,0
51.4714,-58.2615,-0.227761,0
51.6729,-58.3015,-0.241681,0
51.8759,-58.3307,-0.256818,0
52.0806,-58.3559,-0.272018,0
52.2867,-58.3772,-0.287277,0
52.4945,-58.3951,-0.302477,0
52.7041,-58.4118,-0.317302,0
52.9116,-58.4048,-0.335065,0
53.1196,-58.3929,-0.352907,0
53.3279,-58.3762,-0.370793,0
53.5363,-58.3546,-0.388727,0
53.7449,-58.3281,-0.406701,0
53.9534,-58.2966,-0.424704,0
54.1616,-58.2594,-0.442814,0
54.3692,-58.2171,-0.460959,0
54.5765,-58.1697,-0.479098,0
54.7833,-58.1171,-0.497253,0
54.9891,-58.0593,-0.515378,0
55.1894,-57.9862,-0.534816,0
55.3855,-57.903,-0.554826,0
55.5841,-57.823,-0.573678,0
55.7873,-57.7491,-0.591032,0
55.9885,-57.669,-0.608464,0
56.1877,-57.5825,-0.625959,0
56.3846,-57.4897,-0.643508,0
56.579,-57.3908,-0.661076,0
56.7705,-57.2856,-0.678664,0
56.959,-57.1744,-0.696237,0
57.1441,-57.0572,-0.713791,0
57.3259,-56.934,-0.731291,0
57.5039,-56.8051,-0.748722,0
57.6523,-56.6428,-0.769435,0
57.7916,-56.4724,-0.790344,0
57.9262,-56.299,-0.810842,0
58.0559,-56.1226,-0.83092,0
58.1806,-55.9435,-0.850558,0
58.2908,-55.7536,-0.870783,0
58.3762,-55.546,-0.892438,0
58.4556,-55.3376,-0.913503,0
58.5291,-55.1286,-0.933962,0
58.5966,-54.9191,-0.953801,0
58.6584,-54.7094,-0.973039,0
58.7047,-54.4936,-0.992458,0
58.7438,-54.2776,-1.01132,0
58.777,-54.0623,-1.02954,0
58.8041,-53.8481,-1.04711,0
58.8255,-53.6349,-1.06404,0
58.8413,-53.4231,-1.08032,0
58.8843,-53.2275,-1.09378,0
58.9384,-53.0387,-1.10566,0
58.9876,-52.8491,-1.11706,0
59.0317,-52.6589,-1.128,0
59.0709,-52.4681,-1.13848,0
59.1051,-52.277,-1.14848,0
59.1344,-52.0857,-1.15801,0
59.1587,-51.8943,-1.16705,0
59.1784,-51.703,-1.17562,0
59.2132,-51.5161,-1.18264,0
59.2437,-51.3287,-1.18918,0
59.2703,-51.1409,-1.19526,0
59.2927,-50.9527,-1.20086,0
59.3088,-50.7639,-1.20609,0
59.3192,-50.5749,-1.21091,0
59.3256,-50.3859,-1.21524,0
47.5104,-56.0764,-0.00198418,0
47.6376,-56.2066,-0.00684258,0
47.7754,-56.3221,-0.0151043,0
47.9166,-56.4346,-0.0237518,0
48.0605,-56.5452,-0.0325359,0
48.2071,-56.6536,-0.0414519,0
48.3566,-56.7601,-0.0504949,0
48.5087,-56.8643,-0.0596648,0
48.6636,-56.9664,-0.0689666,0
48.8213,-57.0662,-0.0783904,0
48.9776,-57.1773,-0.0851434,0
49.1361,-57.2902,-0.0913006,0
49.2981,-57.4011,-0.0976141,0
49.4637,-57.5101,-0.104074,0
49.633,-57.6171,-0.11069,0
49.8059,-57.7219,-0.117468,0
49.9825,-57.8245,-0.124401,0
50.1648,-57.9101,-0.134157,0
50.3555,-57.9476,-0.152136,0
50.5456,-57.9989,-0.167067,0
53.3374,-57.9687,-0.375212,0
53.5359,-57.9443,-0.392385,0
53.7342,-57.915,-0.409601,0
53.9323,-57.8809,-0.426838,0
54.1302,-57.8419,-0.444103,0
54.3275,-57.7981,-0.461359,0
54.5243,-57.7494,-0.478625,0
54.7204,-57.6959,-0.495876,0
54.9156,-57.6374,-0.513107,0
55.1082,-57.5704,-0.530798,0
55.2943,-57.4884,-0.549821,0
55.4785,-57.402,-0.568698,0
55.6608,-57.3111,-0.587433,0
55.8411,-57.2157,-0.606008,0
56.0191,-57.116,-0.624411,0
56.195,-57.012,-0.642643,0
56.3684,-56.9036,-0.660676,0
56.5395,-56.791,-0.678498,0
56.7116,-56.679,-0.695485,0
56.8835,-56.5653,-0.711945,0
57.052,-56.4461,-0.728342,0
57.2169,-56.3216,-0.744665,0
57.378,-56.1919,-0.760895,0
57.5341,-56.0561,-0.77714,0
57.6607,-55.891,-0.796491,0
57.768,-55.7099,-0.817209,0
57.86,-55.5181,-0.838625,0
57.9412,-55.3207,-0.860075,0
58.0147,-55.1211,-0.881154,0
58.082,-54.9207,-0.901691,0
58.1431,-54.7199,-0.921667,0
58.1984,-54.5187,-0.941071,0
58.2477,-54.3176,-0.959899,0
58.2912,-54.1166,-0.978156,0
58.3291,-53.916,-0.995812,0
58.3613,-53.7159,-1.01289,0
58.3881,-53.5167,-1.02938,0
58.417,-53.3221,-1.04468,0
58.4768,-53.1449,-1.0567,0
58.5317,-52.9666,-1.06829,0
58.582,-52.7875,-1.07945,0
58.6275,-52.6076,-1.09017,0
58.6684,-52.4272,-1.10045,0
58.7045,-52.2463,-1.11028,0
58.7447,-52.0676,-1.1191,0
58.7881,-51.8906,-1.127,0
58.8277,-51.7128,-1.13444,0
58.8634,-51.5343,-1.14142,0
58.895,-51.3553,-1.14797,0
58.9227,-51.1757,-1.15405,0
58.9465,-50.9958,-1.15966,0
58.965,-50.8154,-1.1649,0
58.9776,-50.6345,-1.1698,0
58.9861,-50.4536,-1.17422,0
58.9906,-50.2728,-1.17819,0
47.5799,-55.8033,-0.000646286,0
47.7073,-55.9196,-0.00762871,0
47.8399,-56.03,-0.0157977,0
47.9751,-56.1385,-0.0240936,0
48.113,-56.245,-0.0325115,0
48.2534,-56.3496,-0.0410564,0
48.3964,-56.452,-0.0497234,0
48.5422,-56.5524,-0.0585076,0
48.6905,-56.6506,-0.0674139,0
48.8415,-56.7465,-0.0764373,0
48.9952,-56.8402,-0.0855877,0
49.1486,-56.9408,-0.0929168,0
49.3032,-57.0462,-0.0989324,0
49.4611,-57.1496,-0.105099,0
49.6224,-57.2509,-0.111413,0
49.7871,-57.3501,-0.117873,0
49.9552,-57.4472,-0.12447,0
50.1273,-57.5391,-0.131764,0
50.3091,-57.5766,-0.148908,0
50.4921,-57.6101,-0.166169,0
50.676,-57.6396,-0.183522,0
50.8598,-57.6818,-0.197936,0
51.0447,-57.7341,-0.210065,0
51.2316,-57.782,-0.222453,0
51.4206,-57.8255,-0.235095,0
51.6116,-57.8645,-0.247995,0
51.8043,-57.8989,-0.261144,0
51.9988,-57.9285,-0.274538,0
52.1948,-57.9534,-0.288161,0
52.3923,-57.9734,-0.302018,0
52.5911,-57.9885,-0.316091,0
52.792,-58.0028,-0.329704,0
52.9916,-58,-0.345387,0
53.1899,-57.9838,-0.362468,0
53.3883,-57.9629,-0.379611,0
53.5867,-57.9372,-0.396799,0
53.785,-57.9067,-0.414015,0
53.983,-57.8714,-0.431262,0
54.1808,-57.8312,-0.448527,0
54.378,-57.7861,-0.465788,0
54.5746,-57.7362,-0.483049,0
54.7705,-57.6813,-0.500295,0
54.9655,-57.6216,-0.517511,0
55.1561,-57.5498,-0.53569,0
55.3416,-57.4667,-0.554675,0
55.5254,-57.3791,-0.573522,0
55.7072,-57.2871,-0.592209,0
55.8869,-57.1906,-0.610739,0
56.0645,-57.0898,-0.629103,0
56.2397,-56.9846,-0.647282,0
56.4126,-56.8752,-0.665265,0
56.5829,-56.7615,-0.683039,0
56.7561,-56.6504,-0.699714,0
56.927,-56.5352,-0.716154,0
57.0946,-56.4147,-0.732536,0
57.2585,-56.2888,-0.748835,0
57.4187,-56.1578,-0.765041,0
57.567,-56.014,-0.782145,0
57.6923,-55.8482,-0.801384,0
57.7922,-55.6608,-0.822751,0
57.8826,-55.4686,-0.84404,0
57.9606,-55.2697,-0.865524,0
58.0324,-55.0698,-0.886467,0
58.0982,-54.8693,-0.906872,0
58.1578,-54.6683,-0.926691,0
58.2116,-54.4672,-0.945949,0
58.2594,-54.266,-0.964636,0
58.3015,-54.0651,-0.982736,0
58.3379,-53.8646,-1.00025,0
58.3687,-53.6648,-1.01717,0
58.3941,-53.4658,-1.03351,0
58.4328,-53.2768,-1.04781,0
58.4913,-53.0993,-1.05971,0
58.5451,-52.9208,-1.07119,0
58.5941,-52.7415,-1.08224,0
58.6384,-52.5614,-1.09284,0
58.678,-52.3808,-1.103,0
58.713,-52.1998,-1.11273,0
58.7562,-52.0223,-1.12117,0
58.7987,-51.8451,-1.12894,0
58.8373,-51.6671,-1.13627,0
58.8719,-51.4885,-1.14314,0
58.9025,-51.3093,-1.14957,0
58.9292,-51.1297,-1.15552,0
58.952,-50.9496,-1.16103,0
58.9686,-50.769,-1.1662,0
58.9802,-50.5881,-1.17097,0
58.9876,-50.4073,-1.17528,0
47.6119,-55.8339,-0.00225273,0
47.7411,-55.9481,-0.0097039,0
47.8743,-56.058,-0.0179119,0
48.0102,-56.166,-0.026242,0
48.1487,-56.272,-0.034699,0
48.2898,-56.376,-0.0432684,0
48.4335,-56.4779,-0.0519598,0
48.5799,-56.5777,-0.0607781,0
48.7289,-56.6754,-0.0697088,0
48.8806,-56.7708,-0.0787762,0
49.0349,-56.8639,-0.087951,0
49.188,-56.968,-0.0944451,0
49.3434,-57.0728,-0.100505,0
49.5021,-57.1757,-0.106706,0
49.6643,-57.2766,-0.113054,0
49.8298,-57.3752,-0.119548,0
49.9989,-57.4717,-0.126193,0
50.1737,-57.5491,-0.136149,0
50.356,-57.5856,-0.153322,0
50.5392,-57.6181,-0.170607,0
50.7233,-57.6465,-0.187975,0
50.907,-57.6956,-0.201027,0
51.0923,-57.7468,-0.21321,0
51.2799,-57.7936,-0.225661,0
51.4694,-57.8359,-0.238376,0
51.6608,-57.8737,-0.251345,0
51.854,-57.9069,-0.264553,0
52.0488,-57.9354,-0.27801,0
52.2452,-57.959,-0.291696,0
52.4431,-57.9777,-0.305617,0
52.6424,-57.9926,-0.319562,0
52.8437,-58.0057,-0.333229,0
53.0424,-57.9963,-0.349767,0
53.2407,-57.9789,-0.366862,0
53.4391,-57.9568,-0.384011,0
53.6375,-57.9299,-0.401203,0
53.8359,-57.8981,-0.418434,0
54.0338,-57.8615,-0.435676,0
54.2313,-57.8201,-0.452946,0
54.4284,-57.7738,-0.470212,0
54.6249,-57.7226,-0.487472,0
54.8205,-57.6665,-0.504714,0
55.0154,-57.6055,-0.521926,0
55.2038,-57.5289,-0.540568,0
55.3889,-57.4447,-0.559513,0
55.5722,-57.3559,-0.578327,0
55.7534,-57.2628,-0.596979,0
55.9326,-57.1652,-0.615461,0
56.1095,-57.0632,-0.633786,0
56.2842,-56.957,-0.651906,0
56.4565,-56.8464,-0.669841,0
56.6268,-56.7325,-0.687458,0
56.8002,-56.6214,-0.703932,0
56.9704,-56.5048,-0.720363,0
57.137,-56.3829,-0.736721,0
57.2999,-56.2557,-0.753005,0
57.4591,-56.1234,-0.769177,0
57.5996,-55.9718,-0.787111,0
57.7212,-55.8028,-0.806579,0
57.8159,-55.6117,-0.828249,0
57.9031,-55.4177,-0.849596,0
57.9796,-55.2185,-0.870944,0
58.0498,-55.0185,-0.891755,0
58.1141,-54.8178,-0.911999,0
58.1722,-54.6168,-0.931686,0
58.2245,-54.4156,-0.950798,0
58.2707,-54.2145,-0.969333,0
58.3113,-54.0137,-0.987282,0
58.3462,-53.8134,-1.00464,0
58.3757,-53.6137,-1.02142,0
58.3997,-53.4149,-1.0376,0
58.4483,-53.2314,-1.0509,0
58.5055,-53.0536,-1.06269,0
58.558,-52.8749,-1.07406,0
58.6059,-52.6954,-1.085,0
58.6491,-52.5152,-1.09549,0
58.6874,-52.3345,-1.10554,0
58.722,-52.1536,-1.11509,0
58.7674,-51.9769,-1.1232,0
58.8089,-51.7995,-1.13086,0
58.8464,-51.6214,-1.13807,0
58.8801,-51.4426,-1.14483,0
58.9097,-51.2633,-1.15113,0
58.9354,-51.0835,-1.15698,0
58.9571,-50.9034,-1.16237,0
58.9719,-50.7226,-1.16747,0
58.9823,-50.5418,-1.17212,0
58.9888,-50.3609,-1.17632,0
47.6439,-55.8648,-0.00377617,0
47.7749,-55.9764,-0.0117986,0
47.9089,-56.0859,-0.0200359,0
48.0455,-56.1934,-0.0284002,0
48.1845,-56.2989,-0.0368816,0
48.3264,-56.4023,-0.0454852,0
48.4709,-56.5037,-0.0542107,0
48.6179,-56.603,-0.0630535,0
48.7676,-56.7,-0.0720281,0
48.9199,-56.7949,-0.0811101,0
49.0745,-56.8887,-0.0900359,0
49.2274,-56.995,-0.0959881,0
49.3837,-57.0994,-0.102077,0
49.5434,-57.2018,-0.108322,0
49.7064,-57.3021,-0.114709,0
49.8728,-57.4002,-0.121237,0
50.0427,-57.496,-0.127922,0
50.2203,-57.5588,-0.140539,0
50.4029,-57.5943,-0.157746,0
50.5863,-57.6257,-0.175046,0
53.2524,-57.6018,-0.371887,0
53.4424,-57.5801,-0.387858,0
53.6316,-57.5511,-0.404289,0
53.8205,-57.5176,-0.420739,0
54.0091,-57.4794,-0.437209,0
54.1973,-57.4366,-0.453669,0
54.3848,-57.3892,-0.470129,0
54.5716,-57.3371,-0.486584,0
54.7577,-57.2803,-0.502995,0
54.9427,-57.2189,-0.519377,0
55.1242,-57.1483,-0.536379,0
55.3001,-57.0653,-0.554406,0
55.4742,-56.9782,-0.572297,0
55.6462,-56.8868,-0.590036,0
55.8162,-56.7912,-0.607609,0
55.9841,-56.6914,-0.625007,0
56.1498,-56.5876,-0.642228,0
56.3129,-56.4798,-0.65925,0
56.4737,-56.3679,-0.676061,0
56.6318,-56.2521,-0.692663,0
56.7873,-56.1325,-0.709045,0
56.94,-56.009,-0.725182,0
57.0898,-55.8817,-0.741081,0
57.2111,-55.7252,-0.760358,0
57.3064,-55.5454,-0.782209,0
57.3959,-55.3639,-0.803605,0
57.4795,-55.1808,-0.824543,0
57.5573,-54.9964,-0.845002,0
57.6294,-54.8109,-0.864972,0
57.6958,-54.6245,-0.884445,0
57.7565,-54.4375,-0.903405,0
57.8117,-54.2501,-0.921857,0
57.8614,-54.0625,-0.939777,0
57.9056,-53.8748,-0.95717,0
57.9445,-53.6874,-0.97402,0
57.9782,-53.5003,-0.990339,0
58.0148,-53.3179,-1.0054,0
58.077,-53.1509,-1.01731,0
58.1348,-52.9828,-1.02882,0
58.188,-52.8136,-1.03993,0
58.2371,-52.6437,-1.05061,0
58.2941,-52.4777,-1.05991,0
58.3475,-52.3107,-1.06879,0
58.3971,-52.1428,-1.07725,0
58.4428,-51.9739,-1.08528,0
58.4849,-51.8043,-1.09288,0
58.5231,-51.6339,-1.10004,0
58.5575,-51.4629,-1.10678,0
58.5882,-51.2913,-1.11307,0
58.6151,-51.1192,-1.11893,0
58.638,-50.9467,-1.12435,0
58.6553,-50.7736,-1.12945,0
58.6677,-50.6002,-1.1342,0
58.6762,-50.4268,-1.13847,0
58.6809,-50.2535,-1.14231,0
47.7181,-55.5893,-0.00744316,0
47.8438,-55.6967,-0.0152557,0
47.967,-55.8112,-0.0207879,0
48.0974,-55.916,-0.0285662,0
48.2309,-56.018,-0.0367059,0
48.3668,-56.1179,-0.0449578,0
48.5053,-56.2157,-0.0533318,0
48.6463,-56.3115,-0.0618182,0
48.7898,-56.4051,-0.0704119,0
48.9357,-56.4965,-0.0791326,0
49.0843,-56.5857,-0.0879607,0
49.2353,-56.6725,-0.0969061,0
49.3852,-56.7699,-0.10318,0
49.5377,-56.8674,-0.109142,0
49.6934,-56.9627,-0.115241,0
49.8521,-57.056,-0.121471,0
50.0141,-57.147,-0.127844,0
50.1821,-57.2172,-0.137995,0
50.3566,-57.2529,-0.15443,0
50.532,-57.2847,-0.170973,0
50.7082,-57.3125,-0.187599,0
50.8852,-57.3364,-0.204323,0
51.063,-57.3575,-0.220925,0
51.2412,-57.4013,-0.23277,0
51.4211,-57.4409,-0.244855,0
51.6029,-57.4761,-0.257184,0
51.7862,-57.507,-0.269738,0
51.9711,-57.5333,-0.282516,0
52.1574,-57.5551,-0.295519,0
52.3451,-57.5723,-0.308732,0
52.5339,-57.5847,-0.322155,0
52.7242,-57.5951,-0.335309,0
52.9159,-57.6019,-0.348469,0
53.1086,-57.6037,-0.361828,0
53.3016,-57.5986,-0.375666,0
53.4909,-57.5731,-0.392067,0
53.6801,-57.543,-0.408503,0
53.8689,-57.5082,-0.424958,0
54.0574,-57.4689,-0.441428,0
54.2454,-57.4249,-0.457888,0
54.4327,-57.3763,-0.474352,0
54.6194,-57.323,-0.490783,0
54.8052,-57.265,-0.507204,0
54.9899,-57.2024,-0.523566,0
55.1695,-57.1274,-0.541008,0
55.3448,-57.0434,-0.559006,0
55.5184,-56.9551,-0.576862,0
55.6901,-56.8627,-0.594553,0
55.8595,-56.766,-0.612087,0
56.0268,-56.6652,-0.629435,0
56.1918,-56.5604,-0.646603,0
56.3544,-56.4515,-0.663581,0
56.5145,-56.3386,-0.680334,0
56.672,-56.2218,-0.696882,0
56.8266,-56.1012,-0.7132,0
56.9787,-55.9767,-0.729274,0
57.1277,-55.8485,-0.745109,0
57.236,-55.6793,-0.765998,0
57.3298,-55.4991,-0.787736,0
57.4178,-55.3171,-0.809015,0
57.5,-55.1336,-0.829831,0
57.5763,-54.9489,-0.850168,0
57.647,-54.7632,-0.870012,0
57.7119,-54.5766,-0.889357,0
57.7712,-54.3895,-0.908185,0
57.825,-54.202,-0.926496,0
57.8732,-54.0144,-0.944289,0
57.916,-53.8268,-0.961535,0
57.9537,-53.6394,-0.978254,0
57.986,-53.4524,-0.994435,0
58.0312,-53.2752,-1.00849,0
58.0923,-53.1079,-1.02029,0
58.1489,-52.9395,-1.03171,0
58.201,-52.7701,-1.04271,0
58.2521,-52.6012,-1.05303,0
58.3082,-52.435,-1.06223,0
58.3605,-52.2678,-1.071,0
58.4091,-52.0996,-1.07935,0
58.454,-51.9305,-1.08727,0
58.495,-51.7607,-1.09476,0
58.5323,-51.5901,-1.10181,0
58.5657,-51.4189,-1.10844,0
58.5955,-51.2472,-1.11462,0
58.6213,-51.075,-1.12037,0
58.6434,-50.9024,-1.12567,0
58.6588,-50.7292,-1.13071,0
58.6702,-50.5558,-1.13533,0
58.6777,-50.3824,-1.1395,0
47.7506,-55.616,-0.00969414,0
47.8752,-55.7262,-0.0166619,0
47.9998,-55.839,-0.0225848,0
48.1314,-55.9424,-0.0306365,0
48.2655,-56.0438,-0.0388055,0
48.4021,-56.1432,-0.0470867,0
48.5412,-56.2405,-0.0554949,0
48.6828,-56.3357,-0.0640105,0
48.827,-56.4288,-0.0726385,0
48.9736,-56.5196,-0.0813885,0
49.1227,-56.6082,-0.090241,0
49.2739,-56.6961,-0.0988348,0
49.424,-56.7951,-0.104699,0
49.5772,-56.892,-0.110685,0
49.7337,-56.9869,-0.116818,0
49.8934,-57.0795,-0.123093,0
50.0561,-57.1699,-0.129499,0
50.2267,-57.2267,-0.142194,0
50.4014,-57.2614,-0.158659,0
50.5771,-57.2922,-0.175226,0
50.7535,-57.319,-0.191877,0
50.9308,-57.3419,-0.20862,0
51.1084,-57.3691,-0.223932,0
51.2871,-57.4118,-0.235846,0
51.4676,-57.4503,-0.247995,0
51.6497,-57.4844,-0.260383,0
51.8334,-57.5141,-0.272995,0
52.0187,-57.5394,-0.285837,0
52.2055,-57.56,-0.298888,0
52.3934,-57.5759,-0.312155,0
52.5824,-57.5871,-0.325622,0
52.7733,-57.5973,-0.338659,0
52.9652,-57.6028,-0.351877,0
53.158,-57.6033,-0.36528,0
53.3502,-57.5925,-0.37987,0
53.5395,-57.5658,-0.396281,0
53.7285,-57.5345,-0.412721,0
53.9173,-57.4986,-0.429177,0
54.1056,-57.4581,-0.445646,0
54.2935,-57.4129,-0.462111,0
54.4807,-57.3631,-0.478561,0
54.667,-57.3086,-0.494997,0
54.8527,-57.2494,-0.511398,0
55.037,-57.1856,-0.527756,0
55.2146,-57.1063,-0.545632,0
55.3896,-57.0212,-0.563595,0
55.5627,-56.9318,-0.581413,0
55.7337,-56.8383,-0.599064,0
55.9026,-56.7406,-0.616554,0
56.0693,-56.6387,-0.633859,0
56.2337,-56.5328,-0.650978,0
56.3956,-56.4229,-0.667892,0
56.5551,-56.3091,-0.684596,0
56.7118,-56.1913,-0.701091,0
56.8659,-56.0696,-0.717341,0
57.0171,-55.9442,-0.733356,0
57.1625,-55.812,-0.749557,0
57.2607,-55.6333,-0.771613,0
57.353,-55.4526,-0.793234,0
57.4395,-55.2702,-0.814396,0
57.5201,-55.0864,-0.835095,0
57.595,-54.9014,-0.855304,0
57.6641,-54.7154,-0.875021,0
57.7277,-54.5287,-0.89423,0
57.7855,-54.3415,-0.912927,0
57.8379,-54.1539,-0.931115,0
57.8847,-53.9662,-0.948762,0
57.9263,-53.7787,-0.965871,0
57.9624,-53.5914,-0.982453,0
57.9935,-53.4046,-0.998493,0
58.0473,-53.2325,-1.01155,0
58.1072,-53.0649,-1.02325,0
58.1627,-52.8962,-1.03456,0
58.2137,-52.7266,-1.04546,0
58.2668,-52.5587,-1.05543,0
58.322,-52.3923,-1.06452,0
58.3734,-52.2247,-1.07319,0
58.421,-52.0563,-1.08142,0
58.4648,-51.8871,-1.08922,0
58.505,-51.717,-1.09661,0
58.5412,-51.5463,-1.10355,0
58.5737,-51.375,-1.11006,0
58.6023,-51.2031,-1.11613,0
58.6273,-51.0308,-1.12177,0
58.6479,-50.8581,-1.12699,0
58.6621,-50.6847,-1.13194,0
58.6725,-50.5113,-1.13645,0
58.6791,-50.3379,-1.14049,0
47.7834,-55.6427,-0.0119549,0
47.9066,-55.7556,-0.0180682,0
48.0333,-55.8657,-0.0246355,0
48.1655,-55.9685,-0.0327166,0
48.3002,-56.0694,-0.0409197,0
48.4375,-56.1683,-0.0492352,0
48.5773,-56.2651,-0.0576727,0
48.7195,-56.3597,-0.0662127,0
48.8643,-56.4523,-0.0748699,0
49.0116,-56.5425,-0.0836443,0
49.1613,-56.6305,-0.0925359,0
49.312,-56.7217,-0.100329,0
49.463,-56.8201,-0.106218,0
49.617,-56.9165,-0.112253,0
49.7743,-57.0108,-0.118415,0
49.9348,-57.1029,-0.124723,0
50.0984,-57.1927,-0.131164,0
50.2714,-57.236,-0.146403,0
50.4464,-57.2697,-0.162897,0
50.6222,-57.2994,-0.179489,0
53.1648,-57.2267,-0.375275,0
53.349,-57.2183,-0.388303,0
53.5337,-57.205,-0.401486,0
53.7181,-57.1848,-0.415153,0
53.8984,-57.1474,-0.43089,0
54.078,-57.1056,-0.446633,0
54.257,-57.0594,-0.46236,0
54.4355,-57.0088,-0.478063,0
54.613,-56.9537,-0.493752,0
54.7895,-56.8941,-0.509391,0
54.965,-56.8301,-0.524982,0
55.1365,-56.7565,-0.541301,0
55.303,-56.6728,-0.55842,0
55.4677,-56.585,-0.575383,0
55.6302,-56.4933,-0.592199,0
55.7908,-56.3975,-0.60884,0
55.9491,-56.2979,-0.625309,0
56.1052,-56.1944,-0.641589,0
56.2588,-56.0871,-0.657673,0
56.4101,-55.976,-0.673552,0
56.5587,-55.8612,-0.689201,0
56.6789,-55.7145,-0.708928,0
56.7818,-55.5515,-0.730353,0
56.8793,-55.3863,-0.751408,0
56.9714,-55.2191,-0.772072,0
57.0581,-55.05,-0.792326,0
57.1394,-54.8794,-0.812175,0
57.2153,-54.7074,-0.831579,0
57.2859,-54.5342,-0.850549,0
57.3511,-54.3601,-0.869054,0
57.4111,-54.1852,-0.887106,0
57.4659,-54.0099,-0.90467,0
57.5155,-53.8341,-0.921764,0
57.5602,-53.6582,-0.938366,0
57.5997,-53.4824,-0.954479,0
57.6434,-53.3117,-0.969201,0
57.7096,-53.1551,-0.980803,0
57.779,-53.0008,-0.991364,0
57.8448,-52.8451,-1.00153,0
57.907,-52.6882,-1.01129,0
57.9657,-52.5301,-1.02065,0
58.0209,-52.3709,-1.02962,0
58.0723,-52.2107,-1.03818,0
58.1202,-52.0495,-1.04633,0
58.1644,-51.8875,-1.05406,0
58.2051,-51.7247,-1.06139,0
58.242,-51.5611,-1.06831,0
58.2753,-51.3969,-1.0748,0
58.305,-51.2322,-1.08088,0
58.3309,-51.067,-1.08652,0
58.3533,-50.9013,-1.09176,0
58.3695,-50.735,-1.09674,0
58.3816,-50.5686,-1.10132,0
58.3901,-50.4021,-1.10547,0
58.3949,-50.2356,-1.1092,0
47.851,-55.3831,-0.0156219,0
47.9748,-55.4825,-0.024157,0
48.0945,-55.591,-0.029743,0
48.2168,-55.6986,-0.035285,0
48.3418,-55.8043,-0.0410027,0
48.4728,-55.9015,-0.0486004,0
48.6069,-55.9951,-0.0567059,0
48.7434,-56.0867,-0.064909,0
48.8823,-56.1761,-0.0732293,0
49.0237,-56.2633,-0.0816521,0
49.1673,-56.3483,-0.0901824,0
49.3134,-56.4311,-0.0988152,0
49.4614,-56.5134,-0.107121,0
49.6087,-56.6054,-0.112887,0
49.7591,-56.6954,-0.118786,0
49.9123,-56.7832,-0.124811,0
50.0687,-56.8688,-0.130964,0
50.2327,-56.9204,-0.143732,0
50.4002,-56.9544,-0.159513,0
50.5687,-56.9846,-0.175397,0
50.738,-57.011,-0.191369,0
50.9079,-57.0336,-0.207429,0
51.0785,-57.0524,-0.223552,0
51.2497,-57.0674,-0.239743,0
51.4216,-57.0906,-0.253752,0
51.5949,-57.1226,-0.265554,0
51.7698,-57.1504,-0.277565,0
51.946,-57.174,-0.289787,0
52.1235,-57.1931,-0.302214,0
52.3022,-57.2079,-0.314836,0
52.482,-57.2181,-0.327648,0
52.6629,-57.2252,-0.340392,0
52.8451,-57.2298,-0.352951,0
53.0282,-57.2298,-0.365685,0
53.212,-57.225,-0.378596,0
53.3963,-57.2153,-0.391672,0
53.5812,-57.2008,-0.404889,0
53.7644,-57.1756,-0.419191,0
53.9444,-57.1371,-0.434933,0
54.124,-57.0942,-0.450661,0
54.3029,-57.0469,-0.466393,0
54.481,-56.9951,-0.482092,0
54.6584,-56.9388,-0.497756,0
54.8346,-56.8781,-0.513386,0
55.0098,-56.813,-0.528962,0
55.1794,-56.7355,-0.5457,0
55.3454,-56.6507,-0.56278,0
55.5095,-56.5619,-0.579714,0
55.6716,-56.4691,-0.596481,0
55.8316,-56.3724,-0.613083,0
55.9894,-56.2717,-0.629499,0
56.1448,-56.1673,-0.645729,0
56.2979,-56.059,-0.66176,0
56.4484,-55.947,-0.677585,0
56.5964,-55.8312,-0.693185,0
56.7057,-55.6729,-0.71446,0
56.8073,-55.5094,-0.735788,0
56.9034,-55.3437,-0.756735,0
56.9941,-55.1759,-0.777302,0
57.0795,-55.0064,-0.797463,0
57.1594,-54.8354,-0.817184,0
57.2339,-54.6631,-0.836491,0
57.303,-54.4896,-0.855329,0
57.367,-54.3153,-0.873727,0
57.4257,-54.1403,-0.891652,0
57.4791,-53.9648,-0.909098,0
57.5274,-53.7891,-0.926071,0
57.5707,-53.6131,-0.942551,0
57.6091,-53.4373,-0.958532,0
57.6602,-53.2714,-0.972258,0
57.7277,-53.1157,-0.983552,0
57.7962,-52.961,-0.994011,0
57.8611,-52.805,-1.00407,0
57.9223,-52.6478,-1.01373,0
57.9802,-52.4894,-1.02299,0
58.0344,-52.3299,-1.03186,0
58.0849,-52.1695,-1.04031,0
58.1319,-52.0081,-1.04835,0
58.1752,-51.8458,-1.05598,0
58.2148,-51.6828,-1.06321,0
58.2509,-51.5191,-1.07001,0
58.2833,-51.3548,-1.07639,0
58.312,-51.1899,-1.08236,0
58.337,-51.0246,-1.08791,0
58.358,-50.8588,-1.09306,0
58.373,-50.6924,-1.09796,0
58.3841,-50.5259,-1.10243,0
58.3916,-50.3594,-1.10647,0
47.8825,-55.4088,-0.0177996,0
48.0055,-55.5099,-0.0257195,0
48.1256,-55.6188,-0.0311395,0
48.2485,-55.7259,-0.0367303,0
48.3745,-55.8306,-0.0426482,0
48.5069,-55.9257,-0.0506658,0
48.6417,-56.0188,-0.0587957,0
48.7788,-56.1098,-0.0670281,0
48.9184,-56.1987,-0.0753728,0
49.0603,-56.2853,-0.0838299,0
49.2046,-56.3698,-0.0923846,0
49.3513,-56.4519,-0.101047,0
49.4989,-56.5372,-0.108586,0
49.647,-56.6287,-0.114391,0
49.798,-56.7181,-0.120314,0
49.9521,-56.8054,-0.126379,0
50.1092,-56.8904,-0.132565,0
50.2756,-56.9295,-0.14777,0
50.4434,-56.9625,-0.163586,0
50.612,-56.9917,-0.179489,0
50.7813,-57.0172,-0.19548,0
50.9516,-57.0388,-0.21155,0
51.1223,-57.0566,-0.227692,0
51.2937,-57.0706,-0.243908,0
51.4658,-57.0992,-0.25676,0
51.6396,-57.1302,-0.268615,0
51.8148,-57.1569,-0.280676,0
51.9914,-57.1793,-0.292956,0
52.1693,-57.1973,-0.305431,0
52.3482,-57.2109,-0.318102,0
52.5281,-57.22,-0.330964,0
52.7095,-57.2268,-0.343591,0
52.892,-57.2303,-0.356203,0
53.0752,-57.229,-0.368981,0
53.2591,-57.223,-0.38193,0
53.4437,-57.2121,-0.395046,0
53.6286,-57.1963,-0.408307,0
53.8105,-57.1662,-0.423224,0
53.9905,-57.1266,-0.438962,0
54.1699,-57.0825,-0.454689,0
54.3486,-57.034,-0.470417,0
54.5266,-56.9811,-0.48611,0
54.7037,-56.9237,-0.501774,0
54.8796,-56.8619,-0.517385,0
55.0545,-56.7956,-0.532951,0
55.2221,-56.7141,-0.550085,0
55.3877,-56.6283,-0.567131,0
55.5513,-56.5385,-0.58402,0
55.7128,-56.4447,-0.600754,0
55.8723,-56.3469,-0.617306,0
56.0294,-56.2453,-0.633678,0
56.1843,-56.1399,-0.64986,0
56.3367,-56.0306,-0.665837,0
56.4866,-55.9176,-0.681598,0
56.6267,-55.793,-0.698361,0
56.7323,-55.6313,-0.719953,0
56.8324,-55.4671,-0.741198,0
56.9272,-55.3008,-0.762048,0
57.0165,-55.1326,-0.782512,0
57.1004,-54.9627,-0.802551,0
57.179,-54.7914,-0.822175,0
57.2522,-54.6187,-0.841359,0
57.32,-54.445,-0.86009,0
57.3826,-54.2705,-0.878366,0
57.4398,-54.0954,-0.896169,0
57.492,-53.9198,-0.913498,0
57.5391,-53.744,-0.930339,0
57.5811,-53.5681,-0.946696,0
57.618,-53.3923,-0.962555,0
57.6768,-53.2311,-0.975295,0
57.7455,-53.0762,-0.986261,0
57.8131,-52.9211,-0.996623,0
57.8771,-52.7648,-1.00658,0
57.9375,-52.6073,-1.01614,0
57.9944,-52.4486,-1.0253,0
58.0477,-52.2889,-1.03405,0
58.0973,-52.1282,-1.0424,0
58.1433,-51.9666,-1.05035,0
58.1857,-51.8041,-1.05788,0
58.2245,-51.6409,-1.06499,0
58.2595,-51.477,-1.07169,0
58.291,-51.3126,-1.07796,0
58.3187,-51.1475,-1.08382,0
58.3429,-50.9821,-1.08925,0
58.3622,-50.8161,-1.09435,0
58.3761,-50.6497,-1.09914,0
58.3865,-50.4832,-1.10351,0
58.393,-50.3167,-1.10743,0
47.9142,-55.4343,-0.0199773,0
48.036,-55.538,-0.0270916,0
48.1569,-55.6464,-0.0325603,0
48.2805,-55.753,-0.0381951,0
48.4083,-55.8551,-0.0446941,0
48.5412,-55.9498,-0.0527361,0
48.6766,-56.0423,-0.0608953,0
48.8144,-56.1328,-0.0691619,0
48.9545,-56.2211,-0.077531,0
49.097,-56.3072,-0.0860076,0
49.242,-56.391,-0.0945965,0
49.3892,-56.4726,-0.103288,0
49.5365,-56.5608,-0.110065,0
49.6854,-56.6518,-0.115895,0
49.8373,-56.7407,-0.121852,0
49.9921,-56.8274,-0.127951,0
50.1514,-56.9025,-0.136081,0
50.3185,-56.9383,-0.151818,0
50.4865,-56.9703,-0.167648,0
50.6553,-56.9986,-0.183576,0
53.085,-56.8852,-0.378361,0
53.2604,-56.8756,-0.390803,0
53.4362,-56.8615,-0.40339,0
53.6121,-56.8427,-0.41611,0
53.7883,-56.8191,-0.428952,0
53.9644,-56.7908,-0.441921,0
54.1398,-56.7564,-0.455221,0
54.3104,-56.7071,-0.470251,0
54.4801,-56.6536,-0.485246,0
54.649,-56.5959,-0.500212,0
54.8167,-56.5339,-0.515129,0
54.9833,-56.4676,-0.529977,0
55.1455,-56.3917,-0.545637,0
55.3032,-56.3073,-0.561906,0
55.4591,-56.2191,-0.578014,0
55.6128,-56.127,-0.593971,0
55.7645,-56.0313,-0.609743,0
55.9141,-55.9318,-0.625344,0
56.0612,-55.8287,-0.640749,0
56.1766,-55.6865,-0.661642,0
56.2856,-55.5395,-0.682555,0
56.3897,-55.3899,-0.703161,0
56.4888,-55.2378,-0.723444,0
56.5827,-55.0835,-0.743405,0
56.6718,-54.9272,-0.763,0
56.7558,-54.7691,-0.782238,0
56.8347,-54.6093,-0.801095,0
56.9087,-54.4482,-0.819548,0
56.9776,-54.2859,-0.837604,0
57.0416,-54.1226,-0.855236,0
57.1007,-53.9585,-0.872448,0
57.1549,-53.7937,-0.889216,0
57.2113,-53.6331,-0.904719,0
57.2733,-53.4781,-0.918639,0
57.3345,-53.3241,-0.931774,0
57.4043,-53.1762,-0.943161,0
57.4708,-53.0272,-0.954138,0
57.5342,-52.8772,-0.964684,0
57.5978,-52.7276,-0.974484,0
57.6579,-52.5769,-0.983903,0
57.7146,-52.425,-0.992936,0
57.7678,-52.272,-1.00159,0
57.8177,-52.1181,-1.00984,0
57.8639,-51.9632,-1.0177,0
57.9067,-51.8075,-1.02518,0
57.946,-51.6509,-1.03225,0
57.9818,-51.4937,-1.03892,0
58.0141,-51.3359,-1.04519,0
58.0428,-51.1775,-1.05106,0
58.068,-51.0186,-1.05652,0
58.0892,-50.8593,-1.0616,0
58.1048,-50.6994,-1.06645,0
58.1167,-50.5393,-1.07089,0
58.1252,-50.3792,-1.07491,0
58.1255,-50.2188,-1.07886,0
47.9751,-55.1907,-0.0232586,0
48.095,-55.2861,-0.0315203,0
48.2134,-55.386,-0.0380682,0
48.3318,-55.4887,-0.0434588,0
48.4529,-55.5896,-0.0490057,0
48.5768,-55.6887,-0.0547234,0
48.7033,-55.7858,-0.0606121,0
48.8343,-55.8764,-0.0677996,0
48.9689,-55.962,-0.0758416,0
49.1059,-56.0453,-0.0839959,0
49.2451,-56.1265,-0.0922478,0
49.3866,-56.2054,-0.100607,0
49.5302,-56.282,-0.109059,0
49.6748,-56.3616,-0.116379,0
49.8202,-56.4467,-0.122092,0
49.9684,-56.5296,-0.127917,0
50.1194,-56.6098,-0.133962,0
50.2796,-56.6458,-0.14905,0
50.4406,-56.6782,-0.16422,0
50.6026,-56.707,-0.179499,0
50.7653,-56.7321,-0.194855,0
50.9287,-56.7535,-0.21029,0
51.0927,-56.7713,-0.225793,0
51.2573,-56.7854,-0.241364,0
51.4224,-56.7958,-0.256984,0
51.5878,-56.8024,-0.272658,0
51.7548,-56.8247,-0.284709,0
51.9231,-56.8458,-0.296423,0
52.0926,-56.8627,-0.308317,0
52.263,-56.8753,-0.320402,0
52.4345,-56.8837,-0.332663,0
52.6069,-56.888,-0.345026,0
52.7805,-56.8909,-0.357038,0
52.9549,-56.8893,-0.369206,0
53.1299,-56.8832,-0.381535,0
53.3054,-56.8725,-0.394015,0
53.4812,-56.8571,-0.406633,0
53.6573,-56.8371,-0.419391,0
53.8334,-56.8123,-0.432272,0
54.0095,-56.7828,-0.445265,0
54.1835,-56.7442,-0.459064,0
54.354,-56.6938,-0.474094,0
54.5235,-56.6392,-0.489089,0
54.692,-56.5804,-0.50404,0
54.8595,-56.5173,-0.518942,0
55.0258,-56.45,-0.533771,0
55.1861,-56.3704,-0.549821,0
55.3433,-56.285,-0.566047,0
55.4986,-56.1958,-0.582116,0
55.6519,-56.1028,-0.598029,0
55.803,-56.0061,-0.613761,0
55.952,-55.9057,-0.629304,0
56.0923,-55.7939,-0.645915,0
56.205,-55.6491,-0.667033,0
56.3127,-55.5014,-0.687868,0
56.4155,-55.3511,-0.708395,0
56.5133,-55.1985,-0.728595,0
56.606,-55.0436,-0.748459,0
56.6937,-54.8868,-0.767966,0
56.7764,-54.7283,-0.787106,0
56.8541,-54.5682,-0.805856,0
56.9268,-54.4067,-0.824211,0
56.9945,-54.2442,-0.842155,0
57.0572,-54.0806,-0.859684,0
57.115,-53.9163,-0.876779,0
57.168,-53.7514,-0.893444,0
57.2275,-53.5934,-0.908337,0
57.2885,-53.4382,-0.922136,0
57.3527,-53.2863,-0.934733,0
57.4216,-53.1381,-0.946012,0
57.4873,-52.9888,-0.956891,0
57.5509,-52.839,-0.967233,0
57.6136,-52.6891,-0.976935,0
57.6727,-52.5381,-0.986257,0
57.7286,-52.3859,-0.995192,0
57.7809,-52.2327,-1.00375,0
57.8298,-52.0785,-1.0119,0
57.8752,-51.9234,-1.01966,0
57.9171,-51.7674,-1.02703,0
57.9555,-51.6107,-1.03399,0
57.9904,-51.4533,-1.04057,0
58.0217,-51.2953,-1.04674,0
58.0496,-51.1368,-1.0525,0
58.0738,-50.9778,-1.05786,0
58.0935,-50.8183,-1.06288,0
58.1081,-50.6583,-1.06763,0
58.1192,-50.4982,-1.07196,0
58.1267,-50.3381,-1.07588,0
48.0056,-55.2154,-0.0253631,0
48.1261,-55.3102,-0.033659,0
48.2434,-55.4125,-0.0394305,0
48.3626,-55.5147,-0.0448699,0
48.4845,-55.6152,-0.0504607,0
48.6089,-55.7138,-0.0562176,0
48.7361,-55.8104,-0.0621453,0
48.8687,-55.8985,-0.0698504,0
49.0038,-55.9835,-0.0779314,0
49.1413,-56.0664,-0.0861053,0
49.2811,-56.147,-0.0943865,0
49.4232,-56.2253,-0.102761,0
49.5674,-56.3013,-0.111237,0
49.7118,-56.3837,-0.117824,0
49.8579,-56.4682,-0.123566,0
50.0067,-56.5505,-0.12943,0
50.1604,-56.6194,-0.137819,0
50.3208,-56.6544,-0.152927,0
50.4821,-56.6859,-0.168132,0
50.6443,-56.7137,-0.183429,0
50.8072,-56.7379,-0.198805,0
50.9708,-56.7585,-0.214255,0
51.1349,-56.7753,-0.229777,0
51.2996,-56.7884,-0.245358,0
51.4648,-56.7978,-0.260998,0
51.6304,-56.8064,-0.27613,0
51.7978,-56.8305,-0.287692,0
51.9665,-56.8505,-0.29945,0
52.1362,-56.8663,-0.311398,0
52.307,-56.8779,-0.323532,0
52.4786,-56.8851,-0.335827,0
52.6512,-56.8892,-0.348088,0
52.8252,-56.8909,-0.360138,0
52.9997,-56.8881,-0.372355,0
53.1748,-56.8809,-0.384723,0
53.3504,-56.869,-0.397243,0
53.5263,-56.8524,-0.409894,0
53.7024,-56.8312,-0.422678,0
53.8786,-56.8052,-0.435593,0
54.0545,-56.7744,-0.44862,0
54.2273,-56.7317,-0.462922,0
54.3974,-56.6802,-0.477941,0
54.5668,-56.6245,-0.492922,0
54.7351,-56.5646,-0.507863,0
54.9023,-56.5004,-0.522746,0
55.0679,-56.4315,-0.537658,0
55.2266,-56.3489,-0.553986,0
55.3834,-56.2626,-0.570173,0
55.5381,-56.1724,-0.586208,0
55.6909,-56.0784,-0.602072,0
55.8414,-55.9807,-0.617761,0
55.9898,-55.8794,-0.633259,0
56.1217,-55.7571,-0.651349,0
56.2331,-55.6115,-0.672399,0
56.3396,-55.4631,-0.693156,0
56.4411,-55.3122,-0.7136,0
56.5375,-55.159,-0.733727,0
56.6291,-55.0036,-0.753498,0
56.7155,-54.8463,-0.772912,0
56.7969,-54.6874,-0.79195,0
56.8732,-54.5269,-0.810597,0
56.9446,-54.3652,-0.828854,0
57.0111,-54.2023,-0.846696,0
57.0725,-54.0386,-0.864108,0
57.1291,-53.8741,-0.881095,0
57.1808,-53.7091,-0.897643,0
57.2435,-53.5537,-0.911921,0
57.3036,-53.3984,-0.925597,0
57.3706,-53.2485,-0.937668,0
57.4387,-53.1,-0.94884,0
57.5036,-52.9503,-0.959606,0
57.5673,-52.8007,-0.969758,0
57.629,-52.6505,-0.979357,0
57.6874,-52.4992,-0.988586,0
57.7423,-52.3467,-0.997419,0
57.7938,-52.1932,-1.00587,0
57.8418,-52.0388,-1.01392,0
57.8862,-51.8835,-1.02158,0
57.9273,-51.7273,-1.02885,0
57.9648,-51.5704,-1.03572,0
57.9987,-51.4129,-1.04218,0
58.0292,-51.2548,-1.04825,0
58.0562,-51.0961,-1.0539,0
58.0795,-50.937,-1.05916,0
58.0977,-50.7773,-1.06414,0
58.1113,-50.6173,-1.06878,0
58.1215,-50.4572,-1.073,0
58.128,-50.2971,-1.07682,0
48.0362,-55.2399,-0.0274725,0
48.1566,-55.3353,-0.0354949,0
48.2738,-55.4389,-0.0408172,0
48.3936,-55.5407,-0.0462859,0
48.5161,-55.6406,-0.0519256,0
48.6413,-55.7387,-0.0577264,0
48.7695,-55.8339,-0.0639129,0
48.903,-55.9205,-0.0719109,0
49.0389,-56.005,-0.0800164,0
49.177,-56.0872,-0.0882146,0
49.3173,-56.1673,-0.0965203,0
49.4599,-56.245,-0.104924,0
49.6048,-56.3204,-0.113429,0
49.749,-56.4055,-0.119289,0
49.8958,-56.4895,-0.125055,0
50.0454,-56.5713,-0.130949,0
50.2014,-56.6287,-0.141677,0
50.3621,-56.6629,-0.156818,0
50.5236,-56.6934,-0.172043,0
50.6859,-56.7203,-0.18736,0
53.012,-56.5729,-0.381183,0
53.1794,-56.5625,-0.393088,0
53.347,-56.5477,-0.405124,0
53.5147,-56.5284,-0.417282,0
53.6826,-56.5046,-0.429562,0
53.8503,-56.4763,-0.44194,0
54.0178,-56.4434,-0.45443,0
54.185,-56.406,-0.467004,0
54.3516,-56.364,-0.47966,0
54.5176,-56.3173,-0.492389,0
54.68,-56.2609,-0.506047,0
54.8396,-56.1967,-0.520275,0
54.9978,-56.1285,-0.534435,0
55.1513,-56.0508,-0.549445,0
55.3009,-55.9658,-0.564919,0
55.4484,-55.8772,-0.580226,0
55.5843,-55.7714,-0.597663,0
55.7024,-55.6427,-0.6182,0
55.816,-55.5109,-0.638522,0
55.9253,-55.3761,-0.6586,0
56.0298,-55.2385,-0.678425,0
56.1299,-55.0984,-0.697985,0
56.2253,-54.9558,-0.717248,0
56.3161,-54.8112,-0.736208,0
56.4021,-54.6645,-0.754845,0
56.4834,-54.5161,-0.773141,0
56.5602,-54.366,-0.7911,0
56.6366,-54.2183,-0.808019,0
56.7152,-54.0743,-0.823649,0
56.79,-53.9291,-0.838874,0
56.8612,-53.783,-0.853659,0
56.929,-53.6359,-0.86801,0
56.9931,-53.4881,-0.881935,0
57.0548,-53.3403,-0.895275,0
57.1258,-53.1991,-0.906691,0
57.1934,-53.0566,-0.917717,0
57.2579,-52.9131,-0.928351,0
57.3193,-52.7684,-0.938595,0
57.3774,-52.6227,-0.948434,0
57.4324,-52.4761,-0.957883,0
57.4842,-52.3286,-0.96694,0
57.533,-52.1803,-0.975563,0
57.5812,-52.0321,-0.983537,0
57.626,-51.8831,-0.991139,0
57.6674,-51.7332,-0.998356,0
57.7055,-51.5825,-1.00518,0
57.7402,-51.4312,-1.01164,0
57.7713,-51.2792,-1.0177,0
57.7993,-51.1267,-1.02337,0
57.8237,-50.9737,-1.02864,0
57.8438,-50.8202,-1.03361,0
57.859,-50.6662,-1.03832,0
57.8687,-50.5119,-1.04279,0
57.8672,-50.3569,-1.04753,0
57.862,-50.2024,-1.05187,0
48.0913,-55.0107,-0.0304021,0
48.2074,-55.1024,-0.0384051,0
48.3244,-55.1944,-0.0458465,0
48.4391,-55.2927,-0.0510906,0
48.5566,-55.3892,-0.056491,0
48.6766,-55.4839,-0.0620379,0
48.7993,-55.5766,-0.0677459,0
48.9245,-55.6673,-0.0736248,0
49.0521,-55.756,-0.0796404,0
49.1829,-55.841,-0.0862029,0
49.3178,-55.9187,-0.0941912,0
49.4549,-55.9941,-0.102282,0
49.5941,-56.0672,-0.110461,0
49.7355,-56.138,-0.118722,0
49.8772,-56.2148,-0.125158,0
50.0205,-56.2932,-0.130812,0
50.1688,-56.3565,-0.13945,0
50.323,-56.3909,-0.153981,0
50.4782,-56.4219,-0.168596,0
50.6341,-56.4493,-0.183303,0
50.7908,-56.4733,-0.198093,0
50.9481,-56.4937,-0.212951,0
51.106,-56.5105,-0.227883,0
51.2645,-56.5238,-0.242863,0
51.4233,-56.5335,-0.257907,0
51.5825,-56.5396,-0.27299,0
51.742,-56.5421,-0.288107,0
51.902,-56.5448,-0.302502,0
52.0641,-56.5597,-0.313923,0
52.2273,-56.5706,-0.325505,0
52.3911,-56.5774,-0.337248,0
52.5558,-56.5799,-0.349162,0
52.7215,-56.5807,-0.360773,0
52.888,-56.5779,-0.372429,0
53.0548,-56.5707,-0.384225,0
53.2223,-56.5591,-0.396164,0
53.3899,-56.5431,-0.408229,0
53.5577,-56.5227,-0.420417,0
53.7256,-56.4978,-0.432726,0
53.8933,-56.4683,-0.445138,0
54.0607,-56.4343,-0.457648,0
54.2277,-56.3957,-0.470241,0
54.3942,-56.3524,-0.482912,0
54.56,-56.3046,-0.495666,0
54.721,-56.2448,-0.509699,0
54.8803,-56.1796,-0.523913,0
55.0382,-56.1104,-0.538054,0
55.1898,-56.0293,-0.553425,0
55.3389,-55.9435,-0.568849,0
55.486,-55.8539,-0.584118,0
55.6149,-55.7387,-0.602951,0
55.732,-55.6092,-0.623429,0
55.8445,-55.4766,-0.643683,0
55.9525,-55.3411,-0.663703,0
56.0559,-55.2028,-0.683469,0
56.1548,-55.0621,-0.702946,0
56.2491,-54.919,-0.722136,0
56.3385,-54.7738,-0.741017,0
56.4234,-54.6266,-0.759572,0
56.5036,-54.4777,-0.77779,0
56.5791,-54.3273,-0.795646,0
56.6572,-54.1815,-0.812062,0
56.7347,-54.0371,-0.827595,0
56.8086,-53.8917,-0.842697,0
56.879,-53.7454,-0.857375,0
56.9458,-53.5981,-0.871623,0
57.009,-53.4501,-0.885436,0
57.0734,-53.3042,-0.898239,0
57.1434,-53.1627,-0.909557,0
57.2102,-53.0199,-0.92048,0
57.2739,-52.8761,-0.931017,0
57.3345,-52.7312,-0.941149,0
57.3918,-52.5852,-0.950895,0
57.446,-52.4384,-0.960251,0
57.497,-52.2906,-0.969191,0
57.5457,-52.1424,-0.977638,0
57.593,-51.994,-0.985524,0
57.637,-51.8447,-0.993024,0
57.6775,-51.6946,-1.00014,0
57.7147,-51.5438,-1.00688,0
57.7484,-51.3923,-1.01322,0
57.7788,-51.2402,-1.01918,0
57.8058,-51.0875,-1.02476,0
57.8295,-50.9345,-1.02993,0
57.848,-50.7807,-1.03486,0
57.8623,-50.6267,-1.03946,0
57.8687,-50.4721,-1.04404,0
57.8662,-50.3172,-1.04867,0
48.1209,-55.0344,-0.0324383,0
48.2375,-55.1256,-0.0404754,0
48.3535,-55.2198,-0.0471795,0
48.4691,-55.3176,-0.0524627,0
48.5872,-55.4137,-0.0578973,0
48.7078,-55.5078,-0.063493,0
48.8311,-55.6,-0.0692449,0
48.9569,-55.6902,-0.0751434,0
49.0852,-55.7784,-0.0812127,0
49.2173,-55.8612,-0.0882342,0
49.3527,-55.9383,-0.0962566,0
49.4904,-56.0131,-0.104367,0
49.6302,-56.0856,-0.112565,0
49.7722,-56.1558,-0.120871,0
49.9137,-56.2351,-0.126598,0
50.0577,-56.313,-0.132277,0
50.2083,-56.3657,-0.143161,0
50.3627,-56.3992,-0.157712,0
50.518,-56.4293,-0.17236,0
50.6742,-56.4558,-0.187082,0
50.831,-56.4789,-0.201896,0
50.9886,-56.4984,-0.216764,0
51.1466,-56.5143,-0.231711,0
51.3052,-56.5266,-0.24672,0
51.4641,-56.5354,-0.261764,0
51.6234,-56.5406,-0.276862,0
51.783,-56.5421,-0.291989,0
51.9435,-56.549,-0.305412,0
52.1059,-56.5629,-0.316877,0
52.2691,-56.5727,-0.328503,0
52.4332,-56.5784,-0.34029,0
52.598,-56.5801,-0.352204,0
52.7641,-56.5804,-0.363742,0
52.9307,-56.5765,-0.375431,0
53.0977,-56.5681,-0.387267,0
53.2652,-56.5555,-0.39924,0
53.433,-56.5383,-0.411345,0
53.6008,-56.5168,-0.423566,0
53.7686,-56.4907,-0.435895,0
53.9362,-56.46,-0.448332,0
54.1036,-56.4248,-0.460861,0
54.2704,-56.385,-0.473478,0
54.4367,-56.3406,-0.486178,0
54.6019,-56.2907,-0.499089,0
54.762,-56.2285,-0.513346,0
54.9209,-56.1622,-0.527546,0
55.0777,-56.0909,-0.541847,0
55.2283,-56.0077,-0.557394,0
55.3768,-55.9208,-0.57278,0
55.5234,-55.8304,-0.58801,0
55.6453,-55.7058,-0.60822,0
55.7612,-55.5755,-0.628639,0
55.8726,-55.4421,-0.64884,0
55.9795,-55.3059,-0.668801,0
56.0817,-55.167,-0.688483,0
56.1794,-55.0256,-0.707897,0
56.2724,-54.8819,-0.727009,0
56.3608,-54.7362,-0.745798,0
56.4444,-54.5886,-0.764274,0
56.5234,-54.4393,-0.782399,0
56.5976,-54.2885,-0.800163,0
56.6773,-54.1446,-0.816081,0
56.754,-54,-0.831511,0
56.827,-53.8543,-0.846501,0
56.8964,-53.7077,-0.861066,0
56.9623,-53.5603,-0.875197,0
57.0245,-53.412,-0.888908,0
57.0916,-53.268,-0.901178,0
57.1608,-53.1262,-0.912389,0
57.2269,-52.9832,-0.923215,0
57.2898,-52.839,-0.933654,0
57.3495,-52.6938,-0.943683,0
57.406,-52.5477,-0.953337,0
57.4594,-52.4006,-0.962575,0
57.5095,-52.2526,-0.971423,0
57.5581,-52.1045,-0.979699,0
57.6046,-51.9558,-0.987482,0
57.6477,-51.8063,-0.99488,0
57.6873,-51.656,-1.00191,0
57.7237,-51.505,-1.00854,0
57.7566,-51.3533,-1.01479,0
57.7861,-51.2011,-1.02065,0
57.8123,-51.0483,-1.02612,0
57.8349,-50.8951,-1.0312,0
57.852,-50.7413,-1.03608,0
57.8654,-50.5872,-1.04057,0
57.8684,-50.4324,-1.04527,0
57.865,-50.2776,-1.0498,0
48.1505,-55.0579,-0.0344891,0
48.2677,-55.1486,-0.0425555,0
48.383,-55.245,-0.0485174,0
48.4991,-55.3424,-0.0538348,0
48.6179,-55.438,-0.059323,0
48.7392,-55.5316,-0.0649432,0
48.863,-55.6233,-0.0707439,0
48.9896,-55.713,-0.0766863,0
49.1186,-55.8006,-0.0827898,0
49.2518,-55.8811,-0.090285,0
49.3878,-55.9576,-0.098327,0
49.5261,-56.0319,-0.106462,0
49.6664,-56.1038,-0.114689,0
49.8083,-56.1758,-0.122453,0
49.9503,-56.2553,-0.128039,0
50.095,-56.3326,-0.133742,0
50.2478,-56.3746,-0.146887,0
50.4025,-56.4072,-0.161462,0
50.558,-56.4364,-0.176125,0
50.7144,-56.4621,-0.190871,0
52.9451,-56.2863,-0.383781,0
53.105,-56.2752,-0.395187,0
53.2652,-56.2598,-0.406711,0
53.4255,-56.2402,-0.418361,0
53.5856,-56.2163,-0.430119,0
53.7458,-56.1881,-0.441965,0
53.9056,-56.1556,-0.453913,0
54.0651,-56.1187,-0.465934,0
54.2241,-56.0775,-0.478044,0
54.3823,-56.0318,-0.490202,0
54.5397,-55.9818,-0.502419,0
54.6962,-55.9273,-0.514679,0
54.8516,-55.8685,-0.526974,0
55.0049,-55.8039,-0.539533,0
55.1379,-55.7059,-0.557262,0
55.2585,-55.5907,-0.577262,0
55.3759,-55.4731,-0.596935,0
55.4898,-55.3533,-0.616266,0
55.6005,-55.2313,-0.635236,0
55.7077,-55.1073,-0.653854,0
55.8116,-54.9813,-0.672101,0
55.9122,-54.8535,-0.689977,0
56.0092,-54.7239,-0.707477,0
56.1028,-54.5927,-0.724592,0
56.193,-54.46,-0.741325,0
56.2797,-54.3258,-0.757653,0
56.363,-54.1902,-0.773605,0
56.4428,-54.0534,-0.789137,0
56.5192,-53.9154,-0.804279,0
56.5921,-53.7763,-0.819015,0
56.6616,-53.6362,-0.833342,0
56.7277,-53.4952,-0.847253,0
56.7903,-53.3533,-0.860754,0
56.862,-53.2184,-0.872199,0
56.9308,-53.0823,-0.883259,0
56.9964,-52.9449,-0.893947,0
57.0591,-52.8064,-0.904264,0
57.1187,-52.6669,-0.914196,0
57.1752,-52.5264,-0.923737,0
57.2286,-52.3849,-0.932907,0
57.279,-52.2425,-0.941681,0
57.3262,-52.0993,-0.950075,0
57.3703,-51.9554,-0.958073,0
57.4114,-51.8107,-0.96568,0
57.4494,-51.6654,-0.972897,0
57.4841,-51.5195,-0.979728,0
57.5159,-51.3731,-0.986149,0
57.5454,-51.2264,-0.992092,0
57.5725,-51.0794,-0.997585,0
57.5962,-50.9319,-1.0027,0
57.6143,-50.7837,-1.00765,0
57.6205,-50.6341,-1.01301,0
57.623,-50.4848,-1.01801,0
57.6222,-50.3358,-1.02262,0
57.6178,-50.1872,-1.02686,0
48.2002,-54.8418,-0.0371014,0
48.3128,-54.9301,-0.0448602,0
48.4275,-55.0164,-0.0527508,0
48.5397,-55.1093,-0.0582342,0
48.6537,-55.2018,-0.0634832,0
48.7701,-55.2923,-0.0688787,0
48.889,-55.381,-0.0744305,0
49.0103,-55.4677,-0.0801287,0
49.1341,-55.5523,-0.0859783,0
49.2602,-55.6349,-0.0919842,0
49.3889,-55.7153,-0.0981316,0
49.5198,-55.7934,-0.104435,0
49.6542,-55.8657,-0.111774,0
49.7912,-55.9333,-0.119787,0
49.9304,-55.9986,-0.127887,0
50.0693,-56.0723,-0.133508,0
50.2148,-56.1208,-0.144557,0
50.3635,-56.1538,-0.158561,0
50.5131,-56.1834,-0.172663,0
50.6634,-56.2097,-0.186838,0
50.8145,-56.2325,-0.201105,0
50.9662,-56.2519,-0.215422,0
51.1184,-56.268,-0.229816,0
51.2711,-56.2805,-0.244255,0
51.4242,-56.2896,-0.258757,0
51.5777,-56.2952,-0.273293,0
51.7312,-56.2973,-0.287868,0
51.8852,-56.2959,-0.302472,0
52.0391,-56.291,-0.317096,0
52.1942,-56.2903,-0.330197,0
52.3512,-56.2957,-0.341476,0
52.5087,-56.2971,-0.352897,0
52.6672,-56.2959,-0.364206,0
52.8264,-56.2919,-0.375378,0
52.986,-56.2839,-0.386686,0
53.146,-56.2716,-0.398132,0
53.3062,-56.2552,-0.409689,0
53.4666,-56.2345,-0.421364,0
53.6267,-56.2095,-0.433141,0
53.7868,-56.1802,-0.445021,0
53.9466,-56.1466,-0.456984,0
54.1059,-56.1086,-0.46903,0
54.2647,-56.0662,-0.481144,0
54.4227,-56.0194,-0.493327,0
54.5799,-55.9682,-0.505558,0
54.7361,-55.9127,-0.517829,0
54.8913,-55.8527,-0.530138,0
55.0435,-55.7858,-0.542902,0
55.1691,-55.6766,-0.562414,0
55.2889,-55.5608,-0.582341,0
55.4054,-55.4426,-0.60193,0
55.5185,-55.3222,-0.621159,0
55.6284,-55.1997,-0.640046,0
55.7348,-55.0752,-0.658561,0
55.8377,-54.9487,-0.67672,0
55.9373,-54.8204,-0.694499,0
56.0335,-54.6904,-0.711901,0
56.1263,-54.5588,-0.728913,0
56.2155,-54.4257,-0.745544,0
56.3014,-54.2912,-0.761779,0
56.3837,-54.1553,-0.777619,0
56.4627,-54.0181,-0.793058,0
56.5382,-53.8798,-0.808093,0
56.6102,-53.7405,-0.822726,0
56.6789,-53.6001,-0.836945,0
56.744,-53.4589,-0.850754,0
56.8089,-53.3189,-0.863727,0
56.8799,-53.1836,-0.87507,0
56.9479,-53.0472,-0.886032,0
57.0128,-52.9095,-0.896628,0
57.0746,-52.7708,-0.906843,0
57.1334,-52.631,-0.916677,0
57.1891,-52.4902,-0.92613,0
57.2418,-52.3485,-0.935192,0
57.2914,-52.2059,-0.943874,0
57.3378,-52.0625,-0.95216,0
57.3812,-51.9184,-0.96006,0
57.4215,-51.7735,-0.96757,0
57.4585,-51.6281,-0.974684,0
57.4927,-51.482,-0.981408,0
57.5235,-51.3355,-0.987736,0
57.5527,-51.1888,-0.993537,0
57.5789,-51.0416,-0.998932,0
57.6017,-50.894,-1.00394,0
57.6162,-50.7453,-1.00905,0
57.6215,-50.5958,-1.01433,0
57.6232,-50.4466,-1.01922,0
57.6214,-50.2976,-1.02375,0
48.2288,-54.8646,-0.039074,0
48.342,-54.9525,-0.046867,0
48.4565,-55.0395,-0.0544256,0
48.5687,-55.1332,-0.0595672,0
48.6832,-55.2251,-0.0648504,0
48.8003,-55.3152,-0.0702898,0
48.9198,-55.4034,-0.0758807,0
49.0418,-55.4895,-0.081618,0
49.1662,-55.5737,-0.0875066,0
49.293,-55.6557,-0.0935467,0
49.4222,-55.7355,-0.0997381,0
49.5538,-55.8131,-0.106076,0
49.6891,-55.8833,-0.11382,0
49.8268,-55.9503,-0.121847,0
49.9659,-56.0172,-0.12944,0
50.1054,-56.091,-0.134938,0
50.2528,-56.1296,-0.148137,0
50.4017,-56.1617,-0.162165,0
50.5516,-56.1904,-0.176291,0
50.7021,-56.2158,-0.190485,0
50.8533,-56.2378,-0.204767,0
51.0052,-56.2564,-0.219108,0
51.1574,-56.2715,-0.233517,0
51.3102,-56.2832,-0.247975,0
51.4635,-56.2914,-0.262482,0
51.617,-56.2961,-0.277023,0
51.7707,-56.2973,-0.291608,0
51.9247,-56.295,-0.306213,0
52.0787,-56.2892,-0.320846,0
52.2344,-56.2921,-0.333073,0
52.3916,-56.2965,-0.344387,0
52.5493,-56.2969,-0.355846,0
52.708,-56.2953,-0.367057,0
52.8673,-56.2903,-0.378263,0
53.027,-56.2811,-0.389611,0
53.1871,-56.2678,-0.401086,0
53.3473,-56.2503,-0.412678,0
53.5077,-56.2285,-0.424372,0
53.6677,-56.2024,-0.436179,0
53.8278,-56.172,-0.448078,0
53.9874,-56.1373,-0.460065,0
54.1467,-56.0981,-0.472131,0
54.3052,-56.0546,-0.48426,0
54.463,-56.0067,-0.496457,0
54.62,-55.9544,-0.508698,0
54.776,-55.8977,-0.520983,0
54.9307,-55.8366,-0.533293,0
55.078,-55.7612,-0.54738,0
55.2002,-55.6471,-0.567555,0
55.3191,-55.5307,-0.587389,0
55.4348,-55.4119,-0.606891,0
55.547,-55.291,-0.626037,0
55.6559,-55.1679,-0.644831,0
55.7615,-55.0429,-0.663254,0
55.8636,-54.916,-0.68131,0
55.9623,-54.7873,-0.698996,0
56.0576,-54.6569,-0.716305,0
56.1495,-54.5249,-0.73322,0
56.2379,-54.3914,-0.749748,0
56.3228,-54.2564,-0.765886,0
56.4044,-54.1202,-0.781618,0
56.4824,-53.9828,-0.796955,0
56.557,-53.8442,-0.811886,0
56.6282,-53.7046,-0.826408,0
56.6959,-53.564,-0.840519,0
