47.2116,-48.3817,0.0269172,0
47.2964,-48.4304,0.0208039,0
47.3825,-48.4771,0.0145197,0
47.4697,-48.5219,0.00817207,0
47.5565,-48.568,0.00287422,0
47.6433,-48.6157,-0.00133476,0
47.7334,-48.6554,-0.0077166,0
47.8246,-48.6928,-0.014284,0
47.9167,-48.7281,-0.0209393,0
48.0096,-48.7613,-0.0276824,0
48.1034,-48.7925,-0.0344988,0
48.198,-48.8214,-0.0414031,0
48.2932,-48.8482,-0.048366,0
48.3891,-48.8728,-0.0554217,0
48.4856,-48.8952,-0.0625262,0
48.5827,-48.9154,-0.0697039,0
48.6802,-48.9334,-0.0769353,0
48.7782,-48.9491,-0.0842205,0
48.8766,-48.9625,-0.0915691,0
48.9754,-48.9737,-0.098952,0
49.0744,-48.9826,-0.106384,0
49.1737,-48.9892,-0.113854,0
49.2731,-48.9935,-0.121359,0
49.3727,-48.9955,-0.128903,0
49.4723,-48.9951,-0.136457,0
49.572,-48.9929,-0.143932,0
49.6717,-48.989,-0.151237,0
49.7712,-48.9827,-0.158566,0
49.8708,-48.9741,-0.165915,0
49.9702,-48.9632,-0.173273,0
50.0693,-48.9499,-0.180646,0
50.1669,-48.9287,-0.189577,0
50.2627,-48.9,-0.199938,0
50.3576,-48.8691,-0.210231,0
50.4516,-48.8362,-0.220456,0
50.5446,-48.8011,-0.230607,0
50.6367,-48.764,-0.24068,0
50.7277,-48.7249,-0.250676,0
50.8177,-48.6839,-0.260583,0
50.9065,-48.6409,-0.270388,0
50.9941,-48.5959,-0.280104,0
51.0806,-48.5491,-0.289714,0
51.1658,-48.5005,-0.299225,0
51.2498,-48.4501,-0.308625,0
51.3325,-48.3983,-0.317795,0
51.4147,-48.3458,-0.32653,0
51.4955,-48.2918,-0.335138,0
51.5751,-48.236,-0.34361,0
51.6533,-48.1787,-0.351955,0
51.73,-48.1197,-0.360153,0
51.8054,-48.0592,-0.368215,0
51.8794,-47.9973,-0.37612,0
51.9518,-47.9338,-0.383893,0
52.0228,-47.8689,-0.391501,0
51.6895,-47.3346,-0.542536,174
51.7141,-47.2388,-0.560519,174
51.7534,-47.162,-0.572332,174
51.7986,-47.093,-0.581312,174
51.845,-47.0263,-0.589192,174
51.8907,-46.9598,-0.596622,174
51.937,-46.8946,-0.603187,174
52.0138,-46.8559,-0.6002,174
52.2616,-46.9559,-0.547743,174
52.6428,-47.1468,-0.459689,0
52.693,-47.0664,-0.466296,0
52.7415,-46.9853,-0.472682,0
52.7883,-46.9034,-0.478854,0
52.8334,-46.8208,-0.484821,0
52.8766,-46.7375,-0.490558,0
52.9183,-46.6536,-0.496091,0
52.9581,-46.5691,-0.501398,0
52.9963,-46.484,-0.506491,0
53.0327,-46.3983,-0.511369,0
53.0673,-46.3121,-0.516022,0
53.1002,-46.2254,-0.520461,0
53.1314,-46.1383,-0.524679,0
53.1608,-46.0507,-0.528674,0
53.1884,-45.9627,-0.532453,0
53.2174,-45.8755,-0.535344,0
53.2456,-45.7881,-0.537809,0
53.2722,-45.7002,-0.540055,0
53.297,-45.6119,-0.542077,0
53.3201,-45.5231,-0.543884,0
53.0868,-45.3729,-0.599873,174
52.9497,-45.2551,-0.634195,174
52.945,-45.17,-0.639653,174
52.9711,-45.0912,-0.638077,174
52.9365,-45.0027,-0.648693,174
52.4428,-44.8573,-0.754356,174
46.743,-47.9206,0.0609748,0
46.8176,-47.9793,0.0555988,0
46.8934,-48.0363,0.0501447,0
46.9705,-48.0918,0.0446027,0
47.0489,-48.1456,0.0389826,0
47.1284,-48.1977,0.0332844,0
47.2091,-48.2482,0.027508,0
47.2911,-48.2969,0.0216486,0
47.3741,-48.3439,0.0157307,0
47.4582,-48.3892,0.00974434,0
47.5434,-48.4324,0.00361153,0
47.6288,-48.4757,-0.0018914,0
47.7155,-48.5167,-0.00767265,0
47.8037,-48.5543,-0.0140105,0
47.8928,-48.59,-0.0204266,0
47.9827,-48.6236,-0.0269402,0
48.0734,-48.6552,-0.0335271,0
48.165,-48.6847,-0.0401824,0
48.2572,-48.7121,-0.0469256,0
48.3501,-48.7374,-0.0537371,0
48.4436,-48.7606,-0.0606219,0
48.5377,-48.7816,-0.0675603,0
48.6323,-48.8005,-0.0745623,0
48.7273,-48.8172,-0.081618,0
48.8229,-48.8317,-0.0887273,0
48.9187,-48.844,-0.0958807,0
49.0149,-48.8541,-0.103088,0
49.1113,-48.8619,-0.110334,0
49.2079,-48.8676,-0.117604,0
49.3048,-48.871,-0.124924,0
49.4016,-48.8721,-0.132258,0
49.4986,-48.871,-0.139631,0
49.5955,-48.8676,-0.147018,0
49.6923,-48.8623,-0.154343,0
49.7892,-48.8555,-0.161471,0
49.8859,-48.8463,-0.16863,0
49.9825,-48.8349,-0.175788,0
50.0788,-48.8212,-0.182966,0
50.1734,-48.7991,-0.191891,0
50.2663,-48.7707,-0.20195,0
50.3584,-48.7402,-0.21195,0
50.4497,-48.7077,-0.221877,0
50.54,-48.6732,-0.23174,0
50.6294,-48.6367,-0.241525,0
50.7177,-48.5982,-0.251232,0
50.805,-48.5579,-0.260851,0
50.8912,-48.5156,-0.270373,0
50.9762,-48.4716,-0.279806,0
51.0601,-48.4256,-0.289147,0
51.1432,-48.3789,-0.298097,0
51.2254,-48.3308,-0.306823,0
51.3063,-48.2811,-0.315427,0
51.386,-48.2296,-0.323913,0
51.4645,-48.1766,-0.332267,0
51.5416,-48.1219,-0.34049,0
51.6176,-48.0657,-0.348586,0
51.6921,-48.0079,-0.356545,0
51.7652,-47.9487,-0.364367,0
51.837,-47.888,-0.372038,0
51.9073,-47.8258,-0.379577,0
51.9761,-47.7622,-0.38696,0
51.6796,-47.2808,-0.526711,174
51.7125,-47.1962,-0.541552,174
51.7595,-47.1289,-0.550468,174
51.7945,-47.0506,-0.562667,174
51.8408,-46.985,-0.570272,174
51.8868,-46.9198,-0.57733,174
51.9398,-46.8614,-0.581565,174
52.0182,-46.8245,-0.577607,174
52.1906,-46.8616,-0.545733,174
52.5797,-47.058,-0.452179,0
52.6289,-46.9798,-0.458449,0
52.6759,-46.9004,-0.464645,0
52.7212,-46.8204,-0.470632,0
52.7648,-46.7396,-0.476403,0
52.8067,-46.6582,-0.48197,0
52.847,-46.5761,-0.487321,0
52.8856,-46.4934,-0.492458,0
52.9225,-46.4102,-0.497385,0
52.9576,-46.3264,-0.502096,0
52.9911,-46.2421,-0.506603,0
53.0228,-46.1574,-0.51089,0
53.0529,-46.0722,-0.514958,0
53.0812,-45.9866,-0.518815,0
53.1097,-45.9012,-0.522043,0
53.1384,-45.8162,-0.524601,0
53.1655,-45.7306,-0.526955,0
53.1909,-45.6446,-0.529074,0
53.2147,-45.5581,-0.531003,0
53.0964,-45.4354,-0.563899,174
53.0064,-45.3257,-0.589572,174
52.934,-45.2246,-0.610506,174
52.9492,-45.1439,-0.611583,174
52.9181,-45.0556,-0.622191,174
52.7777,-44.9536,-0.655816,174
52.4096,-44.8306,-0.737803,174
46.8056,-47.97,0.0564582,0
46.8812,-48.0273,0.0510236,0
46.9582,-48.083,0.0454914,0
47.0362,-48.1371,0.0398859,0
47.1157,-48.1895,0.0341975,0
47.1962,-48.2403,0.0284309,0
47.278,-48.2893,0.022591,0
47.3608,-48.3366,0.0166779,0
47.4447,-48.3821,0.0107014,0
47.5298,-48.4256,0.00459785,0
47.6154,-48.4683,-0.00123222,0
47.7016,-48.5105,-0.00667656,0
47.7895,-48.5484,-0.01299,0
47.8785,-48.5844,-0.0194012,0
47.9684,-48.6184,-0.0258904,0
48.059,-48.6503,-0.0324676,0
48.1503,-48.6801,-0.039118,0
48.2425,-48.7079,-0.0458514,0
48.3352,-48.7335,-0.0526482,0
48.4287,-48.757,-0.0595135,0
48.5227,-48.7784,-0.0664422,0
48.6172,-48.7976,-0.0734441,0
48.7122,-48.8147,-0.0804803,0
48.8077,-48.8295,-0.0875896,0
48.9034,-48.8422,-0.0947381,0
48.9995,-48.8526,-0.101935,0
49.0959,-48.8608,-0.109167,0
49.1925,-48.8668,-0.116447,0
49.2894,-48.8706,-0.123757,0
49.3862,-48.8721,-0.131095,0
49.4831,-48.8713,-0.138459,0
49.58,-48.8683,-0.145837,0
49.6769,-48.8632,-0.15321,0
49.7738,-48.8567,-0.160329,0
49.8705,-48.8479,-0.167482,0
49.9671,-48.8368,-0.174645,0
50.0634,-48.8235,-0.181818,0
50.1584,-48.8034,-0.190285,0
50.2516,-48.7753,-0.200348,0
50.3438,-48.7452,-0.210358,0
50.4352,-48.713,-0.220304,0
50.5257,-48.6788,-0.230182,0
50.6152,-48.6426,-0.239968,0
50.7037,-48.6045,-0.249694,0
50.7912,-48.5644,-0.259323,0
50.8775,-48.5225,-0.268864,0
50.9627,-48.4787,-0.278307,0
51.0468,-48.4331,-0.287663,0
51.13,-48.3864,-0.296701,0
51.2123,-48.3386,-0.305441,0
51.2935,-48.2891,-0.314064,0
51.3734,-48.238,-0.322565,0
51.4521,-48.1852,-0.330944,0
51.5295,-48.1307,-0.339196,0
51.6056,-48.0748,-0.347306,0
51.6803,-48.0172,-0.355295,0
51.7537,-47.9582,-0.363127,0
51.8256,-47.8977,-0.370827,0
51.8961,-47.8358,-0.378381,0
51.9652,-47.7725,-0.385788,0
51.6768,-47.2974,-0.523346,174
51.7072,-47.2094,-0.539284,174
51.7401,-47.127,-0.553209,174
51.7872,-47.0611,-0.561389,174
51.8335,-46.9954,-0.569105,174
51.8795,-46.9301,-0.576237,174
51.9289,-46.8685,-0.581701,174
52.0044,-46.8294,-0.578632,174
52.1264,-46.8264,-0.56162,174
52.5713,-47.0701,-0.451266,0
52.6212,-46.9923,-0.457453,0
52.6684,-46.9131,-0.463669,0
52.7141,-46.8332,-0.469689,0
52.758,-46.7525,-0.4755,0
52.8002,-46.6712,-0.481095,0
52.8407,-46.5892,-0.486486,0
52.8796,-46.5066,-0.491662,0
52.9166,-46.4235,-0.496618,0
52.9521,-46.3398,-0.501369,0
52.9859,-46.2556,-0.5059,0
53.0179,-46.1709,-0.510217,0
53.0482,-46.0858,-0.514323,0
53.0768,-46.0002,-0.51822,0
53.1049,-45.9147,-0.521623,0
53.1339,-45.8297,-0.524206,0
53.1612,-45.7442,-0.526594,0
53.187,-45.6583,-0.528757,0
53.211,-45.5719,-0.5307,0
53.1113,-45.4535,-0.559602,174
53.0198,-45.3426,-0.585744,174
52.941,-45.2394,-0.608227,174
52.946,-45.1566,-0.611613,174
52.9414,-45.0727,-0.616562,174
52.7995,-44.9693,-0.650649,174
52.4318,-44.8445,-0.732676,174
46.7938,-47.9608,0.0573176,0
46.8691,-48.0183,0.0518928,0
46.9458,-48.0743,0.0463801,0
47.0238,-48.1286,0.0407893,0
47.1029,-48.1813,0.0351057,0
47.1833,-48.2323,0.0293586,0
47.2648,-48.2816,0.0235188,0
47.3475,-48.3291,0.0176252,0
47.4312,-48.3749,0.0116486,0
47.5161,-48.4189,0.00558907,0
47.602,-48.4608,-0.000582809,0
47.6877,-48.5042,-0.00567558,0
47.7755,-48.5425,-0.0119744,0
47.8643,-48.5788,-0.0183709,0
47.9539,-48.6131,-0.0248553,0
48.0444,-48.6453,-0.0314129,0
48.1357,-48.6755,-0.0380584,0
48.2277,-48.7036,-0.0447723,0
48.3204,-48.7296,-0.0515545,0
48.4137,-48.7534,-0.0584197,0
48.5077,-48.7752,-0.0653436,0
48.6021,-48.7947,-0.0723211,0
48.697,-48.8121,-0.0793572,0
48.7924,-48.8273,-0.0864568,0
48.8881,-48.8403,-0.0935955,0
48.9842,-48.8511,-0.100788,0
49.0805,-48.8597,-0.108014,0
49.1772,-48.866,-0.11529,0
49.2739,-48.8701,-0.12259,0
49.3708,-48.872,-0.129919,0
49.4677,-48.8716,-0.137282,0
49.5645,-48.869,-0.144665,0
49.6614,-48.8641,-0.152062,0
49.7583,-48.8579,-0.159201,0
49.8552,-48.8495,-0.166345,0
49.9517,-48.8388,-0.173508,0
50.048,-48.8258,-0.180676,0
50.1436,-48.8077,-0.188674,0
50.2368,-48.7799,-0.198752,0
50.3292,-48.7501,-0.208766,0
50.4208,-48.7183,-0.218727,0
50.5114,-48.6844,-0.228615,0
50.601,-48.6485,-0.238415,0
50.6897,-48.6107,-0.248146,0
50.7773,-48.571,-0.257795,0
50.8638,-48.5293,-0.26735,0
50.9492,-48.4858,-0.276808,0
51.0335,-48.4405,-0.286183,0
51.1168,-48.3939,-0.29529,0
51.1993,-48.3463,-0.304054,0
51.2806,-48.2971,-0.312697,0
51.3608,-48.2462,-0.321222,0
51.4397,-48.1937,-0.329616,0
51.5173,-48.1395,-0.337887,0
51.5935,-48.0838,-0.346027,0
51.6685,-48.0265,-0.354025,0
51.742,-47.9677,-0.361891,0
51.8142,-47.9075,-0.369611,0
51.885,-47.8458,-0.377194,0
51.9543,-47.7826,-0.384626,0
51.6752,-47.3155,-0.519478,174
51.7019,-47.2227,-0.536998,174
51.7349,-47.14,-0.55104,174
51.7798,-47.0716,-0.560099,174
51.8261,-47.0058,-0.567925,174
51.8722,-46.9405,-0.575132,174
51.9189,-46.8764,-0.581534,174
51.9918,-46.8353,-0.579305,174
52.0776,-46.8031,-0.573059,174
52.563,-47.0822,-0.450353,0
52.6135,-47.0049,-0.456432,0
52.6611,-46.9258,-0.462697,0
52.7069,-46.846,-0.468747,0
52.7511,-46.7654,-0.474587,0
52.7935,-46.6842,-0.480221,0
52.8343,-46.6023,-0.485641,0
52.8734,-46.5198,-0.490846,0
52.9109,-46.4368,-0.495842,0
52.9466,-46.3532,-0.500622,0
52.9806,-46.2691,-0.505192,0
53.0129,-46.1845,-0.509538,0
53.0435,-46.0994,-0.513688,0
53.0724,-46.0139,-0.517609,0
53.1002,-45.9282,-0.521183,0
53.1295,-45.8433,-0.523815,0
53.157,-45.7579,-0.526227,0
53.183,-45.672,-0.52842,0
53.2073,-45.5857,-0.530407,0
53.1264,-45.4717,-0.555252,174
53.0341,-45.3598,-0.581709,174
52.9492,-45.2546,-0.605655,174
52.9435,-45.1695,-0.611486,174
52.9649,-45.0899,-0.610854,174
52.8214,-44.9852,-0.645411,174
52.4543,-44.8587,-0.72746,174
46.8066,-47.8346,0.0568195,0
46.8793,-47.8917,0.0515754,0
46.9534,-47.9473,0.046258,0
47.0286,-48.0012,0.0408576,0
47.105,-48.0536,0.0353645,0
47.1827,-48.1044,0.0298078,0
47.2614,-48.1535,0.024173,0
47.3413,-48.201,0.0184602,0
47.4223,-48.2467,0.0126838,0
47.5044,-48.2907,0.00683907,0
47.5874,-48.333,0.00092598,0
47.6719,-48.3723,-0.00546562,0
47.7571,-48.41,-0.0118426,0
47.843,-48.4465,-0.0180144,0
47.9298,-48.4811,-0.0242693,0
48.0173,-48.5138,-0.0306072,0
48.1058,-48.5445,-0.0370184,0
48.1949,-48.5731,-0.0435223,0
48.2847,-48.5997,-0.0500799,0
48.3752,-48.6243,-0.0567156,0
48.4662,-48.6468,-0.06341,0
48.5578,-48.6672,-0.0701727,0
48.65,-48.6855,-0.0769939,0
48.7426,-48.7016,-0.0838592,0
48.8355,-48.7157,-0.0907879,0
48.9289,-48.7276,-0.0977557,0
49.0225,-48.7373,-0.104772,0
49.1164,-48.7449,-0.111823,0
49.2104,-48.7504,-0.118913,0
49.3047,-48.7536,-0.126032,0
49.399,-48.7546,-0.13318,0
49.4933,-48.7535,-0.140344,0
49.5876,-48.7502,-0.147536,0
49.682,-48.7447,-0.154743,0
49.776,-48.737,-0.161965,0
49.8702,-48.7279,-0.168976,0
49.9641,-48.7167,-0.175949,0
50.0578,-48.7033,-0.182931,0
50.1504,-48.6842,-0.190944,0
50.2409,-48.6567,-0.200744,0
50.3307,-48.6273,-0.21048,0
50.4196,-48.5958,-0.220153,0
50.5076,-48.5625,-0.229758,0
50.5947,-48.5271,-0.239299,0
50.6808,-48.4899,-0.248752,0
50.7659,-48.4508,-0.258122,0
50.8499,-48.4099,-0.267389,0
50.9333,-48.3684,-0.276232,0
51.0157,-48.3251,-0.284963,0
51.097,-48.2801,-0.293591,0
51.1772,-48.2334,-0.302106,0
51.2562,-48.185,-0.310505,0
51.334,-48.135,-0.318781,0
51.4106,-48.0835,-0.326935,0
51.4859,-48.0303,-0.334968,0
51.56,-47.9756,-0.342868,0
51.6327,-47.9195,-0.350637,0
51.7041,-47.8618,-0.358273,0
51.7743,-47.8027,-0.365768,0
51.8429,-47.7422,-0.373122,0
51.9102,-47.6804,-0.380334,0
51.6675,-47.2645,-0.503199,174
51.7003,-47.1804,-0.518256,174
51.7608,-47.128,-0.522388,174
51.7796,-47.0333,-0.540426,174
51.8259,-46.9685,-0.547986,174
51.8716,-46.9038,-0.555071,174
51.9255,-46.847,-0.558856,174
52.0014,-46.8085,-0.555305,174
52.1057,-46.7912,-0.54291,174
52.5,-46.9945,-0.444064,0
52.5504,-46.9199,-0.449553,0
52.5985,-46.844,-0.455036,0
52.6429,-46.7659,-0.460905,0
52.6857,-46.6871,-0.466569,0
52.7268,-46.6077,-0.472023,0
52.7663,-46.5276,-0.477272,0
52.8041,-46.4469,-0.482316,0
52.8404,-46.3656,-0.48715,0
52.8749,-46.2838,-0.491774,0
52.9077,-46.2015,-0.496188,0
52.9389,-46.1188,-0.500392,0
52.9684,-46.0355,-0.504386,0
52.9963,-45.9519,-0.508185,0
53.0256,-45.8691,-0.511008,0
53.0537,-45.7859,-0.513508,0
53.0803,-45.7022,-0.515812,0
53.1052,-45.6181,-0.517897,0
53.1284,-45.5336,-0.519777,0
53.097,-45.4351,-0.533661,174
53.0077,-45.3256,-0.560008,174
52.9466,-45.2269,-0.579083,174
52.9442,-45.1427,-0.584165,174
52.8035,-45.0365,-0.619738,174
52.699,-44.9422,-0.646379,174
52.421,-44.8318,-0.711058,174
46.8676,-47.8827,0.052425,0
46.9414,-47.9385,0.0471076,0
47.0165,-47.9927,0.0417219,0
47.0927,-48.0454,0.0362482,0
47.1702,-48.0964,0.0307014,0
47.2488,-48.1458,0.0250666,0
47.3285,-48.1935,0.0193732,0
47.4094,-48.2395,0.0136066,0
47.4912,-48.2838,0.00777657,0
47.5741,-48.3264,0.00187325,0
47.6581,-48.3666,-0.0042791,0
47.7435,-48.404,-0.0108416,0
47.8293,-48.4408,-0.0170281,0
47.9159,-48.4758,-0.0232635,0
48.0034,-48.5087,-0.0295916,0
48.0916,-48.5397,-0.0359978,0
48.1806,-48.5687,-0.0424773,0
48.2704,-48.5956,-0.0490301,0
48.3607,-48.6205,-0.055656,0
48.4517,-48.6433,-0.0623455,0
48.5432,-48.6641,-0.0690935,0
48.6353,-48.6827,-0.0759002,0
48.7278,-48.6992,-0.0827654,0
48.8207,-48.7136,-0.0896844,0
48.914,-48.7258,-0.0966473,0
49.0076,-48.7359,-0.103654,0
49.1014,-48.7439,-0.110695,0
49.1955,-48.7496,-0.11778,0
49.2897,-48.7532,-0.124889,0
49.384,-48.7546,-0.132038,0
49.4783,-48.7538,-0.139211,0
49.5726,-48.7509,-0.146393,0
49.667,-48.7457,-0.1536,0
49.7611,-48.7384,-0.160817,0
49.8552,-48.7294,-0.167868,0
49.9491,-48.7186,-0.174836,0
50.0429,-48.7056,-0.181823,0
50.1359,-48.6884,-0.189377,0
50.2266,-48.6612,-0.199181,0
50.3165,-48.6321,-0.208937,0
50.4055,-48.601,-0.218625,0
50.4937,-48.5679,-0.228234,0
50.5809,-48.5329,-0.23778,0
50.6671,-48.4959,-0.247253,0
50.7523,-48.4571,-0.256637,0
50.8366,-48.4165,-0.265934,0
50.9201,-48.3751,-0.274831,0
51.0027,-48.3321,-0.283581,0
51.0841,-48.2874,-0.292223,0
51.1645,-48.2409,-0.300749,0
51.2437,-48.1929,-0.309167,0
51.3217,-48.1431,-0.317468,0
51.3985,-48.0918,-0.325651,0
51.4741,-48.0389,-0.333693,0
51.5483,-47.9845,-0.341618,0
51.6213,-47.9285,-0.349406,0
51.6929,-47.8711,-0.357067,0
51.7632,-47.8122,-0.364587,0
51.832,-47.752,-0.37196,0
51.8995,-47.6903,-0.379201,0
51.6627,-47.2786,-0.500546,174
51.695,-47.1936,-0.515962,174
51.7363,-47.1206,-0.527075,174
51.7721,-47.0437,-0.539177,174
51.8185,-46.9788,-0.546813,174
51.8643,-46.9141,-0.553974,174
51.9149,-46.8542,-0.558928,174
51.989,-46.8145,-0.555998,174
52.073,-46.7811,-0.549809,174
52.3421,-46.8896,-0.488073,174
52.5425,-46.9319,-0.448693,0
52.5912,-46.8564,-0.454089,0
52.6359,-46.7784,-0.459982,0
52.679,-46.6997,-0.46568,0
52.7204,-46.6204,-0.471164,0
52.7602,-46.5404,-0.476452,0
52.7983,-46.4598,-0.481525,0
52.8347,-46.3786,-0.486393,0
52.8695,-46.2969,-0.491052,0
52.9027,-46.2147,-0.495495,0
52.9341,-46.132,-0.499738,0
52.9638,-46.0488,-0.503771,0
52.992,-45.9653,-0.507585,0
53.0209,-45.8823,-0.510583,0
53.0494,-45.7992,-0.513122,0
53.0761,-45.7156,-0.515461,0
53.1013,-45.6315,-0.517585,0
53.1248,-45.5471,-0.519494,0
53.1118,-45.4531,-0.529234,174
53.0216,-45.3426,-0.55595,174
52.955,-45.2421,-0.576389,174
52.9568,-45.1584,-0.580626,174
52.8252,-45.0528,-0.61427,174
52.7043,-44.9552,-0.644718,174
52.4433,-44.8458,-0.70572,174
46.856,-47.8737,0.0532648,0
46.9296,-47.9297,0.0479572,0
47.0045,-47.9842,0.0425764,0
47.0805,-48.0371,0.0371272,0
47.1578,-48.0884,0.0315852,0
47.2362,-48.1381,0.0259748,0
47.3158,-48.186,0.0202814,0
47.3965,-48.2323,0.0145344,0
47.4781,-48.2769,0.0087043,0
47.5608,-48.3197,0.00281075,0
47.6446,-48.3607,-0.0031414,0
47.7299,-48.398,-0.00985527,0
47.8155,-48.4351,-0.0160369,0
47.902,-48.4703,-0.0222625,0
47.9894,-48.5036,-0.0285857,0
48.0775,-48.5349,-0.0349773,0
48.1664,-48.5642,-0.0414422,0
48.256,-48.5915,-0.0479852,0
48.3463,-48.6167,-0.0546014,0
48.4371,-48.6398,-0.0612713,0
48.5286,-48.6609,-0.0680145,0
48.6205,-48.6799,-0.0748162,0
48.713,-48.6967,-0.0816766,0
48.8059,-48.7114,-0.088576,0
48.8991,-48.724,-0.095534,0
48.9927,-48.7345,-0.102536,0
49.0865,-48.7428,-0.109572,0
49.1805,-48.7489,-0.116652,0
49.2746,-48.7528,-0.123762,0
49.3689,-48.7546,-0.1309,0
49.4632,-48.7541,-0.138058,0
49.5576,-48.7515,-0.145246,0
49.652,-48.7467,-0.152448,0
49.7461,-48.7397,-0.15966,0
49.8402,-48.731,-0.166755,0
49.9342,-48.7205,-0.173727,0
50.028,-48.7078,-0.1807,0
50.1213,-48.6925,-0.187809,0
50.2122,-48.6657,-0.197619,0
50.3021,-48.6369,-0.207389,0
50.3913,-48.6061,-0.217082,0
50.4796,-48.5733,-0.226711,0
50.567,-48.5386,-0.236262,0
50.6534,-48.502,-0.245744,0
50.7388,-48.4635,-0.255143,0
50.8232,-48.4231,-0.26446,0
50.9068,-48.3818,-0.27342,0
50.9896,-48.3391,-0.282194,0
51.0712,-48.2946,-0.290851,0
51.1518,-48.2485,-0.299406,0
51.2312,-48.2006,-0.307839,0
51.3094,-48.1511,-0.316154,0
51.3863,-48.1001,-0.324347,0
51.4621,-48.0474,-0.332424,0
51.5366,-47.9932,-0.340363,0
51.6098,-47.9375,-0.348176,0
51.6816,-47.8803,-0.355856,0
51.7521,-47.8217,-0.363395,0
51.8212,-47.7617,-0.370793,0
51.8888,-47.7002,-0.378058,0
51.6611,-47.2965,-0.496627,174
51.6897,-47.2067,-0.513649,174
51.7227,-47.1247,-0.527855,174
51.7647,-47.054,-0.537916,174
51.8112,-46.9891,-0.545629,174
51.8571,-46.9244,-0.552865,174
51.9062,-46.8632,-0.558383,174
51.9766,-46.8204,-0.556677,174
52.057,-46.7845,-0.551599,174
52.2734,-46.853,-0.505524,174
52.5345,-46.9438,-0.447819,0
52.5837,-46.8686,-0.45319,0
52.629,-46.7909,-0.459059,0
52.6723,-46.7123,-0.464792,0
52.7139,-46.633,-0.470304,0
52.754,-46.5531,-0.475622,0
52.7923,-46.4726,-0.480734,0
52.8291,-46.3916,-0.485627,0
52.8641,-46.3099,-0.490324,0
52.8974,-46.2278,-0.494806,0
52.9292,-46.1452,-0.499084,0
52.9592,-46.0621,-0.503137,0
52.9876,-45.9786,-0.506999,0
53.0163,-45.8954,-0.510163,0
53.0449,-45.8124,-0.512741,0
53.072,-45.7289,-0.515099,0
53.0974,-45.645,-0.517258,0
53.1213,-45.5606,-0.519206,0
53.1269,-45.4714,-0.524733,174
53.0356,-45.3598,-0.55184,174
52.9635,-45.2574,-0.573667,174
52.9537,-45.1711,-0.580632,174
52.8473,-45.0694,-0.608729,174
52.7129,-44.9687,-0.642314,174
52.4659,-44.86,-0.700288,174
46.8673,-47.7524,0.0528596,0
46.9384,-47.808,0.0477375,0
47.0105,-47.8621,0.0425422,0
47.084,-47.9147,0.0372688,0
47.1587,-47.9658,0.0319123,0
47.2345,-48.0152,0.0264826,0
47.3114,-48.0631,0.0209797,0
47.3894,-48.1093,0.0154084,0
47.4684,-48.1538,0.00977364,0
47.5484,-48.1967,0.00406563,0
47.6295,-48.2378,-0.00170097,0
47.7127,-48.2742,-0.00863945,0
47.7964,-48.3092,-0.0154559,0
47.8802,-48.3445,-0.0215936,0
47.9649,-48.3778,-0.0278143,0
48.0505,-48.4092,-0.0341033,0
48.1366,-48.439,-0.0403631,0
48.2234,-48.4668,-0.0466863,0
48.3109,-48.4926,-0.0530926,0
48.3991,-48.5165,-0.0595525,0
48.4878,-48.5383,-0.0660809,0
48.5771,-48.5581,-0.0726678,0
48.6669,-48.5759,-0.0793133,0
48.757,-48.5916,-0.0860076,0
48.8476,-48.6052,-0.0927508,0
48.9385,-48.6167,-0.0995428,0
49.0298,-48.6262,-0.106369,0
49.1213,-48.6335,-0.113244,0
49.2128,-48.6387,-0.120148,0
49.3046,-48.6418,-0.127082,0
49.3964,-48.6428,-0.13405,0
49.4883,-48.6416,-0.141032,0
49.5802,-48.6384,-0.148034,0
49.672,-48.633,-0.155055,0
49.7637,-48.6254,-0.162092,0
49.8552,-48.6158,-0.169128,0
49.9466,-48.6042,-0.1761,0
50.0378,-48.5911,-0.182897,0
50.1284,-48.5747,-0.190036,0
50.2167,-48.5482,-0.199592,0
50.3042,-48.5197,-0.209079,0
50.3909,-48.4893,-0.218512,0
50.4767,-48.4569,-0.227873,0
50.5616,-48.4227,-0.23716,0
50.6458,-48.3873,-0.246164,0
50.7292,-48.3505,-0.254982,0
50.8116,-48.3119,-0.263713,0
50.8931,-48.2715,-0.272336,0
50.9735,-48.2295,-0.280861,0
51.0529,-48.1857,-0.289279,0
51.1312,-48.1403,-0.297595,0
51.2084,-48.0933,-0.305793,0
51.2843,-48.0447,-0.313879,0
51.3591,-47.9945,-0.321843,0
51.4327,-47.9428,-0.329684,0
51.505,-47.8896,-0.337404,0
51.5761,-47.8349,-0.344987,0
51.6459,-47.7788,-0.352443,0
51.7143,-47.7213,-0.359772,0
51.7813,-47.6624,-0.36696,0
51.8471,-47.6022,-0.374006,0
51.6556,-47.2483,-0.479857,174
51.6882,-47.1648,-0.495127,174
51.7212,-47.0841,-0.509156,174
51.7649,-47.0165,-0.518301,174
51.811,-46.9521,-0.525892,174
51.8566,-46.888,-0.532949,174
51.9114,-46.8326,-0.536321,174
51.9861,-46.7938,-0.532804,174
52.0813,-46.7697,-0.522637,174
52.1132,-46.6936,-0.53205,174
52.1691,-46.6363,-0.533446,174
52.2263,-46.5794,-0.534019,174
52.2831,-46.5216,-0.534284,174
52.6098,-46.6368,-0.457131,0
52.6502,-46.5592,-0.462477,0
52.689,-46.481,-0.467634,0
52.7261,-46.4022,-0.472575,0
52.7616,-46.3228,-0.477326,0
52.7955,-46.2429,-0.481857,0
52.8278,-46.1625,-0.486198,0
52.8584,-46.0817,-0.490324,0
52.8874,-46.0004,-0.494245,0
52.9157,-45.919,-0.497736,0
52.9448,-45.8381,-0.500402,0
52.9724,-45.7568,-0.502858,0
52.9984,-45.675,-0.505109,0
53.0227,-45.5927,-0.50715,0
53.0456,-45.51,-0.508996,0
53.0662,-45.4268,-0.510778,0
53.0156,-45.327,-0.528778,174
52.9487,-45.227,-0.549844,174
52.8271,-45.1205,-0.582888,174
52.6954,-45.0184,-0.617424,174
52.6349,-44.9328,-0.634669,174
52.4324,-44.8331,-0.68404,174
46.9269,-47.7992,0.0485627,0
46.999,-47.8536,0.0433771,0
47.0723,-47.9065,0.0381135,0
47.1466,-47.9578,0.0327668,0
47.2223,-48.0075,0.0273518,0
47.2991,-48.0556,0.0218684,0
47.3769,-48.102,0.0162971,0
47.4557,-48.1469,0.0106721,0
47.5356,-48.19,0.0049836,0
47.6166,-48.2314,-0.000778122,0
47.6993,-48.2687,-0.00748222,0
47.7831,-48.3035,-0.0144793,0
47.8669,-48.339,-0.020617,0
47.9514,-48.3726,-0.0268182,0
48.0367,-48.4043,-0.0330926,0
48.1228,-48.4344,-0.0393621,0
48.2095,-48.4625,-0.0456805,0
48.297,-48.4887,-0.0520623,0
48.3851,-48.5128,-0.0585223,0
48.4737,-48.535,-0.0650408,0
48.5628,-48.5551,-0.0716131,0
48.6526,-48.5732,-0.0782439,0
48.7427,-48.5892,-0.0849383,0
48.8331,-48.6032,-0.0916717,0
48.9241,-48.615,-0.0984637,0
49.0152,-48.6248,-0.10528,0
49.1066,-48.6325,-0.112145,0
49.1982,-48.638,-0.119045,0
49.2899,-48.6415,-0.125978,0
49.3818,-48.6428,-0.132936,0
49.4737,-48.642,-0.139924,0
49.5656,-48.639,-0.146926,0
49.6574,-48.634,-0.153942,0
49.7491,-48.6268,-0.160969,0
49.8407,-48.6174,-0.168005,0
49.932,-48.6061,-0.175021,0
50.0234,-48.5933,-0.181813,0
50.1143,-48.5784,-0.188615,0
50.2027,-48.5526,-0.198068,0
50.2903,-48.5244,-0.207575,0
50.3772,-48.4942,-0.217013,0
50.4631,-48.4622,-0.226384,0
50.5482,-48.4283,-0.235685,0
50.6324,-48.393,-0.244753,0
50.716,-48.3565,-0.253586,0
50.7986,-48.3181,-0.262331,0
50.8802,-48.2781,-0.270969,0
50.9608,-48.2363,-0.279513,0
51.0404,-48.1928,-0.287951,0
51.1187,-48.1477,-0.296281,0
51.1961,-48.1009,-0.304494,0
51.2723,-48.0525,-0.312595,0
51.3473,-48.0026,-0.320583,0
51.421,-47.9511,-0.328439,0
51.4936,-47.8982,-0.336183,0
51.5649,-47.8437,-0.343786,0
51.6348,-47.7878,-0.351271,0
51.7034,-47.7305,-0.358615,0
51.7708,-47.6719,-0.365822,0
51.8367,-47.6118,-0.372892,0
51.6507,-47.2622,-0.477192,174
51.6829,-47.1778,-0.492807,174
51.7375,-47.1196,-0.499061,174
51.7575,-47.0268,-0.517047,174
51.8037,-46.9624,-0.524715,174
51.8492,-46.8981,-0.531903,174
51.9024,-46.8412,-0.535924,174
51.9737,-46.7997,-0.533526,174
52.0518,-46.7621,-0.528771,174
52.1057,-46.7038,-0.531337,174
52.1599,-46.6453,-0.533327,174
52.2172,-46.5886,-0.533948,174
52.2741,-46.5309,-0.534263,174
52.6033,-46.6491,-0.456262,0
52.6439,-46.5716,-0.461637,0
52.6829,-46.4935,-0.466828,0
52.7202,-46.4148,-0.471808,0
52.7561,-46.3355,-0.476579,0
52.7902,-46.2557,-0.481154,0
52.8227,-46.1754,-0.485519,0
52.8537,-46.0946,-0.489679,0
52.8829,-46.0133,-0.493639,0
52.9109,-45.9318,-0.497292,0
52.9402,-45.8511,-0.499982,0
52.9681,-45.7698,-0.502477,0
52.9943,-45.688,-0.504762,0
53.019,-45.6058,-0.506843,0
53.042,-45.5232,-0.508718,0
53.0631,-45.4401,-0.51049,0
53.0295,-45.3441,-0.524575,174
52.9571,-45.2422,-0.547064,174
52.8608,-45.1398,-0.57432,174
52.7158,-45.0341,-0.61211,174
52.64,-44.9456,-0.633017,174
52.4549,-44.8472,-0.678487,174
46.9155,-47.7904,0.049383,0
46.9874,-47.8451,0.0442121,0
47.0605,-47.8981,0.0389533,0
47.1348,-47.9497,0.0336213,0
47.2102,-47.9997,0.0282258,0
47.2867,-48.048,0.0227424,0
47.3644,-48.0947,0.0171906,0
47.4431,-48.1398,0.0115754,0
47.5229,-48.1832,0.00589668,0
47.6036,-48.2249,0.000139847,0
47.6859,-48.2631,-0.00632988,0
47.7699,-48.2976,-0.0135174,0
47.8534,-48.3334,-0.0196355,0
47.9379,-48.3674,-0.0258221,0
48.023,-48.3994,-0.0320965,0
48.109,-48.4297,-0.038366,0
48.1956,-48.4582,-0.0446697,0
48.283,-48.4846,-0.0510418,0
48.3709,-48.5091,-0.0574871,0
48.4595,-48.5316,-0.0639959,0
48.5486,-48.5521,-0.0705633,0
48.6382,-48.5704,-0.0771941,0
48.7283,-48.5868,-0.0838641,0
48.8187,-48.6011,-0.0906023,0
48.9095,-48.6133,-0.0973797,0
49.0006,-48.6234,-0.104191,0
49.092,-48.6314,-0.111056,0
49.1836,-48.6373,-0.117946,0
49.2753,-48.6411,-0.124875,0
49.3672,-48.6427,-0.131828,0
49.4591,-48.6422,-0.138801,0
49.5509,-48.6396,-0.145803,0
49.6428,-48.6349,-0.152819,0
49.7345,-48.6281,-0.15985,0
49.8261,-48.6191,-0.166882,0
49.9175,-48.608,-0.173923,0
50.0087,-48.5955,-0.180734,0
50.0998,-48.5809,-0.187531,0
50.1887,-48.5569,-0.19655,0
50.2764,-48.529,-0.206061,0
50.3634,-48.4992,-0.21551,0
50.4495,-48.4674,-0.224894,0
50.5347,-48.4338,-0.234211,0
50.6191,-48.3987,-0.243332,0
50.7027,-48.3624,-0.252189,0
50.7855,-48.3244,-0.260939,0
50.8673,-48.2846,-0.269606,0
50.948,-48.243,-0.278156,0
51.0277,-48.1998,-0.286608,0
51.1063,-48.155,-0.294958,0
51.1838,-48.1085,-0.303195,0
51.2602,-48.0603,-0.31132,0
51.3354,-48.0106,-0.319323,0
51.4094,-47.9594,-0.327199,0
51.4821,-47.9067,-0.334958,0
51.5536,-47.8525,-0.342585,0
51.6237,-47.7968,-0.350085,0
51.6926,-47.7397,-0.357453,0
51.7602,-47.6813,-0.364679,0
51.8262,-47.6215,-0.371774,0
51.6472,-47.2777,-0.473979,174
51.6776,-47.1909,-0.490467,174
51.7135,-47.1126,-0.50376,174
51.7501,-47.0371,-0.515779,174
51.7964,-46.9726,-0.523526,174
51.842,-46.9083,-0.53079,174
51.8937,-46.8501,-0.535384,174
51.9614,-46.8056,-0.534235,174
52.0393,-46.7682,-0.529564,174
52.1024,-46.7172,-0.52933,174
52.1508,-46.6543,-0.5332,174
52.2081,-46.5977,-0.53387,174
52.265,-46.5401,-0.534233,174
52.5966,-46.6614,-0.455383,0
52.6376,-46.584,-0.460793,0
52.6767,-46.506,-0.466012,0
52.7145,-46.4274,-0.471022,0
52.7505,-46.3482,-0.475832,0
52.7848,-46.2684,-0.480436,0
52.8177,-46.1882,-0.484836,0
52.8488,-46.1075,-0.48903,0
52.8783,-46.0263,-0.493024,0
52.9062,-45.9447,-0.496813,0
52.9357,-45.864,-0.499572,0
52.9637,-45.7828,-0.502096,0
52.9902,-45.7011,-0.504411,0
53.0152,-45.619,-0.50652,0
53.0385,-45.5364,-0.508429,0
53.0599,-45.4534,-0.510202,0
53.0436,-45.3613,-0.520318,174
52.9656,-45.2575,-0.544253,174
52.8965,-45.1597,-0.56529,174
52.7364,-45.0501,-0.606727,174
52.6451,-44.9584,-0.631353,174
52.4847,-44.8623,-0.67121,174
46.9254,-47.6737,0.0490656,0
46.9948,-47.7279,0.0440607,0
47.0653,-47.7807,0.0389875,0
47.1371,-47.832,0.0338361,0
47.21,-47.8817,0.0286066,0
47.2841,-47.9299,0.0233088,0
47.3591,-47.9766,0.0179377,0
47.4353,-48.0216,0.0124934,0
47.5125,-48.065,0.00698555,0
47.5907,-48.1067,0.00142403,0
47.6702,-48.1458,-0.00461113,0
47.7516,-48.1805,-0.0116717,0
47.8338,-48.2134,-0.0187908,0
47.9157,-48.2474,-0.0249041,0
47.9984,-48.2798,-0.0309637,0
48.0816,-48.3104,-0.0371014,0
48.1657,-48.339,-0.0433025,0
48.2505,-48.3658,-0.0495623,0
48.3359,-48.3907,-0.0558904,0
48.4219,-48.4137,-0.0622674,0
48.5084,-48.4349,-0.0686248,0
48.5954,-48.4541,-0.0750408,0
48.683,-48.4714,-0.0815203,0
48.7709,-48.4866,-0.0880535,0
48.8591,-48.4998,-0.0946258,0
48.9477,-48.511,-0.101247,0
49.0366,-48.5201,-0.107907,0
49.1257,-48.5272,-0.114606,0
49.2151,-48.5322,-0.12133,0
49.3045,-48.5352,-0.128093,0
49.3941,-48.5361,-0.134885,0
49.4836,-48.535,-0.141686,0
49.5731,-48.5317,-0.148508,0
49.6627,-48.5264,-0.155353,0
49.752,-48.519,-0.162204,0
49.8412,-48.5096,-0.169064,0
49.9302,-48.4981,-0.175925,0
50.0188,-48.4845,-0.182785,0
50.1073,-48.4693,-0.189494,0
50.1937,-48.4447,-0.198493,0
50.279,-48.4171,-0.207746,0
50.3638,-48.3883,-0.216725,0
50.4477,-48.3578,-0.225588,0
50.5309,-48.3255,-0.234367,0
50.6132,-48.2915,-0.243068,0
50.6947,-48.2557,-0.251672,0
50.7751,-48.2181,-0.260192,0
50.8547,-48.1789,-0.26862,0
50.9332,-48.138,-0.27694,0
51.0107,-48.0955,-0.285168,0
51.0872,-48.0513,-0.293288,0
51.1625,-48.0056,-0.301291,0
51.2368,-47.9582,-0.309191,0
51.3098,-47.9094,-0.31697,0
51.3817,-47.8591,-0.324631,0
51.4524,-47.8073,-0.33217,0
51.5218,-47.754,-0.339587,0
51.5901,-47.6994,-0.346872,0
51.657,-47.6433,-0.35403,0
51.7225,-47.586,-0.361056,0
51.7868,-47.5273,-0.367951,0
51.6438,-47.2322,-0.456679,174
51.6762,-47.1492,-0.472159,174
51.7075,-47.0675,-0.486932,174
51.7505,-46.9998,-0.496365,174
51.7963,-46.9359,-0.503987,174
51.8444,-46.8748,-0.510118,174
51.8984,-46.8194,-0.513589,174
51.9708,-46.7791,-0.510485,174
52.0805,-46.7673,-0.495084,174
52.0824,-46.6682,-0.514167,174
52.1328,-46.608,-0.516991,174
52.1866,-46.5499,-0.518277,174
52.2425,-46.4928,-0.518484,174
52.5341,-46.5866,-0.448908,0
52.5759,-46.5122,-0.453503,0
52.6146,-46.4362,-0.458376,0
52.6511,-46.3593,-0.463229,0
52.6859,-46.2817,-0.467883,0
52.7192,-46.2036,-0.472336,0
52.7509,-46.1251,-0.476598,0
52.781,-46.046,-0.480651,0
52.8095,-45.9665,-0.484504,0
52.8386,-45.8875,-0.487585,0
52.8671,-45.8084,-0.490202,0
52.8941,-45.7288,-0.492609,0
52.9196,-45.6488,-0.494816,0
52.9433,-45.5682,-0.496901,0
52.9646,-45.487,-0.498952,0
52.9844,-45.4054,-0.500803,0
53.0025,-45.3236,-0.502468,0
52.951,-45.2271,-0.520415,174
52.7247,-45.101,-0.579781,174
52.6033,-45.0029,-0.612829,174
52.5729,-44.9238,-0.623345,174
52.4463,-44.8347,-0.656169,174
46.9837,-47.7194,0.0448664,0
47.054,-47.7724,0.0398029,0
47.1255,-47.8239,0.0346564,0
47.1983,-47.8739,0.0294514,0
47.2721,-47.9224,0.0241584,0
47.347,-47.9692,0.0187922,0
47.423,-48.0145,0.0133674,0
47.5001,-48.0582,0.00786934,0
47.5781,-48.1002,0.00230782,0
47.6573,-48.1401,-0.00349297,0
47.7386,-48.1751,-0.0105437,0
47.8207,-48.2083,-0.017658,0
47.9027,-48.242,-0.0239471,0
47.9851,-48.2747,-0.029992,0
48.0683,-48.3056,-0.036115,0
48.1523,-48.3346,-0.0423113,0
48.237,-48.3617,-0.0485613,0
48.3223,-48.3869,-0.0548748,0
48.4082,-48.4101,-0.0612469,0
48.4946,-48.4317,-0.0676043,0
48.5816,-48.4512,-0.0740252,0
48.669,-48.4688,-0.0804852,0
48.7568,-48.4843,-0.0870086,0
48.845,-48.4978,-0.0935809,0
48.9336,-48.5093,-0.100187,0
49.0224,-48.5188,-0.106847,0
49.1116,-48.5262,-0.113537,0
49.2009,-48.5316,-0.120261,0
49.2902,-48.5349,-0.127013,0
49.3798,-48.5361,-0.133796,0
49.4693,-48.5353,-0.140597,0
49.5589,-48.5324,-0.147419,0
49.6484,-48.5274,-0.154264,0
49.7377,-48.5203,-0.16111,0
49.827,-48.5112,-0.167971,0
49.9159,-48.5,-0.174831,0
50.0047,-48.4868,-0.181686,0
50.0932,-48.4718,-0.188434,0
50.18,-48.4489,-0.197009,0
50.2654,-48.4216,-0.206271,0
50.3502,-48.3929,-0.215304,0
50.4344,-48.3628,-0.224181,0
50.5177,-48.3308,-0.232975,0
50.6002,-48.297,-0.241686,0
50.6817,-48.2615,-0.250304,0
50.7623,-48.2242,-0.258845,0
50.842,-48.1853,-0.267282,0
50.9208,-48.1446,-0.275627,0
50.9984,-48.1024,-0.283864,0
51.075,-48.0585,-0.291994,0
51.1505,-48.0129,-0.300026,0
51.225,-47.9659,-0.307941,0
51.2983,-47.9173,-0.315734,0
51.3704,-47.8672,-0.323425,0
51.4412,-47.8156,-0.330973,0
51.5109,-47.7626,-0.338415,0
51.5793,-47.7082,-0.345729,0
51.6464,-47.6524,-0.352902,0
51.7121,-47.5952,-0.359948,0
51.7766,-47.5367,-0.366857,0
51.6389,-47.246,-0.453983,174
51.6709,-47.1622,-0.469813,174
51.702,-47.0799,-0.484846,174
51.7431,-47.01,-0.495106,174
51.789,-46.9461,-0.502806,174
51.8357,-46.8836,-0.509524,174
51.8898,-46.8282,-0.513066,174
51.9586,-46.785,-0.511235,174
52.0495,-46.7585,-0.501913,174
52.0746,-46.6779,-0.513582,174
52.1248,-46.6176,-0.516565,174
52.1777,-46.559,-0.518216,174
52.2336,-46.502,-0.518472,174
52.5273,-46.5984,-0.448161,0
52.5694,-46.5241,-0.452785,0
52.6087,-46.4485,-0.45758,0
52.6454,-46.3716,-0.462472,0
52.6805,-46.2941,-0.467155,0
52.714,-46.2161,-0.471642,0
52.7459,-46.1376,-0.475925,0
52.7762,-46.0586,-0.480016,0
52.8051,-45.9792,-0.483898,0
52.8339,-45.9001,-0.48715,0
52.8627,-45.821,-0.489792,0
52.89,-45.7415,-0.492238,0
52.9157,-45.6615,-0.494479,0
52.9398,-45.5811,-0.496554,0
52.9613,-45.4999,-0.498639,0
52.9812,-45.4184,-0.500524,0
52.9997,-45.3366,-0.502219,0
52.9592,-45.2423,-0.51761,174
52.7576,-45.1198,-0.571164,174
52.6124,-45.0164,-0.61007,174
52.5777,-44.9363,-0.621701,174
52.4783,-44.85,-0.648166,174
46.9726,-47.7108,0.0456672,0
47.0427,-47.764,0.0406232,0
47.1141,-47.8158,0.0354865,0
47.1866,-47.8661,0.0302863,0
47.2603,-47.9147,0.0249982,0
47.3351,-47.9619,0.0196564,0
47.4109,-48.0074,0.0142365,0
47.4877,-48.0513,0.00874825,0
47.5656,-48.0936,0.0031916,0
47.6445,-48.1342,-0.00240898,0
47.7256,-48.1696,-0.00941093,0
47.8076,-48.2031,-0.0165154,0
47.8895,-48.2366,-0.0229852,0
47.9719,-48.2697,-0.0290252,0
48.055,-48.3008,-0.0351385,0
48.1389,-48.3301,-0.0413201,0
48.2234,-48.3575,-0.0475603,0
48.3087,-48.383,-0.0538641,0
48.3945,-48.4066,-0.0602215,0
48.4808,-48.4284,-0.0665887,0
48.5677,-48.4482,-0.0729949,0
48.655,-48.4661,-0.0794549,0
48.7428,-48.482,-0.0859685,0
48.8309,-48.4958,-0.092531,0
48.9195,-48.5076,-0.0991277,0
49.0083,-48.5174,-0.105778,0
49.0973,-48.5252,-0.112468,0
49.1866,-48.5309,-0.119181,0
49.276,-48.5345,-0.125934,0
49.3655,-48.5361,-0.132707,0
49.4551,-48.5356,-0.139509,0
49.5446,-48.533,-0.14634,0
49.6341,-48.5283,-0.153171,0
49.7235,-48.5216,-0.160016,0
49.8127,-48.5128,-0.166877,0
49.9018,-48.5019,-0.173737,0
49.9906,-48.489,-0.180602,0
50.0792,-48.4743,-0.187389,0
50.1662,-48.453,-0.195529,0
50.2519,-48.4261,-0.204802,0
50.3367,-48.3976,-0.213888,0
50.421,-48.3677,-0.222765,0
50.5045,-48.336,-0.231584,0
50.587,-48.3025,-0.240304,0
50.6688,-48.2673,-0.248942,0
50.7495,-48.2303,-0.257492,0
50.8294,-48.1916,-0.265949,0
50.9083,-48.1512,-0.274308,0
50.9862,-48.1092,-0.282555,0
51.0629,-48.0655,-0.290715,0
51.1387,-48.0203,-0.298762,0
51.2132,-47.9735,-0.306681,0
51.2866,-47.9251,-0.314504,0
51.359,-47.8753,-0.322204,0
51.43,-47.8239,-0.329777,0
51.4999,-47.7711,-0.337238,0
51.5685,-47.7169,-0.344567,0
51.6358,-47.6613,-0.351769,0
51.7018,-47.6044,-0.358835,0
51.7664,-47.5461,-0.365768,0
51.634,-47.2599,-0.451265,174
51.6656,-47.1751,-0.467448,174
51.7146,-47.1114,-0.475889,174
51.7357,-47.0202,-0.493833,174
51.7817,-46.9563,-0.501611,174
51.8271,-46.8925,-0.508902,174
51.8812,-46.8371,-0.512531,174
51.9464,-46.7909,-0.511973,174
52.0236,-46.7536,-0.50712,174
52.0685,-46.689,-0.512447,174
52.1168,-46.6272,-0.516129,174
52.1687,-46.5679,-0.518146,174
52.2247,-46.5111,-0.518452,174
52.2995,-46.4658,-0.512789,174
52.5627,-46.536,-0.452062,0
52.6027,-46.4607,-0.456789,0
52.6397,-46.3839,-0.461701,0
52.675,-46.3065,-0.466423,0
52.7088,-46.2286,-0.470939,0
52.741,-46.1502,-0.475256,0
52.7716,-46.0713,-0.479382,0
52.8005,-45.9919,-0.483293,0
52.8291,-45.9126,-0.486706,0
52.8582,-45.8337,-0.489382,0
52.8858,-45.7542,-0.491862,0
52.9117,-45.6743,-0.494137,0
52.9361,-45.5939,-0.496213,0
52.958,-45.5129,-0.498322,0
52.9782,-45.4314,-0.500241,0
52.9969,-45.3497,-0.50196,0
52.9677,-45.2576,-0.514711,174
52.7911,-45.1389,-0.562365,174
52.6318,-45.0318,-0.604836,174
52.5826,-44.9488,-0.620046,174
52.5036,-44.8646,-0.641737,174
46.981,-47.5983,0.0454328,0
47.0488,-47.6512,0.0405549,0
47.1178,-47.7027,0.0355842,0
47.1879,-47.7527,0.0305549,0
47.2591,-47.8012,0.0254426,0
47.3315,-47.8483,0.0202619,0
47.4048,-47.8937,0.0150178,0
47.4792,-47.9376,0.00969551,0
47.5547,-47.9799,0.00431953,0
47.6311,-48.0206,-0.0011248,0
47.7095,-48.057,-0.00767265,0
47.789,-48.0909,-0.0145721,0
47.8691,-48.123,-0.0215203,0
47.9495,-48.1546,-0.0280633,0
48.0302,-48.1861,-0.0339764,0
48.1115,-48.2159,-0.0399627,0
48.1936,-48.2438,-0.0460125,0
48.2762,-48.2699,-0.0521307,0
48.3596,-48.2941,-0.0582928,0
48.4434,-48.3164,-0.0645184,0
48.5279,-48.3368,-0.0708025,0
48.6129,-48.3554,-0.0771307,0
48.6982,-48.3719,-0.0835076,0
48.784,-48.3866,-0.0899236,0
48.8702,-48.3993,-0.0963738,0
48.9566,-48.41,-0.102863,0
49.0433,-48.4189,-0.109367,0
49.1301,-48.4257,-0.115895,0
49.2173,-48.4306,-0.122468,0
49.3045,-48.4334,-0.12905,0
49.3917,-48.4343,-0.135671,0
49.4791,-48.4331,-0.142311,0
49.5663,-48.4299,-0.148967,0
49.6536,-48.4247,-0.155637,0
49.7408,-48.4175,-0.162311,0
49.8277,-48.4082,-0.168996,0
49.9145,-48.3971,-0.175646,0
50.001,-48.3839,-0.182297,0
50.0872,-48.3688,-0.188937,0
50.172,-48.3475,-0.196882,0
50.2555,-48.3216,-0.205651,0
50.3384,-48.2938,-0.214382,0
50.4204,-48.2642,-0.223034,0
50.5016,-48.2328,-0.231608,0
50.582,-48.1997,-0.240104,0
50.6616,-48.1649,-0.248512,0
50.7402,-48.1284,-0.256833,0
50.8179,-48.0903,-0.26506,0
50.8946,-48.0505,-0.273195,0
50.9703,-48.0091,-0.281232,0
51.045,-47.9661,-0.289157,0
51.1187,-47.9216,-0.296984,0
51.1912,-47.8755,-0.304699,0
51.2627,-47.8279,-0.312302,0
51.333,-47.7789,-0.319797,0
51.402,-47.7284,-0.32717,0
51.4699,-47.6765,-0.334421,0
51.5366,-47.6233,-0.341545,0
51.602,-47.5687,-0.348537,0
51.6662,-47.5128,-0.355412,0
51.6233,-47.3296,-0.406751,174
51.632,-47.2163,-0.433661,174
51.6643,-47.1338,-0.449349,174
51.694,-47.0511,-0.464885,174
51.7361,-46.9833,-0.474614,174
51.7816,-46.9199,-0.482264,174
51.8322,-46.8617,-0.487431,174
51.886,-46.8065,-0.490869,174
51.9557,-46.7646,-0.488342,174
52.013,-46.7112,-0.489727,174
52.0521,-46.6432,-0.496605,174
52.102,-46.5837,-0.499383,174
52.1513,-46.5235,-0.501813,174
52.213,-46.4715,-0.499886,174
52.4603,-46.5377,-0.441369,0
52.5013,-46.4651,-0.445871,0
52.5407,-46.3918,-0.450212,0
52.5784,-46.3177,-0.454391,0
52.6132,-46.2422,-0.458805,0
52.6459,-46.1659,-0.46318,0
52.677,-46.089,-0.467365,0
52.7066,-46.0118,-0.47134,0
52.7348,-45.9341,-0.475055,0
52.7644,-45.8572,-0.477809,0
52.7923,-45.7798,-0.480378,0
52.8187,-45.7018,-0.482785,0
52.8428,-45.6232,-0.485182,0
52.8653,-45.5441,-0.487385,0
52.8862,-45.4647,-0.489401,0
52.9056,-45.3849,-0.491222,0
52.9234,-45.3048,-0.492853,0
52.9396,-45.2244,-0.494289,0
52.6286,-45.0828,-0.576577,174
52.542,-44.9926,-0.601932,174
52.5019,-44.9135,-0.615093,174
52.4721,-44.8377,-0.625097,174
47.038,-47.6429,0.0413264,0
47.1067,-47.6946,0.036385,0
47.1766,-47.7448,0.0313605,0
47.2477,-47.7936,0.0262629,0
47.3198,-47.8409,0.021092,0
47.3931,-47.8866,0.0158576,0
47.4673,-47.9307,0.01055,0
47.5426,-47.9733,0.00518379,0
47.6188,-48.0142,-0.000255661,0
47.6968,-48.0514,-0.00658379,0
47.7762,-48.0856,-0.0134686,0
47.8563,-48.118,-0.020407,0
47.9368,-48.1494,-0.0271209,0
48.0173,-48.1812,-0.033034,0
48.0985,-48.2113,-0.0390008,0
48.1805,-48.2395,-0.0450457,0
48.263,-48.2659,-0.0511443,0
48.3463,-48.2904,-0.0573113,0
48.4302,-48.313,-0.0635271,0
48.5145,-48.3337,-0.0697967,0
48.5993,-48.3525,-0.076115,0
48.6846,-48.3694,-0.0824822,0
48.7703,-48.3844,-0.0888885,0
48.8563,-48.3974,-0.0953387,0
48.9427,-48.4085,-0.101833,0
49.0294,-48.4176,-0.108327,0
49.1163,-48.4248,-0.114855,0
49.2033,-48.43,-0.121413,0
49.2905,-48.4331,-0.128,0
49.3779,-48.4343,-0.134621,0
49.4652,-48.4334,-0.141247,0
49.5525,-48.4305,-0.147907,0
49.6397,-48.4257,-0.154572,0
49.7269,-48.4187,-0.161247,0
49.8139,-48.4098,-0.167927,0
49.9006,-48.399,-0.174587,0
49.9872,-48.3862,-0.181232,0
50.0734,-48.3714,-0.187878,0
50.1587,-48.3514,-0.195505,0
50.2423,-48.3259,-0.20426,0
50.3252,-48.2983,-0.21299,0
50.4073,-48.269,-0.221657,0
50.4888,-48.2379,-0.230251,0
50.5693,-48.2051,-0.238757,0
50.6489,-48.1706,-0.247175,0
50.7277,-48.1344,-0.255514,0
50.8055,-48.0965,-0.263752,0
50.8825,-48.0569,-0.271901,0
50.9584,-48.0158,-0.279958,0
51.0332,-47.9731,-0.287902,0
51.107,-47.9288,-0.295744,0
51.1798,-47.8829,-0.303483,0
51.2514,-47.8356,-0.311105,0
51.3218,-47.7868,-0.318605,0
51.3911,-47.7366,-0.325998,0
51.4591,-47.6849,-0.333268,0
51.5261,-47.6319,-0.340407,0
51.5916,-47.5775,-0.347429,0
51.656,-47.5218,-0.354323,0
51.7191,-47.4647,-0.361081,0
51.6271,-47.23,-0.430935,174
51.659,-47.1466,-0.446979,174
51.6885,-47.0633,-0.46278,174
51.7288,-46.9934,-0.473349,174
51.7744,-46.93,-0.481079,174
51.8236,-46.8704,-0.486841,174
51.8774,-46.8153,-0.490352,174
51.9436,-46.7705,-0.489121,174
52.0487,-46.7561,-0.474505,174
52.0441,-46.6526,-0.49613,174
52.0941,-46.5932,-0.498964,174
52.1434,-46.5332,-0.501449,174
52.1991,-46.4771,-0.501498,174
52.4537,-46.5492,-0.440637,0
52.4948,-46.4767,-0.445163,0
52.5345,-46.4035,-0.449523,0
52.5726,-46.3295,-0.453737,0
52.6078,-46.2543,-0.458093,0
52.6408,-46.1781,-0.462492,0
52.6722,-46.1013,-0.466711,0
52.702,-46.0241,-0.470724,0
52.7302,-45.9464,-0.474538,0
52.7598,-45.8695,-0.477394,0
52.788,-45.7922,-0.479982,0
52.8148,-45.7143,-0.482385,0
52.8391,-45.6358,-0.484806,0
52.8619,-45.5568,-0.487048,0
52.883,-45.4774,-0.489084,0
52.9027,-45.3977,-0.490939,0
52.9206,-45.3176,-0.492609,0
52.9371,-45.2372,-0.494064,0
52.6596,-45.1008,-0.568171,174
52.5466,-45.0051,-0.600223,174
52.524,-44.9282,-0.609144,174
52.4953,-44.852,-0.618996,174
47.0271,-47.6345,0.0421125,0
47.0957,-47.6865,0.037176,0
47.1655,-47.7369,0.0321711,0
47.2363,-47.7859,0.0270734,0
47.3083,-47.8334,0.0219172,0
47.3813,-47.8794,0.0166877,0
47.4555,-47.9238,0.0113996,0
47.5305,-47.9666,0.00603828,0
47.6066,-48.0078,0.00061348,0
47.6843,-48.0458,-0.00549492,0
47.7635,-48.0803,-0.0123748,0
47.8434,-48.113,-0.0192986,0
47.9241,-48.1441,-0.0261834,0
48.0045,-48.1763,-0.0320867,0
48.0855,-48.2066,-0.0380437,0
48.1673,-48.2351,-0.0440838,0
48.2498,-48.2618,-0.0501678,0
48.333,-48.2866,-0.0563201,0
48.4167,-48.3095,-0.0625359,0
48.501,-48.3305,-0.0687957,0
48.5858,-48.3497,-0.0751092,0
48.6709,-48.3669,-0.0814715,0
48.7566,-48.3821,-0.087868,0
48.8427,-48.3955,-0.0943084,0
48.929,-48.4068,-0.100793,0
49.0155,-48.4163,-0.107292,0
49.1024,-48.4238,-0.11381,0
49.1895,-48.4293,-0.120368,0
49.2767,-48.4328,-0.12695,0
49.3639,-48.4342,-0.133561,0
49.4512,-48.4337,-0.140187,0
49.5385,-48.4311,-0.146838,0
49.6259,-48.4266,-0.153508,0
49.713,-48.42,-0.160187,0
49.8,-48.4114,-0.166867,0
49.8869,-48.4009,-0.173527,0
49.9735,-48.3883,-0.180178,0
50.0598,-48.3738,-0.186823,0
50.1452,-48.3552,-0.194128,0
50.229,-48.3301,-0.202858,0
50.312,-48.3028,-0.211608,0
50.3944,-48.2738,-0.220285,0
50.4758,-48.243,-0.228884,0
50.5565,-48.2105,-0.237404,0
50.6363,-48.1762,-0.245842,0
50.7152,-48.1403,-0.254186,0
50.7932,-48.1026,-0.262448,0
50.8702,-48.0634,-0.270607,0
50.9463,-48.0225,-0.278674,0
51.0213,-47.98,-0.286642,0
51.0953,-47.9359,-0.294504,0
51.1682,-47.8903,-0.302262,0
51.24,-47.8432,-0.309899,0
51.3106,-47.7947,-0.317424,0
51.3802,-47.7447,-0.324831,0
51.4484,-47.6932,-0.332116,0
51.5155,-47.6404,-0.339284,0
51.5813,-47.5862,-0.34632,0
51.6459,-47.5307,-0.353234,0
51.7091,-47.4739,-0.360016,0
51.6222,-47.2437,-0.428187,174
51.6537,-47.1595,-0.444589,174
51.683,-47.0756,-0.460658,174
51.7214,-47.0035,-0.472072,174
51.7672,-46.94,-0.47988,174
51.815,-46.8792,-0.48624,174
51.8689,-46.8241,-0.489823,174
51.9314,-46.7763,-0.489886,174
52.0183,-46.7475,-0.481418,174
52.0381,-46.6635,-0.495017,174
52.0862,-46.6027,-0.498536,174
52.1356,-46.5428,-0.501077,174
52.1854,-46.4828,-0.503021,174
52.2734,-46.4474,-0.492788,174
52.4884,-46.4883,-0.444455,0
52.5283,-46.4152,-0.448845,0
52.5666,-46.3414,-0.453068,0
52.6025,-46.2664,-0.457375,0
52.6356,-46.1902,-0.461813,0
52.6673,-46.1136,-0.466052,0
52.6973,-46.0364,-0.470095,0
52.7259,-45.9588,-0.473947,0
52.7551,-45.8818,-0.47696,0
52.7836,-45.8045,-0.479577,0
52.8105,-45.7268,-0.482013,0
52.8353,-45.6483,-0.484435,0
52.8583,-45.5694,-0.486696,0
52.8798,-45.49,-0.488781,0
52.8996,-45.4104,-0.490661,0
52.918,-45.3304,-0.49235,0
52.9346,-45.2501,-0.493845,0
52.6912,-45.1192,-0.559593,174
52.5512,-45.0177,-0.598502,174
52.5331,-44.9412,-0.606406,174
52.496,-44.8635,-0.618437,174
47.0344,-47.526,0.0419465,0
47.1007,-47.5777,0.0371711,0
47.168,-47.6279,0.0323273,0
47.2366,-47.6767,0.0274055,0
47.3062,-47.7241,0.0224104,0
47.377,-47.7699,0.0173469,0
47.4487,-47.8143,0.012215,0
47.5215,-47.8571,0.00701973,0
47.5951,-47.8984,0.00176582,0
47.6702,-47.9371,-0.00394707,0
47.747,-47.9719,-0.010617,0
47.8246,-48.0051,-0.0173504,0
47.903,-48.0364,-0.0241326,0
47.9819,-48.0661,-0.0309637,0
48.0607,-48.0965,-0.0368572,0
48.1401,-48.1255,-0.0427019,0
48.2202,-48.1527,-0.0486102,0
48.3009,-48.1781,-0.0545721,0
48.3823,-48.2017,-0.0606023,0
48.4641,-48.2234,-0.0666717,0
48.5466,-48.2433,-0.0728045,0
48.6295,-48.2613,-0.0789812,0
48.7128,-48.2774,-0.0852019,0
48.7965,-48.2917,-0.0914666,0
48.8805,-48.304,-0.0977703,0
48.9649,-48.3144,-0.104103,0
49.0495,-48.323,-0.110466,0
49.1343,-48.3295,-0.116862,0
49.2193,-48.3342,-0.123283,0
49.3045,-48.3369,-0.129723,0
49.3895,-48.3377,-0.136188,0
49.4748,-48.3365,-0.142663,0
49.5599,-48.3334,-0.149142,0
49.6451,-48.3283,-0.155641,0
49.7301,-48.3212,-0.162136,0
49.815,-48.3123,-0.16863,0
49.8997,-48.3014,-0.175134,0
49.9841,-48.2885,-0.181618,0
50.0682,-48.2737,-0.188093,0
50.1513,-48.2545,-0.195378,0
50.233,-48.2297,-0.203801,0
50.3141,-48.2032,-0.212165,0
50.3942,-48.1746,-0.220578,0
50.4735,-48.1441,-0.228962,0
50.5521,-48.1119,-0.237258,0
50.6298,-48.078,-0.24548,0
50.7066,-48.0425,-0.25361,0
50.7827,-48.0054,-0.261657,0
50.8576,-47.9666,-0.269601,0
50.9316,-47.9263,-0.277458,0
51.0047,-47.8845,-0.285207,0
51.0767,-47.8411,-0.292848,0
51.1477,-47.7962,-0.300397,0
51.2174,-47.7498,-0.307839,0
51.2862,-47.7021,-0.315158,0
51.3537,-47.6529,-0.32237,0
51.4202,-47.6023,-0.32945,0
51.4853,-47.5504,-0.336423,0
51.5494,-47.4971,-0.343268,0
51.6121,-47.4426,-0.349982,0
51.6066,-47.3069,-0.385656,174
51.6203,-47.2004,-0.410799,174
51.6524,-47.1185,-0.426693,174
51.6805,-47.0348,-0.443011,174
51.7218,-46.9669,-0.453043,174
51.7672,-46.9039,-0.460722,174
51.8201,-46.8486,-0.464884,174
