43.8635,-33.8981,0.278763,0
43.9824,-33.8551,0.274525,0
44.1001,-33.8094,0.270345,0
44.2166,-33.761,0.266224,0
44.3317,-33.71,0.262181,0
44.4455,-33.6565,0.258206,0
44.5579,-33.6004,0.2543,0
44.6688,-33.5418,0.250452,0
44.778,-33.4808,0.246693,0
44.8859,-33.4174,0.243011,0
44.992,-33.3515,0.239398,0
45.0964,-33.2834,0.235872,0
45.1987,-33.2123,0.23222,0
45.2976,-33.1365,0.228021,0
45.3945,-33.0587,0.223909,0
45.4895,-32.9789,0.219905,0
45.5825,-32.8972,0.216009,0
45.6735,-32.8137,0.21222,0
45.7624,-32.7282,0.208538,0
45.8493,-32.6411,0.204974,0
45.9341,-32.5521,0.201507,0
46.0168,-32.4615,0.198167,0
46.0972,-32.3693,0.194935,0
46.1755,-32.2755,0.19181,0
46.2516,-32.1801,0.188802,0
46.3255,-32.0833,0.185911,0
46.3971,-31.985,0.183138,0
46.4665,-31.8853,0.180482,0
46.5335,-31.7843,0.177933,0
46.5983,-31.682,0.175511,0
46.6607,-31.5785,0.173206,0
46.7208,-31.4738,0.171019,0
46.7784,-31.3679,0.168958,0
46.8337,-31.261,0.167005,0
46.8867,-31.1529,0.165179,0
46.938,-31.0444,0.163665,0
46.9873,-30.9349,0.162366,0
47.0341,-30.8246,0.161185,0
47.0787,-30.7133,0.16014,0
47.1206,-30.6012,0.159202,0
47.1602,-30.4883,0.158392,0
47.1974,-30.3746,0.157708,0
47.232,-30.2602,0.157161,0
47.2642,-30.1452,0.156722,0
47.2939,-30.0295,0.156409,0
47.3211,-29.9132,0.156214,0
47.3458,-29.7964,0.156155,0
47.368,-29.6792,0.156224,0
39.0672,-33.033,0.415179,0
39.1671,-33.1145,0.413353,0
39.2689,-33.1937,0.411487,0
39.3726,-33.2706,0.409603,0
39.4783,-33.345,0.407698,0
39.5856,-33.417,0.405775,0
39.6948,-33.4864,0.403831,0
39.8056,-33.5533,0.401868,0
39.9179,-33.6179,0.399984,0
40.0316,-33.6803,0.398187,0
40.1475,-33.7384,0.39595,0
40.2663,-33.7904,0.392796,0
40.3872,-33.8374,0.389056,0
40.5091,-33.8814,0.385316,0
40.632,-33.9224,0.381556,0
40.7557,-33.9605,0.377796,0
40.8802,-33.9956,0.374027,0
41.0055,-34.0277,0.370267,0
41.1314,-34.0567,0.366497,0
41.2578,-34.0828,0.362738,0
41.3848,-34.1058,0.358978,0
41.5122,-34.1257,0.355218,0
41.64,-34.1426,0.351478,0
41.7681,-34.1564,0.347747,0
41.8963,-34.1672,0.344027,0
42.0248,-34.1749,0.340325,0
42.1533,-34.1796,0.336634,0
42.2818,-34.1812,0.332972,0
42.4102,-34.1797,0.329329,0
42.5384,-34.1752,0.325706,0
42.6665,-34.1677,0.322113,0
42.794,-34.1536,0.317728,0
42.9208,-34.1351,0.31304,0
43.0469,-34.1136,0.308382,0
43.1723,-34.0892,0.303782,0
43.297,-34.0619,0.299222,0
43.4207,-34.0318,0.29472,0
43.5435,-33.9988,0.290267,0
43.6654,-33.963,0.285872,0
43.7862,-33.9244,0.281527,0
43.9059,-33.8831,0.277249,0
44.0244,-33.8391,0.27303,0
44.1416,-33.7925,0.26888,0
44.2577,-33.7432,0.264788,0
44.3723,-33.6913,0.260755,0
45.6917,-32.5907,0.212767,0
45.7756,-32.5057,0.20932,0
45.8576,-32.419,0.205989,0
45.9374,-32.3307,0.202757,0
46.0152,-32.2408,0.199632,0
46.0908,-32.1494,0.196634,0
46.1643,-32.0564,0.193724,0
46.2356,-31.9621,0.19095,0
46.3048,-31.8663,0.188265,0
46.3716,-31.7692,0.185706,0
46.4363,-31.6708,0.183275,0
46.4987,-31.5711,0.180931,0
46.5589,-31.4703,0.178724,0
46.6168,-31.3683,0.176624,0
46.6723,-31.2651,0.174642,0
46.7255,-31.161,0.172777,0
46.777,-31.0561,0.171185,0
46.8266,-30.9505,0.169837,0
46.8741,-30.8439,0.168597,0
46.9191,-30.7364,0.167484,0
46.9616,-30.628,0.166497,0
47.0019,-30.5188,0.165618,0
47.0398,-30.4088,0.164866,0
47.0752,-30.2981,0.164232,0
47.1083,-30.1867,0.163724,0
47.1389,-30.0746,0.163333,0
47.1672,-29.962,0.16306,0
47.1929,-29.8488,0.162913,0
47.2162,-29.7351,0.162894,0
47.237,-29.621,0.162982,0
39.1015,-32.8463,0.415237,0
39.197,-32.9269,0.41347,0
39.2945,-33.0052,0.411683,0
39.3938,-33.0813,0.409866,0
39.495,-33.155,0.40804,0
39.5979,-33.2264,0.406175,0
39.7027,-33.2954,0.40431,0
39.8089,-33.3619,0.402415,0
39.917,-33.4259,0.400511,0
40.0266,-33.4874,0.398587,0
40.1376,-33.5463,0.396634,0
40.2505,-33.6017,0.394446,0
40.3668,-33.6493,0.390833,0
40.4842,-33.6941,0.38721,0
40.6026,-33.736,0.383568,0
40.7218,-33.775,0.379925,0
40.842,-33.8112,0.376282,0
40.9628,-33.8445,0.37263,0
41.0844,-33.8748,0.368988,0
41.2066,-33.9022,0.365335,0
41.3293,-33.9267,0.361693,0
41.4525,-33.9482,0.35804,0
41.5762,-33.9668,0.354417,0
41.7001,-33.9824,0.350775,0
41.8243,-33.995,0.347161,0
41.9487,-34.0047,0.343568,0
42.0731,-34.0115,0.339984,0
42.1977,-34.0152,0.336409,0
42.3223,-34.016,0.332864,0
42.4467,-34.0138,0.329329,0
42.5711,-34.0087,0.325823,0
42.6951,-34.0007,0.322357,0
42.8185,-33.9854,0.317864,0
42.9413,-33.9668,0.313314,0
43.0635,-33.9454,0.308821,0
43.1849,-33.9212,0.304368,0
43.3056,-33.8941,0.299954,0
43.4254,-33.8643,0.295599,0
43.5443,-33.8318,0.291292,0
43.6622,-33.7965,0.287044,0
43.7791,-33.7586,0.282845,0
43.895,-33.718,0.278714,0
44.0097,-33.6747,0.274622,0
44.1232,-33.6289,0.270609,0
44.2355,-33.5806,0.266654,0
44.3463,-33.5297,0.262767,0
44.456,-33.4763,0.258948,0
44.5641,-33.4206,0.255198,0
44.6709,-33.3624,0.251517,0
44.776,-33.3018,0.247904,0
44.8797,-33.239,0.244368,0
44.9817,-33.1738,0.240902,0
45.0822,-33.1064,0.237523,0
45.1808,-33.0367,0.234183,0
45.2757,-32.9621,0.23015,0
45.3688,-32.8855,0.226224,0
45.46,-32.8071,0.222396,0
45.5492,-32.7268,0.218665,0
45.6365,-32.6446,0.215052,0
45.7217,-32.5607,0.211536,0
45.805,-32.4751,0.208128,0
45.8862,-32.3879,0.204827,0
45.9653,-32.299,0.201634,0
46.0423,-32.2085,0.198558,0
46.1172,-32.1165,0.195589,0
46.1898,-32.0231,0.192728,0
46.2605,-31.9282,0.189984,0
46.3288,-31.832,0.187347,0
46.3948,-31.7344,0.184827,0
46.4587,-31.6355,0.182425,0
46.5203,-31.5354,0.18014,0
46.5797,-31.4342,0.177962,0
46.6367,-31.3318,0.175911,0
46.6915,-31.2282,0.173968,0
46.7439,-31.1237,0.172132,0
46.7949,-31.0187,0.170696,0
46.8438,-30.9127,0.169388,0
46.8903,-30.8058,0.168187,0
46.9345,-30.698,0.167112,0
46.9762,-30.5893,0.166165,0
47.0156,-30.4798,0.165335,0
47.0527,-30.3696,0.164632,0
47.0873,-30.2586,0.164036,0
47.1195,-30.147,0.163577,0
47.1492,-30.0347,0.163226,0
47.1766,-29.9218,0.162991,0
47.2015,-29.8085,0.162894,0
47.2239,-29.6946,0.162904,0
47.2439,-29.5803,0.16305,0
39.1352,-32.8752,0.414613,0
39.2314,-32.955,0.412835,0
39.3295,-33.0325,0.411038,0
39.4295,-33.1077,0.409222,0
39.5313,-33.1806,0.407386,0
39.6349,-33.2512,0.405521,0
39.7402,-33.3193,0.403636,0
39.8472,-33.3849,0.401741,0
39.9556,-33.448,0.399827,0
40.0658,-33.5086,0.397894,0
40.1773,-33.5666,0.39595,0
40.2916,-33.6189,0.393157,0
40.4084,-33.6655,0.389544,0
40.5261,-33.7093,0.385921,0
40.6448,-33.7502,0.382279,0
40.7645,-33.7882,0.378636,0
40.8848,-33.8233,0.374984,0
41.0059,-33.8556,0.371331,0
41.1277,-33.8849,0.367689,0
41.2502,-33.9113,0.364036,0
41.373,-33.9347,0.360394,0
41.4964,-33.9552,0.356751,0
41.6201,-33.9727,0.353118,0
41.7441,-33.9872,0.349495,0
41.8684,-33.9988,0.345882,0
41.9929,-34.0075,0.342298,0
42.1174,-34.0131,0.338714,0
42.242,-34.0158,0.33515,0
42.3666,-34.0156,0.331605,0
42.4909,-34.0124,0.328089,0
42.6151,-34.0062,0.324583,0
42.7391,-33.9958,0.320823,0
42.8623,-33.9791,0.316243,0
42.9848,-33.9595,0.311712,0
43.1067,-33.9371,0.30723,0
43.2279,-33.9119,0.302786,0
43.3483,-33.8839,0.298402,0
43.4677,-33.8531,0.294066,0
43.5863,-33.8195,0.289779,0
43.7039,-33.7833,0.28555,0
43.8205,-33.7444,0.281361,0
43.9359,-33.7029,0.277249,0
44.0502,-33.6587,0.273196,0
44.1632,-33.612,0.269202,0
44.2749,-33.5628,0.265277,0
44.3855,-33.511,0.2614,0
44.4945,-33.4568,0.257601,0
44.6022,-33.4002,0.25389,0
44.7084,-33.3411,0.250218,0
44.813,-33.2798,0.246644,0
44.9161,-33.2161,0.243138,0
45.0176,-33.1502,0.2397,0
45.1173,-33.082,0.236341,0
45.2147,-33.0104,0.232737,0
45.309,-32.9352,0.228753,0
45.4014,-32.8579,0.224847,0
45.4919,-32.7787,0.221048,0
45.5805,-32.6978,0.217366,0
45.667,-32.615,0.213782,0
45.7516,-32.5305,0.210306,0
45.8341,-32.4443,0.206937,0
45.9145,-32.3565,0.203685,0
45.993,-32.267,0.20053,0
46.0691,-32.176,0.197493,0
46.1433,-32.0835,0.194564,0
46.2152,-31.9896,0.191741,0
46.2849,-31.8942,0.189036,0
46.3525,-31.7975,0.186448,0
46.4178,-31.6994,0.183968,0
46.4809,-31.6001,0.181595,0
46.5416,-31.4996,0.179359,0
46.6002,-31.3979,0.17722,0
46.6564,-31.2951,0.175208,0
46.7103,-31.1912,0.173304,0
46.7622,-31.0865,0.171595,0
46.8126,-30.9812,0.170208,0
46.8606,-30.8749,0.168948,0
46.9062,-30.7676,0.167796,0
46.9496,-30.6595,0.166771,0
46.9905,-30.5505,0.165863,0
47.0291,-30.4407,0.165071,0
47.0652,-30.3302,0.164407,0
47.0989,-30.219,0.163861,0
47.1303,-30.1071,0.163431,0
47.1591,-29.9947,0.163138,0
47.1857,-29.8816,0.162943,0
47.2097,-29.7681,0.162884,0
47.2313,-29.6541,0.162943,0
39.1691,-32.9038,0.413978,0
39.266,-32.9828,0.4122,0
39.3648,-33.0595,0.410394,0
39.4654,-33.1339,0.408568,0
39.5679,-33.206,0.406732,0
39.6721,-33.2756,0.404857,0
39.778,-33.3429,0.402972,0
39.8855,-33.4076,0.401068,0
39.9946,-33.4698,0.399144,0
40.1052,-33.5295,0.3972,0
40.2173,-33.5865,0.395247,0
40.333,-33.6358,0.391878,0
40.4501,-33.6814,0.388265,0
40.5682,-33.7242,0.384632,0
40.6872,-33.764,0.380989,0
40.8071,-33.801,0.377347,0
40.9277,-33.8351,0.373695,0
41.0491,-33.8663,0.370042,0
41.1711,-33.8946,0.36639,0
41.2938,-33.9199,0.362738,0
41.4168,-33.9423,0.359095,0
41.5402,-33.9617,0.355462,0
41.6641,-33.9782,0.351829,0
41.7882,-33.9917,0.348216,0
41.9127,-34.0022,0.344603,0
42.0371,-34.0098,0.341009,0
42.1616,-34.0144,0.337445,0
42.2862,-34.0161,0.33389,0
42.4107,-34.0148,0.330355,0
42.535,-34.0105,0.326839,0
42.6592,-34.0033,0.323353,0
42.7829,-33.9902,0.319193,0
42.9059,-33.9725,0.314632,0
43.0282,-33.9519,0.31012,0
43.1498,-33.9285,0.305657,0
43.2708,-33.9023,0.301234,0
43.3908,-33.8732,0.296849,0
43.51,-33.8415,0.292532,0
43.6282,-33.807,0.288265,0
43.7454,-33.7698,0.284046,0
43.8616,-33.73,0.279896,0
43.9766,-33.6875,0.275794,0
44.0905,-33.6424,0.271761,0
44.203,-33.5948,0.267796,0
44.3144,-33.5447,0.26389,0
45.6006,-32.4842,0.217767,0
45.6824,-32.4017,0.214407,0
45.7623,-32.3176,0.211146,0
45.84,-32.2319,0.208001,0
45.9157,-32.1446,0.204964,0
45.9894,-32.0559,0.202034,0
46.061,-31.9657,0.199202,0
46.1305,-31.874,0.196488,0
46.1979,-31.781,0.19388,0
46.2631,-31.6867,0.19138,0
46.3261,-31.5911,0.188997,0
46.387,-31.4943,0.186732,0
46.4455,-31.3963,0.184564,0
46.502,-31.2971,0.182513,0
46.5562,-31.1969,0.180579,0
46.6083,-31.0958,0.178821,0
46.6589,-30.994,0.177376,0
46.7073,-30.8913,0.176058,0
46.7534,-30.7877,0.174847,0
46.7973,-30.6831,0.173763,0
46.8388,-30.5777,0.172796,0
46.878,-30.4715,0.171946,0
46.915,-30.3645,0.171204,0
46.9495,-30.2568,0.170589,0
46.9817,-30.1484,0.170091,0
47.0116,-30.0394,0.16971,0
47.0391,-29.9298,0.169446,0
47.0641,-29.8197,0.1693,0
47.0869,-29.7091,0.169271,0
47.1072,-29.5981,0.169359,0
39.1997,-32.7261,0.414066,0
39.2924,-32.8042,0.412347,0
39.387,-32.8801,0.410609,0
39.4835,-32.9538,0.408851,0
39.5818,-33.0253,0.407083,0
39.6817,-33.0945,0.405277,0
39.7834,-33.1613,0.40346,0
39.8866,-33.2258,0.401624,0
39.9915,-33.2878,0.399769,0
40.0978,-33.3474,0.397904,0
40.2056,-33.4044,0.396019,0
40.3159,-33.4562,0.393343,0
40.4286,-33.5031,0.390003,0
40.5425,-33.5466,0.386487,0
40.6572,-33.5873,0.382962,0
40.773,-33.6253,0.379427,0
40.8895,-33.6604,0.375882,0
41.0066,-33.6928,0.372357,0
41.1245,-33.7223,0.368802,0
41.243,-33.749,0.365267,0
41.3621,-33.7728,0.361722,0
41.4816,-33.7938,0.358196,0
41.6015,-33.8119,0.354661,0
41.7217,-33.8271,0.351146,0
41.8422,-33.8395,0.34763,0
41.963,-33.849,0.344144,0
42.0837,-33.8556,0.340657,0
42.2046,-33.8593,0.3372,0
42.3255,-33.8602,0.333753,0
42.4463,-33.8582,0.330335,0
42.5668,-33.8533,0.326937,0
42.6872,-33.8456,0.323548,0
42.807,-33.8313,0.31928,0
42.9262,-33.8135,0.314857,0
43.0447,-33.7929,0.310491,0
43.1627,-33.7696,0.306175,0
43.2798,-33.7436,0.301888,0
43.3962,-33.7149,0.297659,0
43.5116,-33.6835,0.29347,0
43.6261,-33.6494,0.289339,0
43.7396,-33.6128,0.285267,0
43.8521,-33.5736,0.281243,0
43.9636,-33.5318,0.277279,0
44.0738,-33.4875,0.273372,0
44.1829,-33.4408,0.269534,0
44.2906,-33.3916,0.265755,0
44.3972,-33.34,0.262034,0
44.5023,-33.286,0.258392,0
44.6059,-33.2296,0.254818,0
44.7083,-33.171,0.251312,0
44.809,-33.1101,0.247864,0
44.9081,-33.047,0.244505,0
45.0058,-32.9817,0.241214,0
45.1017,-32.9143,0.238001,0
45.1955,-32.8442,0.2347,0
45.2862,-32.77,0.230862,0
45.375,-32.694,0.227142,0
45.4619,-32.6161,0.223509,0
45.5468,-32.5364,0.219984,0
45.6299,-32.4551,0.216556,0
45.7109,-32.372,0.213236,0
45.7901,-32.2873,0.210023,0
45.8671,-32.2011,0.206917,0
45.9421,-32.1133,0.203909,0
46.0151,-32.024,0.201019,0
46.0859,-31.9333,0.198226,0
46.1547,-31.8411,0.19555,0
46.2212,-31.7477,0.192982,0
46.2857,-31.6529,0.19053,0
46.348,-31.5568,0.188177,0
46.408,-31.4596,0.18595,0
46.4659,-31.3612,0.183821,0
46.5215,-31.2617,0.18182,0
46.5748,-31.1611,0.179925,0
46.6265,-31.0598,0.178294,0
46.6763,-30.9577,0.176898,0
46.7239,-30.8546,0.175618,0
46.7692,-30.7506,0.174456,0
46.8123,-30.6458,0.173411,0
46.853,-30.5401,0.172484,0
46.8914,-30.4336,0.171673,0
46.9275,-30.3263,0.17098,0
46.9612,-30.2184,0.170394,0
46.9926,-30.1098,0.169945,0
47.0216,-30.0006,0.169603,0
47.0482,-29.8908,0.169378,0
47.0725,-29.7805,0.16928,0
47.0943,-29.6697,0.16929,0
47.1138,-29.5585,0.169427,0
39.2323,-32.754,0.41345,0
39.3258,-32.8314,0.411732,0
39.4211,-32.9066,0.409993,0
39.5182,-32.9795,0.408226,0
39.617,-33.0501,0.406439,0
39.7177,-33.1185,0.404632,0
39.8198,-33.1845,0.402806,0
39.9237,-33.2481,0.40097,0
40.0291,-33.3092,0.399105,0
40.1359,-33.3679,0.39723,0
40.2444,-33.4238,0.395247,0
40.3557,-33.4736,0.392259,0
40.4689,-33.5188,0.388753,0
40.5831,-33.5614,0.385237,0
40.6982,-33.6011,0.381702,0
40.8142,-33.6381,0.378167,0
40.931,-33.6722,0.374632,0
41.0484,-33.7036,0.371087,0
41.1666,-33.7321,0.367542,0
41.2852,-33.7578,0.364007,0
41.4045,-33.7806,0.360472,0
41.5241,-33.8005,0.356937,0
41.6441,-33.8176,0.353421,0
41.7645,-33.8319,0.349905,0
41.8852,-33.8432,0.34639,0
42.0059,-33.8517,0.342904,0
42.1266,-33.8572,0.339427,0
42.2475,-33.86,0.33598,0
42.3684,-33.8598,0.332542,0
42.4891,-33.8568,0.329124,0
42.6096,-33.8509,0.325726,0
42.7298,-33.8413,0.322142,0
42.8494,-33.8253,0.317698,0
42.9684,-33.8065,0.313314,0
43.0867,-33.7849,0.308948,0
43.2043,-33.7607,0.304642,0
43.3212,-33.7337,0.300384,0
43.4373,-33.704,0.296165,0
43.5523,-33.6717,0.291995,0
43.6666,-33.6367,0.287894,0
43.7798,-33.5992,0.283831,0
43.8919,-33.5591,0.279837,0
44.0029,-33.5164,0.275892,0
44.1127,-33.4712,0.272005,0
44.2213,-33.4236,0.268177,0
44.3287,-33.3735,0.264427,0
44.4347,-33.3211,0.260736,0
44.5393,-33.2663,0.257122,0
44.6424,-33.2091,0.253558,0
44.7441,-33.1496,0.250071,0
44.8444,-33.088,0.246663,0
44.943,-33.0241,0.243323,0
45.04,-32.958,0.240062,0
45.1354,-32.8899,0.236878,0
45.228,-32.8181,0.233323,0
45.3179,-32.7432,0.229534,0
45.4061,-32.6665,0.225843,0
45.4923,-32.588,0.222239,0
45.5766,-32.5077,0.218753,0
45.6589,-32.4258,0.215364,0
45.7393,-32.3421,0.212083,0
45.8177,-32.2569,0.208909,0
45.894,-32.1701,0.205833,0
45.9683,-32.0817,0.202864,0
46.0405,-31.9919,0.200013,0
46.1106,-31.9007,0.197269,0
46.1786,-31.8081,0.194622,0
46.2444,-31.7141,0.192093,0
46.3081,-31.6189,0.189681,0
46.3695,-31.5224,0.187366,0
46.4288,-31.4248,0.185179,0
46.4859,-31.326,0.183099,0
46.5407,-31.226,0.181126,0
46.5933,-31.1251,0.17928,0
46.6445,-31.0236,0.177786,0
46.6935,-30.9212,0.176429,0
46.7402,-30.8178,0.175189,0
46.7848,-30.7135,0.174066,0
46.827,-30.6083,0.17306,0
46.867,-30.5023,0.172181,0
46.9045,-30.3956,0.171419,0
46.9397,-30.2881,0.170755,0
46.9727,-30.1799,0.170218,0
47.0032,-30.0711,0.169808,0
47.0313,-29.9616,0.169505,0
47.0571,-29.8517,0.169329,0
47.0805,-29.7412,0.169261,0
47.1016,-29.6303,0.16932,0
39.2653,-32.7818,0.412855,0
39.3595,-32.8583,0.411116,0
39.4554,-32.9327,0.409359,0
39.5531,-33.0048,0.407591,0
39.6526,-33.0747,0.405794,0
39.7537,-33.1422,0.403987,0
39.8566,-33.2074,0.402152,0
39.9609,-33.2701,0.400306,0
40.0669,-33.3304,0.398441,0
40.1742,-33.3882,0.396566,0
40.2837,-33.4418,0.394202,0
40.3958,-33.49,0.391019,0
40.5094,-33.5342,0.387503,0
40.6239,-33.5758,0.383978,0
40.7393,-33.6146,0.380452,0
40.8555,-33.6505,0.376917,0
40.9726,-33.6837,0.373372,0
41.0903,-33.714,0.369827,0
41.2087,-33.7416,0.366292,0
41.3276,-33.7662,0.362757,0
41.447,-33.788,0.359222,0
41.5667,-33.807,0.355687,0
41.6869,-33.823,0.352161,0
41.8073,-33.8362,0.348655,0
41.928,-33.8465,0.345159,0
42.0487,-33.854,0.341673,0
42.1696,-33.8585,0.338206,0
42.2905,-33.8602,0.334749,0
42.4112,-33.8591,0.331321,0
42.5319,-33.855,0.327913,0
42.6523,-33.8481,0.324534,0
42.7724,-33.8359,0.32056,0
42.8917,-33.8189,0.316146,0
43.0105,-33.7991,0.311761,0
43.1286,-33.7766,0.307415,0
43.2459,-33.7514,0.303128,0
43.3625,-33.7235,0.29888,0
43.4783,-33.6929,0.294681,0
43.593,-33.6596,0.29054,0
43.7069,-33.6237,0.286448,0
43.8197,-33.5852,0.282405,0
43.9315,-33.5442,0.278421,0
44.042,-33.5006,0.274495,0
44.1515,-33.4546,0.270638,0
44.2596,-33.4061,0.266849,0
45.5141,-32.383,0.222503,0
45.5939,-32.303,0.219232,0
45.6716,-32.2213,0.216058,0
45.7474,-32.1381,0.212982,0
45.8212,-32.0533,0.210023,0
45.8931,-31.9671,0.207161,0
45.963,-31.8794,0.204398,0
46.0307,-31.7904,0.201751,0
46.0964,-31.7,0.199212,0
46.1599,-31.6083,0.196771,0
46.2214,-31.5154,0.194437,0
46.2807,-31.4212,0.19222,0
46.338,-31.326,0.190111,0
46.3929,-31.2296,0.188118,0
46.4458,-31.1321,0.186224,0
46.4972,-31.0341,0.184671,0
46.5466,-30.9351,0.183275,0
46.5938,-30.8351,0.181976,0
46.6387,-30.7343,0.180794,0
46.6816,-30.6325,0.179739,0
46.722,-30.5299,0.178792,0
46.7602,-30.4265,0.177962,0
46.7963,-30.3224,0.17723,0
46.83,-30.2176,0.176634,0
46.8613,-30.1121,0.176136,0
46.8905,-30.006,0.175775,0
46.9172,-29.8993,0.175511,0
46.9417,-29.7921,0.175364,0
46.9639,-29.6844,0.175345,0
46.9837,-29.5763,0.175423,0
39.2926,-32.6123,0.412952,0
39.3827,-32.6881,0.411292,0
39.4746,-32.7617,0.409603,0
39.5684,-32.8333,0.407894,0
39.6639,-32.9026,0.406165,0
39.761,-32.9697,0.404417,0
39.8598,-33.0345,0.40265,0
39.9601,-33.097,0.400862,0
40.062,-33.1572,0.399066,0
40.1652,-33.215,0.397249,0
40.2705,-33.2692,0.395081,0
40.3781,-33.3185,0.3922,0
40.487,-33.3648,0.389212,0
40.5975,-33.4071,0.385794,0
40.7089,-33.4468,0.382376,0
40.8212,-33.4837,0.378948,0
40.9342,-33.5179,0.375511,0
41.048,-33.5494,0.372073,0
41.1625,-33.5782,0.368636,0
41.2775,-33.6041,0.365198,0
41.393,-33.6273,0.361761,0
41.5091,-33.6478,0.358333,0
41.6255,-33.6654,0.354905,0
41.7423,-33.6803,0.351487,0
41.8593,-33.6924,0.348089,0
41.9764,-33.7017,0.344691,0
42.0937,-33.7082,0.341312,0
42.2111,-33.7119,0.337952,0
42.3284,-33.7128,0.334603,0
42.4456,-33.711,0.331282,0
42.5628,-33.7063,0.327972,0
42.6797,-33.6989,0.324691,0
42.7961,-33.6855,0.320618,0
42.9118,-33.6684,0.316321,0
43.027,-33.6486,0.312073,0
43.1416,-33.6262,0.307874,0
43.2554,-33.6011,0.303724,0
43.3684,-33.5734,0.299603,0
43.4805,-33.5431,0.29553,0
43.592,-33.5103,0.291527,0
43.7023,-33.4749,0.287562,0
43.8116,-33.437,0.283646,0
43.9199,-33.3966,0.279788,0
44.0271,-33.3537,0.275989,0
44.1331,-33.3085,0.272259,0
44.238,-33.2608,0.268587,0
44.3415,-33.2108,0.264974,0
44.4437,-33.1585,0.261419,0
44.5446,-33.1039,0.257943,0
44.6441,-33.0471,0.254525,0
44.742,-32.9881,0.251175,0
44.8384,-32.9269,0.247913,0
44.9334,-32.8636,0.2447,0
45.0267,-32.7982,0.241575,0
45.1184,-32.7308,0.238529,0
45.2078,-32.6604,0.235277,0
45.2943,-32.5866,0.231644,0
45.379,-32.5111,0.228109,0
45.4618,-32.4338,0.224671,0
45.5427,-32.3548,0.221331,0
45.6217,-32.2742,0.218089,0
45.6988,-32.1919,0.214954,0
45.7739,-32.1081,0.211917,0
45.847,-32.0229,0.208988,0
45.9181,-31.9361,0.206165,0
45.9872,-31.848,0.20345,0
46.0542,-31.7584,0.200833,0
46.1191,-31.6676,0.198323,0
46.182,-31.5754,0.195931,0
46.2427,-31.4821,0.193646,0
46.3013,-31.3875,0.191468,0
46.3577,-31.2918,0.189388,0
46.412,-31.1951,0.187435,0
46.4641,-31.0973,0.185638,0
46.515,-30.999,0.184163,0
46.5636,-30.8997,0.182796,0
46.6101,-30.7994,0.181546,0
46.6542,-30.6982,0.180413,0
46.6962,-30.5962,0.179388,0
46.7359,-30.4933,0.17848,0
46.7733,-30.3896,0.177689,0
46.8085,-30.2852,0.177015,0
46.8414,-30.1802,0.176448,0
46.872,-30.0745,0.175999,0
46.9002,-29.9681,0.175667,0
46.9262,-29.8612,0.175443,0
46.9498,-29.7539,0.175345,0
46.9712,-29.646,0.175355,0
46.9902,-29.5378,0.175482,0
39.3244,-32.6394,0.412366,0
39.4152,-32.7145,0.410687,0
39.5077,-32.7874,0.408997,0
39.6021,-32.8582,0.407279,0
39.6982,-32.9267,0.40555,0
39.7959,-32.993,0.403792,0
39.8952,-33.057,0.402015,0
39.9961,-33.1187,0.400228,0
40.0984,-33.178,0.398431,0
40.2023,-33.2349,0.396605,0
40.3086,-33.287,0.394056,0
40.4166,-33.3354,0.391175,0
40.5261,-33.3802,0.387991,0
40.637,-33.4215,0.384583,0
40.7487,-33.4602,0.381165,0
40.8612,-33.4962,0.377728,0
40.9745,-33.5294,0.37429,0
41.0887,-33.5599,0.370853,0
41.2033,-33.5877,0.367415,0
41.3185,-33.6127,0.363978,0
41.4342,-33.6349,0.36054,0
41.5505,-33.6544,0.357112,0
41.667,-33.6711,0.353695,0
41.7838,-33.685,0.350286,0
41.9008,-33.696,0.346878,0
42.018,-33.7044,0.343499,0
42.1354,-33.7099,0.34012,0
42.2527,-33.7126,0.336761,0
42.3701,-33.7125,0.333421,0
42.4873,-33.7096,0.330111,0
42.6043,-33.704,0.32681,0
42.7211,-33.695,0.323402,0
42.8373,-33.6797,0.319085,0
42.9528,-33.6617,0.314818,0
43.0678,-33.641,0.310579,0
43.1821,-33.6176,0.30639,0
43.2956,-33.5916,0.302249,0
43.4084,-33.563,0.298157,0
43.5202,-33.5318,0.294105,0
43.6312,-33.498,0.290111,0
43.7412,-33.4617,0.286155,0
43.8502,-33.4229,0.282269,0
43.9581,-33.3816,0.278441,0
44.0649,-33.3379,0.274661,0
44.1705,-33.2918,0.27095,0
44.2749,-33.2433,0.267298,0
44.378,-33.1925,0.263704,0
44.4797,-33.1394,0.260179,0
44.58,-33.084,0.256722,0
44.6789,-33.0264,0.253323,0
44.7764,-32.9666,0.250003,0
44.8723,-32.9047,0.246761,0
44.9667,-32.8406,0.243587,0
45.0595,-32.7745,0.240491,0
45.1506,-32.7063,0.237454,0
45.2388,-32.6344,0.233968,0
45.3246,-32.56,0.230384,0
45.4086,-32.4838,0.226878,0
45.4907,-32.4059,0.22347,0
45.571,-32.3263,0.220169,0
45.6494,-32.2451,0.216966,0
45.7257,-32.1623,0.21387,0
45.8002,-32.078,0.210872,0
45.8725,-31.9922,0.207972,0
45.943,-31.905,0.205189,0
46.0112,-31.8163,0.202503,0
46.0775,-31.7263,0.199935,0
46.1418,-31.635,0.197464,0
46.2038,-31.5424,0.195101,0
46.2637,-31.4486,0.192855,0
46.3216,-31.3537,0.190716,0
46.3773,-31.2576,0.188685,0
46.4307,-31.1604,0.186761,0
46.4825,-31.0625,0.185101,0
46.5326,-30.9638,0.183665,0
46.5804,-30.8642,0.182337,0
46.6259,-30.7636,0.181126,0
46.6694,-30.6621,0.180032,0
46.7105,-30.5597,0.179046,0
46.7495,-30.4566,0.178187,0
46.786,-30.3526,0.177435,0
46.8204,-30.248,0.1768,0
46.8525,-30.1427,0.176273,0
46.8823,-30.0367,0.175863,0
46.9098,-29.9302,0.175579,0
46.9348,-29.8232,0.175394,0
46.9577,-29.7156,0.175335,0
46.9781,-29.6076,0.175394,0
39.3564,-32.6663,0.411771,0
39.4479,-32.7406,0.410101,0
39.541,-32.8128,0.408392,0
39.636,-32.8828,0.406673,0
39.7327,-32.9505,0.404925,0
39.831,-33.016,0.403157,0
39.9309,-33.0792,0.40139,0
40.0323,-33.14,0.399583,0
40.1352,-33.1985,0.397777,0
40.2395,-33.2544,0.395911,0
40.3468,-33.3045,0.39304,0
40.4552,-33.3519,0.39015,0
40.5654,-33.3952,0.38679,0
40.6765,-33.4356,0.383372,0
40.7886,-33.4733,0.379945,0
40.9014,-33.5083,0.376507,0
41.0151,-33.5406,0.373079,0
41.1293,-33.5701,0.369632,0
41.2441,-33.5969,0.366204,0
41.3595,-33.6209,0.362767,0
41.4755,-33.6422,0.359329,0
41.5917,-33.6606,0.355902,0
41.7084,-33.6763,0.352484,0
41.8253,-33.6892,0.349075,0
41.9424,-33.6993,0.345677,0
42.0598,-33.7066,0.342288,0
42.177,-33.7111,0.338919,0
42.2944,-33.7129,0.33557,0
42.4117,-33.7118,0.332239,0
42.5288,-33.708,0.328929,0
42.6459,-33.7013,0.325648,0
42.7624,-33.6899,0.321859,0
42.8783,-33.6736,0.317562,0
42.9937,-33.6546,0.313304,0
43.1084,-33.633,0.309085,0
43.2225,-33.6087,0.304915,0
43.3358,-33.5817,0.300784,0
43.4482,-33.5522,0.296712,0
43.5598,-33.52,0.292679,0
43.6705,-33.4854,0.288695,0
43.7801,-33.4482,0.284769,0
43.8886,-33.4085,0.280902,0
43.9962,-33.3664,0.277093,0
44.1025,-33.3218,0.273333,0
44.2077,-33.2749,0.269642,0
45.432,-32.2869,0.227005,0
45.5098,-32.2091,0.223812,0
45.5855,-32.1298,0.220716,0
45.6595,-32.0489,0.217718,0
45.7316,-31.9665,0.214827,0
45.8016,-31.8827,0.212034,0
45.8697,-31.7975,0.209339,0
45.9357,-31.7109,0.206761,0
45.9998,-31.623,0.20428,0
46.0619,-31.5338,0.201888,0
46.1218,-31.4434,0.199622,0
46.1797,-31.3518,0.197454,0
46.2355,-31.2591,0.195394,0
46.2892,-31.1653,0.193441,0
46.3412,-31.0707,0.191722,0
46.3916,-30.9753,0.190247,0
46.4398,-30.879,0.18887,0
46.4857,-30.7816,0.187611,0
46.5297,-30.6834,0.186458,0
46.5714,-30.5843,0.185413,0
46.6109,-30.4844,0.184486,0
46.6482,-30.3837,0.183675,0
46.6833,-30.2823,0.182972,0
46.7162,-30.1802,0.182386,0
46.7468,-30.0774,0.181907,0
46.7752,-29.9741,0.181546,0
46.8013,-29.8702,0.181282,0
46.8252,-29.7657,0.181146,0
46.8468,-29.6608,0.181116,0
46.8661,-29.5555,0.181195,0
39.3806,-32.5045,0.411907,0
39.4682,-32.5781,0.410286,0
39.5577,-32.6496,0.408646,0
39.6488,-32.7191,0.406976,0
39.7416,-32.7864,0.405306,0
39.8361,-32.8515,0.403607,0
39.9321,-32.9145,0.401888,0
40.0297,-32.9751,0.40015,0
40.1287,-33.0335,0.398402,0
40.2291,-33.0896,0.396634,0
40.3323,-33.1402,0.393929,0
40.4369,-33.1881,0.391126,0
40.5425,-33.2335,0.388314,0
40.6496,-33.2752,0.38515,0
40.7578,-33.3137,0.38182,0
40.8669,-33.3497,0.378499,0
40.9767,-33.383,0.375159,0
41.0873,-33.4136,0.37182,0
41.1984,-33.4417,0.36848,0
41.3102,-33.467,0.36513,0
41.4224,-33.4896,0.3618,0
41.5352,-33.5095,0.35847,0
41.6482,-33.5268,0.35514,0
41.7616,-33.5413,0.35182,0
41.8753,-33.5531,0.348499,0
41.9891,-33.5622,0.345208,0
42.1032,-33.5686,0.341927,0
42.2172,-33.5723,0.338655,0
42.3312,-33.5733,0.335404,0
42.4452,-33.5715,0.332171,0
42.5589,-33.5671,0.328968,0
42.6726,-33.56,0.325775,0
42.7856,-33.5474,0.321878,0
42.8982,-33.5309,0.317708,0
43.0102,-33.5119,0.313587,0
43.1216,-33.4903,0.309486,0
43.2323,-33.4661,0.305452,0
43.3422,-33.4394,0.301448,0
43.4512,-33.4101,0.297493,0
43.5595,-33.3783,0.293587,0
43.6668,-33.3441,0.28973,0
43.7732,-33.3074,0.285931,0
43.8785,-33.2683,0.282171,0
43.9828,-33.2268,0.27848,0
44.0859,-33.183,0.274847,0
44.1879,-33.1368,0.271263,0
44.2887,-33.0883,0.267747,0
44.3881,-33.0376,0.26429,0
44.4863,-32.9847,0.260902,0
44.583,-32.9296,0.257581,0
44.6784,-32.8723,0.25432,0
44.7723,-32.8129,0.251136,0
44.8647,-32.7515,0.248021,0
44.9555,-32.688,0.244974,0
45.0449,-32.6225,0.241995,0
45.1325,-32.5551,0.239095,0
45.2177,-32.4847,0.235921,0
45.3002,-32.4113,0.232484,0
45.3809,-32.3362,0.229124,0
45.4598,-32.2595,0.225863,0
45.5369,-32.1811,0.222708,0
45.612,-32.1012,0.219652,0
45.6853,-32.0198,0.216683,0
45.7566,-31.9369,0.213831,0
45.826,-31.8526,0.211077,0
45.8934,-31.7668,0.208411,0
45.9587,-31.6798,0.205862,0
46.0221,-31.5914,0.203421,0
46.0834,-31.5018,0.201077,0
46.1426,-31.411,0.198841,0
46.1998,-31.319,0.196712,0
46.2548,-31.2259,0.194691,0
46.3078,-31.1317,0.192777,0
46.3593,-31.0369,0.191185,0
46.4089,-30.9412,0.189739,0
46.4563,-30.8445,0.188402,0
46.5016,-30.7468,0.187181,0
46.5447,-30.6483,0.186077,0
46.5856,-30.5489,0.185081,0
46.6244,-30.4487,0.184193,0
46.6609,-30.3478,0.183411,0
46.6952,-30.2461,0.182747,0
46.7273,-30.1438,0.1822,0
46.7572,-30.0408,0.181761,0
46.7848,-29.9372,0.181439,0
46.8101,-29.8331,0.181224,0
46.833,-29.7285,0.181126,0
46.8539,-29.6235,0.181136,0
46.8723,-29.518,0.181263,0
39.4115,-32.5309,0.411331,0
39.4998,-32.6037,0.4097,0
39.5898,-32.6745,0.40806,0
39.6816,-32.7432,0.40639,0
39.775,-32.8098,0.4047,0
39.87,-32.8741,0.403001,0
39.9666,-32.9363,0.401273,0
40.0647,-32.9961,0.399525,0
40.1642,-33.0537,0.397777,0
40.2656,-33.108,0.395716,0
40.3694,-33.1575,0.392933,0
40.4743,-33.2045,0.39013,0
40.5803,-33.2489,0.387288,0
40.688,-33.2892,0.383968,0
40.7965,-33.3268,0.380648,0
40.9058,-33.3618,0.377308,0
41.0159,-33.3942,0.373968,0
41.1266,-33.4239,0.370628,0
41.238,-33.4509,0.367288,0
41.35,-33.4753,0.363948,0
41.4624,-33.497,0.360618,0
41.5752,-33.516,0.357288,0
41.6885,-33.5322,0.353948,0
41.802,-33.5458,0.350638,0
41.9157,-33.5567,0.347327,0
42.0297,-33.5648,0.344046,0
42.1437,-33.5702,0.340765,0
42.2577,-33.573,0.337503,0
42.3716,-33.573,0.334251,0
42.4855,-33.5703,0.331029,0
42.5994,-33.5649,0.327835,0
42.7128,-33.5565,0.324583,0
42.8258,-33.5418,0.320394,0
42.9381,-33.5245,0.316234,0
43.0498,-33.5046,0.312132,0
43.161,-33.482,0.30805,0
43.2713,-33.4569,0.304027,0
43.381,-33.4293,0.300042,0
43.4898,-33.3991,0.296097,0
43.5977,-33.3664,0.2922,0
43.7048,-33.3313,0.288372,0
43.8108,-33.2938,0.284583,0
43.9157,-33.2538,0.280853,0
44.0196,-33.2115,0.277181,0
44.1223,-33.1668,0.273558,0
44.2238,-33.1198,0.270013,0
44.3241,-33.0706,0.266517,0
44.4231,-33.0191,0.263089,0
44.5209,-32.9654,0.25972,0
44.6171,-32.9095,0.256419,0
44.712,-32.8515,0.253187,0
44.8053,-32.7913,0.250023,0
44.8972,-32.7292,0.246927,0
44.9875,-32.665,0.243909,0
45.0762,-32.5988,0.24096,0
45.1633,-32.5307,0.238089,0
45.2472,-32.4588,0.234691,0
45.3291,-32.3848,0.231273,0
45.4091,-32.3091,0.227952,0
45.4874,-32.2318,0.22473,0
45.5637,-32.1529,0.221605,0
45.6383,-32.0725,0.218577,0
45.7109,-31.9905,0.215657,0
45.7815,-31.9071,0.212835,0
45.8502,-31.8223,0.21012,0
45.9168,-31.7361,0.207493,0
45.9815,-31.6486,0.204984,0
46.0441,-31.5597,0.202571,0
46.1047,-31.4697,0.200267,0
46.1632,-31.3784,0.19807,0
46.2196,-31.2861,0.19598,0
46.2739,-31.1926,0.193997,0
46.3262,-31.0981,0.192171,0
46.3772,-31.003,0.190657,0
46.426,-30.907,0.189251,0
46.4727,-30.8099,0.187962,0
46.5172,-30.712,0.186771,0
46.5595,-30.6131,0.185706,0
46.5997,-30.5134,0.184749,0
46.6376,-30.413,0.183909,0
46.6733,-30.3118,0.183167,0
46.7069,-30.2099,0.182542,0
46.7381,-30.1073,0.182034,0
46.7672,-30.0041,0.181634,0
46.794,-29.9003,0.181341,0
46.8185,-29.796,0.181175,0
46.8408,-29.6913,0.181116,0
46.8608,-29.5861,0.181165,0
39.4427,-32.557,0.410755,0
39.5316,-32.6291,0.409124,0
39.6223,-32.6992,0.407464,0
39.7146,-32.7671,0.405794,0
39.8086,-32.8329,0.404095,0
39.9041,-32.8965,0.402386,0
40.0012,-32.9578,0.400657,0
40.0999,-33.0168,0.398909,0
40.1998,-33.0736,0.397152,0
40.3023,-33.1258,0.39473,0
40.4065,-33.1745,0.391937,0
40.5118,-33.2206,0.389134,0
40.6184,-33.2635,0.386116,0
40.7264,-33.3028,0.382796,0
40.8352,-33.3395,0.379466,0
40.9448,-33.3736,0.376126,0
41.0552,-33.405,0.372786,0
41.1662,-33.4338,0.369446,0
41.2777,-33.4599,0.366107,0
41.3898,-33.4833,0.362767,0
41.5025,-33.504,0.359437,0
41.6154,-33.5221,0.356097,0
41.7287,-33.5374,0.352786,0
41.8423,-33.55,0.349466,0
41.9562,-33.5599,0.346165,0
42.0702,-33.5671,0.342884,0
42.1841,-33.5715,0.339603,0
42.2981,-33.5733,0.336341,0
42.4121,-33.5723,0.333109,0
42.526,-33.5687,0.329886,0
42.6397,-33.5623,0.326702,0
42.753,-33.5516,0.323099,0
42.8657,-33.536,0.318919,0
42.9778,-33.5177,0.314779,0
43.0894,-33.4968,0.310667,0
43.2002,-33.4734,0.306614,0
43.3104,-33.4474,0.302601,0
43.4198,-33.4188,0.298636,0
43.5282,-33.3878,0.29472,0
43.6359,-33.3542,0.290833,0
43.7425,-33.3183,0.287025,0
43.8481,-33.2799,0.283255,0
43.9527,-33.2391,0.279544,0
44.0562,-33.1959,0.275892,0
44.1584,-33.1504,0.272298,0
45.3538,-32.1954,0.231292,0
45.4297,-32.1198,0.228177,0
45.5036,-32.0427,0.225159,0
45.5758,-31.964,0.22223,0
45.646,-31.8839,0.219407,0
45.7145,-31.8023,0.216673,0
45.7809,-31.7194,0.214056,0
45.8453,-31.6351,0.211527,0
45.9079,-31.5496,0.209105,0
45.9684,-31.4628,0.206771,0
46.027,-31.3748,0.204554,0
46.0835,-31.2856,0.202435,0
46.138,-31.1954,0.200423,0
46.1905,-31.1041,0.198548,0
46.2416,-31.0122,0.196995,0
46.2909,-30.9193,0.19555,0
46.3379,-30.8255,0.194212,0
46.3828,-30.7307,0.192982,0
46.4256,-30.635,0.191849,0
46.4663,-30.5384,0.190833,0
46.5049,-30.4411,0.189935,0
46.5414,-30.3429,0.189124,0
46.5756,-30.2441,0.18845,0
46.6077,-30.1446,0.187864,0
46.6376,-30.0444,0.187396,0
46.6653,-29.9437,0.187044,0
46.6908,-29.8424,0.18679,0
46.7141,-29.7406,0.186654,0
46.7352,-29.6384,0.186624,0
46.7539,-29.5357,0.186693,0
39.4641,-32.4022,0.410902,0
39.5495,-32.4737,0.409329,0
39.6364,-32.5432,0.407737,0
39.7252,-32.6107,0.406116,0
39.8154,-32.6761,0.404476,0
39.9073,-32.7394,0.402825,0
40.0007,-32.8005,0.401155,0
40.0957,-32.8595,0.399476,0
40.192,-32.9162,0.397767,0
40.2905,-32.9689,0.395521,0
40.391,-33.0179,0.392825,0
40.4926,-33.0645,0.390111,0
40.5952,-33.1086,0.387366,0
40.6991,-33.15,0.384544,0
40.8042,-33.1876,0.381312,0
40.9102,-33.2226,0.37807,0
41.017,-33.255,0.374827,0
41.1245,-33.2849,0.371575,0
41.2325,-33.3122,0.368323,0
41.3412,-33.3369,0.365081,0
41.4503,-33.359,0.361829,0
41.5598,-33.3784,0.358587,0
41.6698,-33.3952,0.355355,0
41.7801,-33.4095,0.352132,0
41.8905,-33.421,0.348909,0
42.0013,-33.4299,0.345706,0
42.112,-33.4362,0.342513,0
42.223,-33.4399,0.339329,0
42.3339,-33.4409,0.336165,0
42.4446,-33.4393,0.333021,0
42.5553,-33.435,0.329905,0
42.6659,-33.4282,0.3268,0
42.7759,-33.4163,0.323079,0
42.8853,-33.4005,0.319027,0
42.9943,-33.3822,0.315003,0
43.1027,-33.3613,0.311029,0
43.2103,-33.338,0.307093,0
43.3172,-33.3121,0.303196,0
43.4234,-33.2838,0.299349,0
43.5287,-33.2531,0.29554,0
43.6332,-33.2199,0.29179,0
43.7367,-33.1844,0.288089,0
43.8392,-33.1465,0.284437,0
43.9407,-33.1063,0.280843,0
44.0412,-33.0638,0.277298,0
44.1404,-33.019,0.273812,0
44.2384,-32.972,0.270384,0
44.3354,-32.9228,0.267025,0
44.4309,-32.8714,0.263724,0
44.5252,-32.8179,0.260491,0
44.618,-32.7623,0.257308,0
44.7095,-32.7046,0.254212,0
44.7995,-32.645,0.251175,0
44.888,-32.5833,0.248196,0
44.9749,-32.5197,0.245306,0
45.0604,-32.4542,0.242474,0
45.1441,-32.3868,0.23973,0
45.2252,-32.3163,0.236624,0
45.304,-32.2433,0.233353,0
45.3809,-32.1688,0.230179,0
45.4561,-32.0926,0.227093,0
45.5295,-32.0149,0.224105,0
45.6009,-31.9357,0.221214,0
45.6705,-31.855,0.218421,0
45.7383,-31.773,0.215726,0
45.804,-31.6896,0.213148,0
45.8678,-31.6049,0.210648,0
45.9296,-31.5189,0.208265,0
45.9895,-31.4317,0.20597,0
46.0473,-31.3433,0.203792,0
46.1031,-31.2537,0.201712,0
46.1569,-31.1631,0.199739,0
46.209,-31.0716,0.197991,0
46.2594,-30.9794,0.196478,0
46.3078,-30.8861,0.195052,0
46.3541,-30.7919,0.193763,0
46.3983,-30.6968,0.192562,0
46.4403,-30.6008,0.191478,0
46.4803,-30.5039,0.190501,0
46.5181,-30.4063,0.189632,0
46.5537,-30.3079,0.18888,0
46.5873,-30.2088,0.188226,0
46.6186,-30.1091,0.187689,0
46.6477,-30.0087,0.187259,0
46.6746,-29.9078,0.186946,0
46.6993,-29.8063,0.186732,0
46.7218,-29.7044,0.186624,0
46.7421,-29.602,0.186644,0
46.7598,-29.4991,0.186663,0
39.4942,-32.4278,0.410345,0
39.5801,-32.4986,0.408763,0
39.6677,-32.5674,0.407161,0
39.757,-32.6342,0.40554,0
39.8479,-32.6988,0.4039,0
39.9403,-32.7613,0.402239,0
40.0343,-32.8217,0.40057,0
40.1298,-32.8799,0.39887,0
40.2266,-32.9358,0.397161,0
40.3261,-32.9866,0.394573,0
40.427,-33.0348,0.391868,0
40.5289,-33.0805,0.389134,0
40.632,-33.1237,0.3864,0
40.7363,-33.1636,0.383382,0
40.8418,-33.2003,0.38015,0
40.9481,-33.2344,0.376917,0
41.0551,-33.2659,0.373665,0
41.1627,-33.2949,0.370423,0
41.271,-33.3213,0.367171,0
41.3798,-33.345,0.363929,0
41.4891,-33.3662,0.360687,0
41.5988,-33.3847,0.357445,0
41.7089,-33.4006,0.354212,0
41.8193,-33.4139,0.350989,0
41.9299,-33.4245,0.347767,0
42.0407,-33.4325,0.344573,0
42.1515,-33.4378,0.34138,0
42.2623,-33.4405,0.338206,0
42.3732,-33.4406,0.335052,0
42.484,-33.4381,0.331907,0
42.5946,-33.4329,0.328802,0
42.705,-33.4251,0.325706,0
42.8148,-33.411,0.321644,0
42.9241,-33.3943,0.317601,0
43.0328,-33.3751,0.313597,0
43.1409,-33.3533,0.309632,0
43.2484,-33.3291,0.305706,0
43.355,-33.3024,0.301829,0
43.4609,-33.2732,0.297991,0
43.5659,-33.2416,0.294212,0
43.6701,-33.2076,0.290472,0
43.7732,-33.1712,0.28679,0
43.8754,-33.1325,0.283157,0
43.9766,-33.0914,0.279583,0
44.0765,-33.0481,0.276058,0
44.1754,-33.0025,0.272591,0
44.273,-32.9547,0.269183,0
44.3695,-32.9048,0.265843,0
44.4645,-32.8526,0.262571,0
44.5583,-32.7984,0.259349,0
44.6506,-32.7421,0.256204,0
44.7416,-32.6837,0.253128,0
44.8311,-32.6233,0.250101,0
44.9191,-32.5609,0.247161,0
45.0055,-32.4966,0.24429,0
45.0903,-32.4304,0.241488,0
45.1735,-32.3624,0.238773,0
45.2534,-32.2906,0.235452,0
45.3316,-32.217,0.23221,0
45.4079,-32.1419,0.229075,0
45.4823,-32.0652,0.226019,0
45.5551,-31.9869,0.22307,0
45.6259,-31.9072,0.220208,0
45.6948,-31.8261,0.217454,0
45.7618,-31.7435,0.214798,0
45.8269,-31.6597,0.212249,0
45.8899,-31.5745,0.209798,0
45.9511,-31.4881,0.207445,0
46.0102,-31.4004,0.205189,0
46.0673,-31.3116,0.20304,0
46.1224,-31.2216,0.200989,0
46.1754,-31.1306,0.199056,0
46.2271,-31.039,0.197445,0
46.2768,-30.9463,0.19595,0
46.3245,-30.8528,0.194583,0
46.37,-30.7582,0.193323,0
46.4134,-30.6628,0.192161,0
46.4548,-30.5665,0.191116,0
46.494,-30.4693,0.190179,0
46.531,-30.3714,0.189359,0
46.5659,-30.2728,0.188626,0
46.5986,-30.1735,0.18803,0
46.6291,-30.0735,0.187523,0
46.6575,-29.973,0.187132,0
46.6837,-29.8718,0.186849,0
46.7076,-29.7702,0.186673,0
46.7293,-29.6681,0.186614,0
46.7488,-29.5655,0.186673,0
39.5245,-32.4532,0.409788,0
39.6111,-32.5233,0.408196,0
39.6993,-32.5914,0.406585,0
39.7891,-32.6574,0.404964,0
39.8805,-32.7213,0.403314,0
39.9735,-32.783,0.401644,0
40.068,-32.8426,0.399964,0
40.164,-32.9,0.398265,0
40.2617,-32.9543,0.396302,0
40.3617,-33.004,0.393616,0
40.463,-33.0513,0.390902,0
40.5654,-33.0961,0.388157,0
40.6688,-33.1385,0.385413,0
40.7736,-33.1769,0.382239,0
40.8794,-33.2127,0.379007,0
40.9859,-33.2459,0.375765,0
41.0932,-33.2765,0.372513,0
41.2011,-33.3046,0.369271,0
41.3096,-33.33,0.366019,0
41.4187,-33.3528,0.362767,0
41.528,-33.373,0.359525,0
41.6379,-33.3907,0.356292,0
41.7481,-33.4056,0.35306,0
41.8586,-33.4179,0.349837,0
41.9692,-33.4276,0.346624,0
42.08,-33.4347,0.343431,0
42.1909,-33.4391,0.340247,0
42.3018,-33.4409,0.337083,0
42.4126,-33.44,0.333939,0
42.5233,-33.4365,0.330814,0
42.6338,-33.4304,0.327698,0
42.7441,-33.4204,0.324261,0
42.8537,-33.4053,0.320198,0
42.9627,-33.3878,0.316175,0
43.0713,-33.3676,0.312181,0
43.1791,-33.345,0.308226,0
43.2862,-33.3199,0.30432,0
43.3927,-33.2923,0.300462,0
43.4983,-33.2622,0.296634,0
43.603,-33.2298,0.292874,0
43.7068,-33.1949,0.289154,0
43.8096,-33.1577,0.285491,0
43.9114,-33.1182,0.281878,0
44.0121,-33.0763,0.278323,0
44.1118,-33.0322,0.274818,0
45.2793,-32.1082,0.235384,0
45.3534,-32.0347,0.232337,0
45.4255,-31.9596,0.229378,0
45.4959,-31.8831,0.226527,0
45.5645,-31.8051,0.223763,0
45.6312,-31.7257,0.221097,0
45.6962,-31.645,0.218538,0
45.7591,-31.5629,0.216068,0
45.8202,-31.4796,0.213704,0
45.8794,-31.3951,0.211429,0
45.9366,-31.3094,0.209261,0
45.9917,-31.2226,0.207191,0
46.045,-31.1346,0.205218,0
46.0968,-31.046,0.203548,0
46.1467,-30.9565,0.202025,0
46.1947,-30.8659,0.200618,0
46.2407,-30.7744,0.1993,0
46.2846,-30.682,0.198099,0
46.3264,-30.5887,0.196995,0
46.3662,-30.4946,0.196009,0
46.4038,-30.3997,0.19512,0
46.4394,-30.304,0.194339,0
46.4728,-30.2076,0.193665,0
46.5042,-30.1106,0.193099,0
46.5334,-30.013,0.19264,0
46.5605,-29.9147,0.192288,0
46.5853,-29.816,0.192044,0
46.608,-29.7167,0.191907,0
46.6281,-29.6169,0.191751,0
46.6456,-29.5166,0.191605,0
39.5434,-32.305,0.409954,0
39.6266,-32.3745,0.408421,0
39.7113,-32.4421,0.406868,0
39.7977,-32.5077,0.405296,0
39.8856,-32.5713,0.403704,0
39.975,-32.6328,0.402103,0
40.066,-32.6923,0.400472,0
40.1584,-32.7495,0.398831,0
40.2524,-32.8042,0.397015,0
40.3489,-32.8542,0.394407,0
40.4466,-32.9019,0.39178,0
40.5455,-32.9472,0.389144,0
40.6453,-32.9902,0.386478,0
40.7461,-33.0307,0.383792,0
40.8483,-33.0677,0.380804,0
40.9513,-33.1019,0.377659,0
41.0552,-33.1335,0.374505,0
41.1598,-33.1626,0.371341,0
41.2648,-33.1893,0.368187,0
41.3705,-33.2133,0.365023,0
41.4767,-33.2349,0.361868,0
41.5833,-33.2539,0.358714,0
41.6903,-33.2703,0.35557,0
41.7976,-33.2842,0.352425,0
41.9051,-33.2955,0.34929,0
42.0127,-33.3043,0.346175,0
42.1205,-33.3104,0.34306,0
42.2285,-33.3141,0.339974,0
42.3364,-33.3151,0.336888,0
42.4442,-33.3136,0.333831,0
42.552,-33.3095,0.330794,0
42.6595,-33.3029,0.327777,0
42.7665,-33.2918,0.324222,0
42.8731,-33.2766,0.320277,0
42.9791,-33.2589,0.316361,0
43.0846,-33.2387,0.312493,0
43.1894,-33.2162,0.308655,0
43.2935,-33.1912,0.304866,0
43.3969,-33.1638,0.301116,0
43.4995,-33.134,0.297405,0
43.6012,-33.1019,0.293753,0
43.702,-33.0674,0.29014,0
43.8019,-33.0307,0.286585,0
43.9007,-32.9916,0.283079,0
43.9985,-32.9504,0.279632,0
44.0952,-32.9069,0.276234,0
44.1908,-32.8613,0.272904,0
44.2852,-32.8135,0.269622,0
44.3783,-32.7636,0.2664,0
44.4701,-32.7117,0.263245,0
44.5605,-32.6576,0.26015,0
44.6497,-32.6016,0.257132,0
44.7374,-32.5436,0.254163,0
44.8237,-32.4837,0.251273,0
44.9084,-32.4218,0.248441,0
44.9916,-32.3581,0.245696,0
45.0734,-32.2926,0.243011,0
45.1534,-32.2253,0.240394,0
45.2307,-32.1549,0.237396,0
45.3058,-32.0823,0.23428,0
45.3791,-32.0082,0.231273,0
45.4508,-31.9326,0.228363,0
45.5205,-31.8555,0.22554,0
45.5884,-31.777,0.222816,0
45.6545,-31.6972,0.220179,0
45.7188,-31.616,0.21765,0
45.7811,-31.5335,0.215218,0
45.8415,-31.4497,0.212874,0
45.8999,-31.3648,0.210648,0
45.9564,-31.2787,0.208519,0
46.0109,-31.1915,0.206478,0
46.0635,-31.1032,0.204583,0
46.1148,-31.0143,0.202991,0
46.164,-30.9244,0.201507,0
46.2113,-30.8335,0.20013,0
46.2566,-30.7417,0.198861,0
46.2997,-30.649,0.197698,0
46.3408,-30.5554,0.196634,0
46.3798,-30.461,0.195677,0
46.4166,-30.3658,0.194827,0
46.4515,-30.2699,0.194095,0
46.4842,-30.1733,0.19345,0
46.5148,-30.076,0.192923,0
46.5433,-29.9781,0.192503,0
46.5695,-29.8797,0.192191,0
46.5936,-29.7807,0.191976,0
46.6156,-29.6813,0.191888,0
46.6346,-29.5813,0.191683,0
46.6514,-29.4809,0.191585,0
39.5728,-32.3299,0.409417,0
39.6565,-32.3987,0.407874,0
39.7417,-32.4656,0.406312,0
39.8287,-32.5305,0.404739,0
39.9172,-32.5934,0.403138,0
40.0072,-32.6542,0.401517,0
40.0987,-32.7128,0.399886,0
40.1916,-32.7694,0.398245,0
40.2866,-32.8222,0.396087,0
40.3835,-32.8714,0.39348,0
40.4816,-32.9183,0.390853,0
40.5808,-32.9628,0.388196,0
40.681,-33.0048,0.38553,0
40.7822,-33.0444,0.382825,0
40.8848,-33.0802,0.379691,0
40.9882,-33.1134,0.376536,0
41.0923,-33.1441,0.373382,0
41.197,-33.1724,0.370228,0
41.3023,-33.1981,0.367064,0
41.4082,-33.2213,0.3639,0
41.5145,-33.2419,0.360745,0
41.6213,-33.26,0.357591,0
41.7284,-33.2755,0.354446,0
41.8357,-33.2885,0.351312,0
41.9434,-33.2989,0.348177,0
42.0511,-33.3068,0.345071,0
42.1589,-33.312,0.341956,0
42.2668,-33.3147,0.33887,0
42.3747,-33.3149,0.335804,0
42.4825,-33.3124,0.332747,0
42.5901,-33.3075,0.32971,0
42.6975,-33.2999,0.326702,0
42.8045,-33.2866,0.322816,0
42.9108,-33.2706,0.31888,0
43.0166,-33.252,0.314984,0
43.1219,-33.231,0.311126,0
43.2264,-33.2075,0.307298,0
43.3303,-33.1817,0.303519,0
43.4334,-33.1534,0.299788,0
43.5357,-33.1228,0.296107,0
43.6371,-33.0899,0.292464,0
43.7375,-33.0546,0.28887,0
43.837,-33.0171,0.285335,0
43.9356,-32.9773,0.281849,0
44.033,-32.9352,0.278411,0
44.1293,-32.891,0.275042,0
44.2245,-32.8446,0.271722,0
44.3183,-32.7961,0.26848,0
44.4109,-32.7454,0.265277,0
44.5023,-32.6927,0.262142,0
44.5923,-32.638,0.259075,0
44.681,-32.5812,0.256068,0
44.7682,-32.5225,0.253128,0
44.8539,-32.4619,0.250257,0
44.9381,-32.3994,0.247464,0
45.0209,-32.335,0.24473,0
45.102,-32.2689,0.242064,0
45.1814,-32.2008,0.239437,0
45.2576,-32.1293,0.236282,0
45.3321,-32.0562,0.233206,0
45.4048,-31.9815,0.230237,0
45.4757,-31.9054,0.227347,0
45.5448,-31.8278,0.224554,0
45.6122,-31.7488,0.221868,0
45.6776,-31.6685,0.21928,0
45.7411,-31.5868,0.21678,0
45.8027,-31.5039,0.214378,0
45.8624,-31.4197,0.212073,0
45.9202,-31.3343,0.209876,0
45.976,-31.2478,0.207777,0
46.0298,-31.1602,0.205775,0
46.0819,-31.0718,0.204007,0
46.1325,-30.9825,0.202454,0
46.1811,-30.8922,0.201009,0
46.2276,-30.801,0.199671,0
46.272,-30.7089,0.198431,0
46.3145,-30.6158,0.197308,0
46.3548,-30.5219,0.196273,0
46.3931,-30.4273,0.195364,0
46.4294,-30.3318,0.194554,0
46.4634,-30.2356,0.193851,0
46.4953,-30.1388,0.193255,0
46.5252,-30.0413,0.192767,0
46.5528,-29.9432,0.192386,0
46.5783,-29.8446,0.192113,0
46.6017,-29.7455,0.191937,0
46.6227,-29.6458,0.19181,0
46.6409,-29.5457,0.191644,0
39.6023,-32.3546,0.40887,0
39.6866,-32.4227,0.407327,0
39.7724,-32.4889,0.405765,0
39.86,-32.5531,0.404173,0
39.9489,-32.6152,0.402571,0
40.0395,-32.6753,0.40095,0
40.1315,-32.7332,0.39931,0
40.2249,-32.7889,0.39765,0
40.3209,-32.84,0.395169,0
40.4182,-32.8883,0.392542,0
40.5167,-32.9344,0.389915,0
40.6162,-32.978,0.387249,0
40.7169,-33.0192,0.384573,0
40.8186,-33.0574,0.381722,0
40.9214,-33.0922,0.378568,0
41.0251,-33.1246,0.375423,0
41.1295,-33.1545,0.372259,0
41.2344,-33.1818,0.369095,0
41.3398,-33.2066,0.365941,0
41.4459,-33.2289,0.362786,0
41.5524,-33.2486,0.359622,0
41.6593,-33.2658,0.356478,0
41.7665,-33.2804,0.353333,0
41.8739,-33.2925,0.350198,0
41.9816,-33.302,0.347073,0
42.0894,-33.3089,0.343958,0
42.1973,-33.3133,0.340862,0
42.3052,-33.3151,0.337786,0
42.413,-33.3143,0.33472,0
42.5207,-33.311,0.331673,0
42.6283,-33.3051,0.328646,0
42.7356,-33.2957,0.325374,0
42.8423,-33.2812,0.321419,0
42.9484,-33.2643,0.317493,0
43.0541,-33.2448,0.313607,0
43.1591,-33.2229,0.309759,0
43.2634,-33.1986,0.30595,0
43.367,-33.1719,0.302191,0
43.4698,-33.1428,0.29848,0
43.5718,-33.1114,0.294798,0
43.6728,-33.0776,0.291185,0
43.773,-33.0415,0.287611,0
43.8722,-33.0032,0.284095,0
43.9703,-32.9626,0.280628,0
44.0673,-32.9198,0.27722,0
45.2082,-32.0251,0.23928,0
45.2805,-31.9535,0.236302,0
45.351,-31.8804,0.233421,0
45.4198,-31.8058,0.230628,0
45.4868,-31.7299,0.227933,0
45.552,-31.6526,0.225325,0
45.6154,-31.5739,0.222825,0
45.6769,-31.494,0.220404,0
45.7365,-31.4128,0.218089,0
45.7944,-31.3305,0.215862,0
45.8502,-31.2469,0.213743,0
45.9041,-31.1623,0.211722,0
45.9565,-31.0768,0.209915,0
46.0073,-30.9905,0.208323,0
46.056,-30.9032,0.206839,0
46.103,-30.8149,0.205452,0
46.1478,-30.7257,0.204173,0
46.1907,-30.6355,0.202991,0
46.2316,-30.5445,0.201917,0
46.2704,-30.4527,0.200941,0
46.3073,-30.3601,0.200081,0
46.342,-30.2668,0.19931,0
46.3747,-30.1728,0.198655,0
46.4053,-30.0781,0.198099,0
46.4338,-29.9829,0.19765,0
46.4602,-29.887,0.197308,0
46.4844,-29.7906,0.197015,0
46.5059,-29.6936,0.196683,0
46.5252,-29.5962,0.196439,0
46.5423,-29.4984,0.196302,0
39.619,-32.2125,0.409056,0
39.7,-32.2801,0.407562,0
39.7826,-32.3459,0.406048,0
39.8666,-32.4097,0.404515,0
39.9523,-32.4716,0.402972,0
40.0395,-32.5315,0.4014,0
40.128,-32.5892,0.399808,0
40.218,-32.645,0.398216,0
40.3105,-32.6964,0.395882,0
40.4045,-32.7452,0.393353,0
40.4995,-32.7916,0.390794,0
40.5957,-32.8357,0.388226,0
40.6929,-32.8775,0.385638,0
40.791,-32.917,0.383021,0
40.8902,-32.9538,0.380335,0
40.9905,-32.9871,0.377269,0
41.0916,-33.018,0.374202,0
41.1933,-33.0464,0.371116,0
41.2957,-33.0723,0.36805,0
41.3985,-33.0958,0.364964,0
41.5019,-33.1169,0.361898,0
41.6056,-33.1354,0.358821,0
41.7098,-33.1515,0.355755,0
41.8141,-33.1651,0.352708,0
41.9189,-33.1761,0.349652,0
42.0237,-33.1847,0.346614,0
42.1287,-33.1908,0.343587,0
42.2337,-33.1944,0.340579,0
42.3387,-33.1955,0.337581,0
42.4437,-33.1941,0.334603,0
42.5486,-33.1902,0.331644,0
42.6534,-33.1838,0.328695,0
42.7576,-33.1733,0.325316,0
42.8614,-33.1586,0.321468,0
42.9647,-33.1415,0.31765,0
43.0674,-33.1221,0.31388,0
43.1695,-33.1002,0.31014,0
43.2709,-33.076,0.306448,0
43.3716,-33.0495,0.302786,0
43.4716,-33.0206,0.299183,0
