41.7458,-37.609,-0.357419,174
41.9684,-37.526,-0.367904,174
42.184,-37.6711,-0.364547,174
42.4776,-44.7936,0.0459593,174
42.9356,-47.0326,0.167482,174
43.3028,-45.8121,0.0889809,174
43.5651,-43.9603,-0.0238619,174
44.3425,-47.973,0.197274,0
44.7803,-47.7785,0.179427,0
45.0494,-46.4919,0.101267,174
45.3827,-45.9106,0.063716,174
45.9843,-46.8232,0.109827,0
46.3517,-46.4545,0.0854084,0
46.7062,-46.0866,0.0617854,0
47.0533,-45.7393,0.0400129,0
47.3924,-45.405,0.019632,0
47.7142,-45.0505,-0.0011834,0
48.0025,-44.6317,-0.0248797,0
48.2785,-44.2201,-0.0475799,0
48.5429,-43.8152,-0.0693133,0
48.799,-43.4236,-0.0897771,0
49.0631,-43.079,-0.107136,0
49.3184,-42.7376,-0.123796,0
49.565,-42.3993,-0.139792,0
49.8033,-42.0641,-0.155143,0
50.0336,-41.7317,-0.16988,0
50.2479,-41.3881,-0.184802,0
50.4495,-41.0404,-0.199528,0
50.6529,-40.711,-0.212839,0
50.8507,-40.3867,-0.225446,0
51.0417,-40.0649,-0.237526,0
51.2221,-39.7405,-0.249401,0
51.3962,-39.419,-0.260739,0
51.5641,-39.1004,-0.271589,0
51.7261,-38.7845,-0.28193,0
51.8864,-38.4755,-0.29153,0
52.059,-38.1873,-0.299518,0
52.2267,-37.9,-0.307106,0
52.3898,-37.6134,-0.314294,0
52.5483,-37.3277,-0.32111,0
52.7002,-37.0407,-0.327653,0
52.8471,-36.7539,-0.333864,0
52.9897,-36.4678,-0.339704,0
53.1281,-36.1824,-0.345182,0
53.2687,-35.9018,-0.349977,0
53.4102,-35.6247,-0.354177,0
53.548,-35.3473,-0.358054,0
53.6823,-35.0696,-0.361579,0
53.8102,-34.79,-0.364919,0
53.9276,-34.5061,-0.368278,0
54.041,-34.222,-0.371325,0
54.1509,-33.9377,-0.374059,0
54.257,-33.653,-0.376481,0
54.3693,-33.3725,-0.378141,0
54.4812,-33.0922,-0.379372,0
54.5898,-32.8109,-0.38029,0
54.6951,-32.5284,-0.380905,0
54.7971,-32.2447,-0.381218,0
54.8959,-31.9597,-0.381247,0
54.9916,-31.6734,-0.380954,0
55.0853,-31.3859,-0.380309,0
55.1801,-31.0978,-0.379177,0
55.2809,-30.8099,-0.37735,0
55.3729,-30.5184,-0.375466,0
55.4616,-30.2248,-0.373268,0
55.5469,-29.9288,-0.370788,0
55.6287,-29.6306,-0.367985,0
55.7072,-29.3298,-0.364889,0
55.7822,-29.0266,-0.361471,0
55.8537,-28.7207,-0.357751,0
55.9217,-28.4122,-0.353698,0
32.3541,-44.3591,0.426917,0
32.6688,-44.6894,0.425828,0
32.9953,-45.0105,0.42429,0
33.3332,-45.3221,0.422313,0
33.6792,-45.6296,0.420374,0
35.1382,-43.5426,0.23819,174
35.5045,-43.6811,0.227641,174
34.758,-46.5471,0.416263,0
36.5879,-43.0321,0.142103,174
35.5442,-47.0682,0.408904,0
35.9564,-47.295,0.403558,0
36.3751,-47.5141,0.398201,0
37.9478,-43.6205,0.116772,174
38.5691,-42.6835,0.039738,174
39.0167,-42.2833,0.000223389,174
39.3735,-42.211,-0.0167903,174
39.6843,-42.3538,-0.0193706,174
39.9665,-42.7006,-0.00875099,174
40.1633,-43.775,0.0471627,174
41.2006,-37.8259,-0.329623,174
41.4355,-37.7327,-0.341807,174
41.6649,-37.6413,-0.353406,174
41.8894,-37.5516,-0.36445,174
42.1072,-37.5675,-0.368816,174
42.3263,-37.9866,-0.349285,174
42.7668,-46.5103,0.140349,174
43.1611,-45.9013,0.0968693,174
43.5763,-45.9693,0.0932064,174
43.8172,-44.1328,-0.0180067,174
44.6247,-47.8492,0.185784,0
45.0574,-47.6486,0.168089,0
45.2447,-45.9873,0.0697246,174
45.8495,-46.9552,0.118758,0
46.2218,-46.5863,0.0940559,0
46.5809,-46.2181,0.0701496,0
46.9293,-45.8589,0.0474641,0
47.2723,-45.5246,0.0268488,0
47.6045,-45.1903,0.00689278,0
47.9008,-44.7807,-0.0165203,0
48.1811,-44.3666,-0.0395623,0
48.4496,-43.9593,-0.0616424,0
48.7068,-43.5587,-0.0827898,0
48.9697,-43.2019,-0.101003,0
49.228,-42.8593,-0.117917,0
49.4777,-42.52,-0.134147,0
49.719,-42.1837,-0.149723,0
49.9522,-41.8503,-0.164684,0
50.1739,-41.5137,-0.179362,0
50.3782,-41.1643,-0.194333,0
50.5805,-40.8278,-0.20818,0
50.7807,-40.5023,-0.221003,0
50.9744,-40.18,-0.233249,0
51.1584,-39.8562,-0.245212,0
51.3346,-39.5337,-0.256745,0
51.5047,-39.2141,-0.267761,0
51.6688,-38.8972,-0.278278,0
51.8271,-38.5829,-0.288327,0
51.9977,-38.2903,-0.296706,0
52.1673,-38.0026,-0.30444,0
52.332,-37.7159,-0.311764,0
52.4921,-37.4298,-0.318708,0
52.6466,-37.1435,-0.325339,0
52.7951,-36.8565,-0.331686,0
52.9392,-36.5701,-0.337653,0
53.0791,-36.2845,-0.343268,0
53.2172,-36.001,-0.348386,0
53.3599,-35.7238,-0.352712,0
53.4991,-35.4465,-0.356696,0
53.6346,-35.169,-0.360348,0
53.7666,-34.8912,-0.363679,0
53.886,-34.6077,-0.367116,0
54.0009,-34.3236,-0.37028,0
54.112,-34.0394,-0.373122,0
54.2195,-33.7549,-0.375651,0
54.3284,-33.4725,-0.377634,0
54.4416,-33.1926,-0.378962,0
54.5513,-32.9117,-0.379997,0
54.6578,-32.6296,-0.38072,0
54.761,-32.3463,-0.381149,0
54.861,-32.0618,-0.381266,0
54.9578,-31.7759,-0.381091,0
55.0513,-31.4887,-0.380612,0
55.1459,-31.2009,-0.379645,0
55.2471,-30.9136,-0.377956,0
55.3404,-30.6229,-0.376169,0
55.4302,-30.3301,-0.374089,0
55.5167,-30.035,-0.371706,0
55.5998,-29.7375,-0.36902,0
55.6795,-29.4377,-0.366032,0
55.7557,-29.1353,-0.362731,0
55.8285,-28.8304,-0.359118,0
55.8978,-28.5229,-0.355182,0
33.4206,-43.1673,0.434988,0
33.7186,-43.4584,0.434061,0
34.316,-43.1921,0.385086,174
34.347,-44.0098,0.430613,0
34.9037,-43.7864,0.387688,174
35.4208,-43.6024,0.349815,174
37.1083,-40.554,0.0817163,174
36.5063,-42.9609,0.257003,174
36.0774,-45.2204,0.41553,0
37.0517,-43.6383,0.273082,174
36.8309,-45.6152,0.405882,0
37.8722,-43.5112,0.229282,174
37.6066,-45.9805,0.396209,0
38.9228,-42.2768,0.108456,174
39.2907,-42.1589,0.086889,174
39.6037,-42.2826,0.0834169,174
39.9036,-42.5031,0.087202,174
40.0786,-43.6545,0.156098,174
41.1399,-37.807,-0.258259,174
41.3779,-37.6855,-0.273335,174
41.607,-37.5951,-0.285745,174
41.8311,-37.5064,-0.297551,174
42.0496,-37.4555,-0.306367,174
42.2644,-37.682,-0.296508,174
42.6348,-45.7265,0.224196,174
43.0456,-45.8573,0.224529,174
43.3429,-44.124,0.105279,174
43.7057,-44.0381,0.0935569,174
44.2687,-45.7849,0.199202,0
44.653,-45.5765,0.180408,0
45.0295,-45.3628,0.162044,0
45.3912,-45.1078,0.141834,0
45.739,-44.827,0.120721,0
46.0768,-44.5447,0.100252,0
46.4048,-44.2612,0.0803986,0
46.7232,-43.9766,0.0611604,0
47.0324,-43.691,0.0425129,0
47.3332,-43.4071,0.0245979,0
47.6278,-43.13,0.00770332,0
47.901,-42.8173,-0.0108074,0
48.1642,-42.5039,-0.0287957,0
48.4187,-42.1923,-0.0461394,0
48.6645,-41.8824,-0.0628387,0
48.9022,-41.5744,-0.0789227,0
49.1319,-41.2681,-0.0944207,0
49.3548,-40.9654,-0.109216,0
49.5784,-40.6784,-0.122546,0
49.7952,-40.3923,-0.135378,0
50.0052,-40.1071,-0.147712,0
50.2033,-39.8143,-0.160114,0
50.3881,-39.5133,-0.172673,0
50.5666,-39.2145,-0.184704,0
50.7389,-38.9179,-0.196208,0
50.9055,-38.6234,-0.207233,0
51.0788,-38.3456,-0.216745,0
51.253,-38.0757,-0.225339,0
51.4225,-37.8064,-0.233532,0
51.5872,-37.5376,-0.241325,0
51.7474,-37.2693,-0.248708,0
51.9031,-37.0014,-0.25572,0
52.0545,-36.7338,-0.26235,0
52.2015,-36.4666,-0.26861,0
52.3404,-36.1963,-0.274762,0
52.4767,-35.9276,-0.280466,0
52.6116,-35.6611,-0.285641,0
52.7422,-35.3945,-0.290495,0
52.8689,-35.1278,-0.295007,0
52.9918,-34.8609,-0.299206,0
53.1106,-34.5939,-0.303063,0
53.2258,-34.3266,-0.306608,0
53.3372,-34.059,-0.309841,0
53.4448,-33.7911,-0.312761,0
53.5515,-33.5241,-0.315221,0
53.6633,-33.2605,-0.316911,0
53.7717,-32.9959,-0.318307,0
53.877,-32.7302,-0.319382,0
53.9787,-32.4634,-0.320163,0
54.0774,-32.1955,-0.320641,0
54.171,-31.9257,-0.320925,0
54.2591,-31.654,-0.321012,0
54.3438,-31.3811,-0.320807,0
54.4254,-31.107,-0.32029,0
54.5098,-30.8331,-0.319167,0
54.5911,-30.5575,-0.317741,0
54.6691,-30.2801,-0.316013,0
54.7438,-30.001,-0.313991,0
54.8154,-29.7201,-0.311647,0
54.8837,-29.4373,-0.309001,0
54.9487,-29.1525,-0.306042,0
55.0105,-28.8657,-0.302761,0
55.0698,-28.5768,-0.299118,0
33.3159,-43.0622,0.435316,0
33.6111,-43.3547,0.434388,0
33.9171,-43.6376,0.432967,0
34.2325,-43.9125,0.431229,0
34.5551,-44.1831,0.42952,0
35.2981,-43.5354,0.352174,174
35.6185,-43.7775,0.350212,174
35.5788,-44.9363,0.422054,0
36.7109,-43.0863,0.254864,174
36.317,-45.3503,0.41243,0
36.6945,-45.5467,0.407611,0
37.7236,-43.5487,0.237943,174
38.0944,-43.5966,0.225431,174
38.7853,-42.3341,0.117495,174
39.1608,-42.1982,0.0942939,174
39.4921,-42.2346,0.0843436,174
39.7999,-42.3989,0.084029,174
39.9788,-43.4498,0.146065,174
41.046,-37.9055,-0.248922,174
41.2943,-37.7211,-0.268545,174
41.5256,-37.6272,-0.281377,174
41.7515,-37.5379,-0.293395,174
41.9726,-37.4501,-0.304828,174
42.1867,-37.5783,-0.301545,174
42.4794,-44.7126,0.160862,174
42.9073,-46.094,0.242782,174
43.2866,-45.4733,0.194804,174
43.5634,-43.9071,0.0872962,174
44.1292,-45.8581,0.206019,0
44.5166,-45.6517,0.187078,0
44.8957,-45.4398,0.168558,0
45.2644,-45.208,0.149539,0
45.6157,-44.9276,0.128201,0
45.957,-44.6458,0.107508,0
46.2886,-44.3627,0.0874348,0
46.6105,-44.0785,0.0679768,0
46.9229,-43.7933,0.0491193,0
47.2261,-43.5072,0.0308381,0
47.5234,-43.2292,0.0136799,0
47.8046,-42.9299,-0.00420586,0
48.0711,-42.6158,-0.0224383,0
48.3287,-42.3036,-0.0400066,0
48.5775,-41.9931,-0.0569402,0
48.8181,-41.6844,-0.0732391,0
49.0506,-41.3774,-0.0889422,0
49.2752,-41.0722,-0.104059,0
49.4992,-40.781,-0.117829,0
49.7184,-40.4946,-0.130837,0
49.9308,-40.209,-0.143346,0
50.1356,-39.9226,-0.155495,0
50.3227,-39.6207,-0.168249,0
50.5034,-39.3211,-0.180456,0
50.678,-39.0237,-0.192155,0
50.8466,-38.7285,-0.203346,0
51.0152,-38.4423,-0.213561,0
51.1913,-38.1722,-0.222311,0
51.3623,-37.9027,-0.230641,0
51.5288,-37.6337,-0.238571,0
51.6905,-37.3653,-0.24611,0
51.8479,-37.0972,-0.253249,0
52.0008,-36.8295,-0.260026,0
52.1494,-36.5622,-0.266413,0
52.2915,-36.2932,-0.272585,0
52.4275,-36.023,-0.278522,0
52.5637,-35.7564,-0.283825,0
52.6959,-35.4899,-0.288796,0
52.8241,-35.2232,-0.293434,0
52.9483,-34.9564,-0.297731,0
53.0686,-34.6894,-0.301725,0
53.185,-34.4222,-0.305378,0
53.2977,-34.1548,-0.308727,0
53.4066,-33.887,-0.311755,0
53.512,-33.6188,-0.31447,0
53.6237,-33.3549,-0.316345,0
53.7334,-33.0907,-0.317839,0
53.8397,-32.8254,-0.31903,0
53.9427,-32.559,-0.319928,0
54.0425,-32.2915,-0.320514,0
54.1387,-32.0226,-0.320817,0
54.228,-31.7513,-0.321012,0
54.3139,-31.4789,-0.320915,0
54.3965,-31.2052,-0.320514,0
54.48,-30.9313,-0.319596,0
54.5624,-30.6562,-0.318288,0
54.6415,-30.3795,-0.316677,0
54.7174,-30.1011,-0.314743,0
54.7902,-29.8208,-0.312516,0
54.8596,-29.5387,-0.309987,0
54.9259,-29.2546,-0.307126,0
54.9888,-28.9685,-0.303971,0
55.0485,-28.6803,-0.300485,0
55.1085,-28.3901,-0.296501,0
33.2096,-42.9608,0.436029,0
33.6456,-43.0067,0.412857,174
33.806,-43.5382,0.433597,0
34.1187,-43.8146,0.431849,0
34.4388,-44.0868,0.43013,0
35.1393,-43.5467,0.361131,174
35.5157,-43.6623,0.348529,174
37.2088,-40.5414,0.0759658,174
36.6001,-43.0075,0.255329,174
36.1832,-45.2783,0.414154,0
36.5588,-45.4773,0.409339,0
36.9399,-45.669,0.404515,0
38.9323,-40.1071,-0.0295944,174
38.6101,-42.5327,0.137086,174
39.0291,-42.2405,0.102024,174
39.3798,-42.1924,0.0857358,174
39.6905,-42.3333,0.0836135,174
39.9791,-42.6369,0.0933235,174
40.9485,-38.0182,-0.238491,174
41.2087,-37.7687,-0.262861,174
41.4436,-37.6596,-0.276929,174
41.6712,-37.5697,-0.289164,174
41.894,-37.4814,-0.300803,174
42.1106,-37.4767,-0.306435,174
42.3274,-37.766,-0.292393,174
42.7691,-46.4837,0.271146,0
43.1577,-45.7716,0.216763,174
43.4406,-44.0189,0.0966944,174
43.8113,-44.0441,0.0922855,174
44.3789,-45.7262,0.193807,0
44.7609,-45.5162,0.175145,0
45.1351,-45.3011,0.156898,0
45.4912,-45.0281,0.13576,0
45.836,-44.7468,0.114842,0
46.1711,-44.4641,0.0945441,0
46.4963,-44.1803,0.0748713,0
46.8121,-43.8954,0.055799,0
47.1187,-43.6097,0.0373176,0
47.4179,-43.3283,0.0197346,0
47.7072,-43.0427,0.00249336,0
47.9769,-42.728,-0.015993,0
48.2375,-42.415,-0.0338055,0
48.4895,-42.104,-0.0509539,0
48.733,-41.7946,-0.0674773,0
48.9684,-41.487,-0.0833953,0
49.1958,-41.1812,-0.0987176,0
49.4191,-40.8837,-0.113054,0
49.6408,-40.597,-0.126247,0
49.8555,-40.3111,-0.138932,0
50.0638,-40.0261,-0.15113,0
50.2566,-39.7284,-0.163747,0
50.4395,-39.428,-0.176149,0
50.6162,-39.1299,-0.188024,0
50.787,-38.8339,-0.199391,0
50.9518,-38.5399,-0.21027,0
51.1289,-38.2688,-0.219225,0
51.3017,-37.9991,-0.227712,0
51.4698,-37.7299,-0.235788,0
51.6333,-37.4612,-0.243464,0
51.7921,-37.1931,-0.250739,0
51.9466,-36.9253,-0.257643,0
52.0966,-36.6578,-0.264167,0
52.242,-36.3901,-0.270358,0
52.3788,-36.1192,-0.276471,0
52.5155,-35.8518,-0.28197,0
52.6491,-35.5852,-0.287067,0
52.7787,-35.3186,-0.291813,0
52.9043,-35.0519,-0.296227,0
53.026,-34.785,-0.300329,0
53.1437,-34.5178,-0.304108,0
53.2578,-34.2505,-0.307565,0
53.3681,-33.9828,-0.31071,0
53.4748,-33.7148,-0.313532,0
53.5837,-33.4492,-0.315739,0
53.6945,-33.1853,-0.317341,0
53.802,-32.9204,-0.318639,0
53.9062,-32.6545,-0.319636,0
54.0072,-32.3873,-0.320339,0
54.1049,-32.119,-0.320729,0
54.1964,-31.8485,-0.320983,0
54.2835,-31.5765,-0.320973,0
54.3673,-31.3033,-0.32069,0
54.4498,-31.0293,-0.319997,0
54.5333,-30.7548,-0.318786,0
54.6136,-30.4787,-0.317272,0
54.6907,-30.2009,-0.315475,0
54.7645,-29.9213,-0.313356,0
54.8352,-29.6398,-0.310925,0
54.9025,-29.3565,-0.30818,0
54.9667,-29.0711,-0.305134,0
55.0275,-28.7837,-0.301764,0
55.0872,-28.4942,-0.297975,0
34.1469,-41.9354,0.439554,0
34.4281,-42.1892,0.438079,0
35.0149,-41.8715,0.382749,174
35.0034,-42.6982,0.436468,0
35.3015,-42.946,0.435638,0
35.616,-43.1678,0.432884,0
37.1607,-40.4336,0.168413,174
36.5027,-42.9773,0.373461,174
36.8019,-43.229,0.375541,174
37.0693,-43.5946,0.387633,174
37.3075,-44.0942,0.41098,0
38.8586,-40.0754,0.0615429,174
39.1493,-40.0968,0.0504777,174
38.917,-42.3117,0.216384,174
39.2961,-42.1449,0.189493,174
39.61,-42.2623,0.185965,174
39.9113,-42.4719,0.190099,174
40.086,-43.621,0.266822,174
41.1475,-37.7568,-0.191412,174
41.3852,-37.6252,-0.208262,174
41.6137,-37.5241,-0.222224,174
41.8361,-37.4367,-0.234617,174
42.0532,-37.3786,-0.244357,174
42.2663,-37.5889,-0.234038,174
42.6202,-44.7973,0.283831,0
42.9989,-44.6694,0.266976,0
43.3446,-44.1114,0.220121,174
43.7003,-43.9481,0.202465,174
44.0931,-44.1745,0.213167,0
44.4444,-43.9981,0.195965,0
44.7887,-43.8162,0.179105,0
45.1264,-43.6293,0.162615,0
45.4493,-43.3988,0.143787,0
45.7638,-43.1644,0.125374,0
46.0702,-42.9278,0.107503,0
46.3687,-42.6891,0.0901301,0
46.6595,-42.4484,0.0732648,0
46.9426,-42.206,0.0568879,0
47.2181,-41.9619,0.041009,0
47.4864,-41.7163,0.0255891,0
47.7426,-41.4573,0.00981758,0
47.9836,-41.1798,-0.00670586,0
48.2192,-40.9083,-0.0223016,0
48.4522,-40.6467,-0.0366766,0
48.6785,-40.3854,-0.0505437,0
48.8982,-40.1242,-0.0639031,0
49.1114,-39.8633,-0.0767937,0
49.3184,-39.6026,-0.0892059,0
49.5192,-39.3422,-0.101149,0
49.7141,-39.082,-0.112653,0
49.9031,-38.8221,-0.123718,0
50.0865,-38.5625,-0.134343,0
50.2667,-38.3063,-0.144313,0
50.4419,-38.0505,-0.153854,0
50.6119,-37.7949,-0.162985,0
50.777,-37.5397,-0.171716,0
50.9372,-37.2847,-0.180055,0
51.0927,-37.0298,-0.188014,0
51.2437,-36.7752,-0.195583,0
51.3901,-36.5207,-0.20279,0
51.532,-36.2664,-0.209626,0
51.6704,-36.0128,-0.216052,0
51.8083,-35.7624,-0.221843,0
51.9421,-35.5117,-0.227302,0
52.072,-35.2608,-0.232429,0
52.1977,-35.0097,-0.237214,0
52.3198,-34.7582,-0.241686,0
52.438,-34.5064,-0.245817,0
52.5524,-34.2543,-0.249645,0
52.6631,-34.0018,-0.253161,0
52.7702,-33.7488,-0.256374,0
52.8773,-33.4973,-0.25902,0
52.9873,-33.2482,-0.260973,0
53.0922,-32.9973,-0.262741,0
53.1925,-32.7449,-0.264294,0
53.2894,-32.4915,-0.265524,0
53.3828,-32.2371,-0.266491,0
53.473,-31.9816,-0.267145,0
53.5596,-31.7251,-0.267516,0
53.6431,-31.4674,-0.267585,0
53.7232,-31.2085,-0.26737,0
53.8036,-30.9494,-0.266647,0
53.8829,-30.6893,-0.265505,0
53.959,-30.4277,-0.264079,0
54.0318,-30.1645,-0.262341,0
54.1014,-29.8996,-0.260309,0
54.1677,-29.6331,-0.257975,0
54.2227,-29.3638,-0.255788,0
54.267,-29.0925,-0.253718,0
54.3075,-28.82,-0.251364,0
54.3517,-28.5467,-0.248298,0
34.0458,-41.8471,0.440423,0
34.3281,-42.0965,0.438372,0
34.9646,-41.6944,0.374478,174
34.8984,-42.6084,0.436751,0
35.68,-41.8451,0.342529,174
35.5026,-43.0896,0.433914,0
37.0015,-40.527,0.183071,174
37.3191,-40.5696,0.169275,174
36.7238,-43.0592,0.36786,174
36.8356,-43.859,0.416951,0
37.1823,-44.0334,0.412552,0
37.7485,-43.4741,0.347937,174
39.0624,-40.0272,0.0492928,174
39.3236,-40.1561,0.0473712,174
39.1667,-42.1826,0.197241,174
39.4983,-42.216,0.186832,174
39.8061,-42.3769,0.18702,174
40.0375,-43.0779,0.229313,174
41.0582,-37.8234,-0.18374,174
41.301,-37.6718,-0.202339,174
41.533,-37.5557,-0.217635,174
41.7571,-37.4678,-0.230255,174
41.9765,-37.3814,-0.242252,174
42.1893,-37.4871,-0.239687,174
42.4814,-44.6576,0.276604,174
42.8643,-44.7247,0.273607,0
43.2151,-44.1581,0.225786,174
43.5644,-43.8879,0.200224,174
43.9659,-44.2363,0.219417,0
44.3195,-44.0618,0.202083,0
44.6663,-43.8819,0.185101,0
45.0065,-43.6967,0.16848,0
45.3349,-43.4825,0.150521,0
45.6522,-43.2485,0.131903,0
45.9616,-43.0127,0.113831,0
46.2629,-42.7747,0.0962824,0
46.5564,-42.5347,0.0792316,0
46.8422,-42.2929,0.0626887,0
47.1204,-42.0494,0.046634,0
47.3913,-41.8043,0.0310578,0
47.6545,-41.5568,0.015882,0
47.8982,-41.279,-0.000866013,0
48.1343,-41.002,-0.0170281,0
48.3697,-40.7403,-0.0315887,0
48.5984,-40.4788,-0.0456414,0
48.8203,-40.2176,-0.0591863,0
49.0359,-39.9566,-0.072243,0
49.245,-39.6958,-0.0848211,0
49.448,-39.4353,-0.0969305,0
49.6451,-39.1751,-0.108591,0
49.8362,-38.9151,-0.119802,0
50.0216,-38.6553,-0.130583,0
50.2028,-38.3979,-0.140798,0
50.3798,-38.142,-0.150485,0
50.5516,-37.8863,-0.159762,0
50.7185,-37.631,-0.168639,0
50.8805,-37.3759,-0.177116,0
51.0377,-37.121,-0.185202,0
51.1902,-36.8663,-0.192917,0
51.3382,-36.6117,-0.200251,0
51.4817,-36.3573,-0.207233,0
51.6209,-36.1031,-0.213835,0
51.7594,-35.852,-0.219811,0
51.8947,-35.6014,-0.225387,0
52.0259,-35.3506,-0.230632,0
52.1532,-35.0995,-0.235544,0
52.2766,-34.8482,-0.240114,0
52.3961,-34.5965,-0.244382,0
52.512,-34.3445,-0.248317,0
52.624,-34.0922,-0.25194,0
52.7323,-33.8394,-0.255261,0
52.8371,-33.5861,-0.258249,0
52.9484,-33.3374,-0.260319,0
53.0555,-33.0874,-0.262116,0
53.157,-32.8353,-0.263766,0
53.2552,-32.5823,-0.265124,0
53.3498,-32.3282,-0.266179,0
53.441,-32.0731,-0.26695,0
53.5291,-31.817,-0.267409,0
53.6136,-31.5597,-0.267595,0
53.6949,-31.3013,-0.267487,0
53.7745,-31.0421,-0.266979,0
53.8549,-30.7826,-0.265954,0
53.9321,-30.5215,-0.264626,0
54.0061,-30.2589,-0.262995,0
54.0769,-29.9946,-0.261071,0
54.1444,-29.7286,-0.258845,0
54.206,-29.4606,-0.256462,0
54.2516,-29.1897,-0.254489,0
54.2934,-28.9176,-0.252243,0
54.3317,-28.6444,-0.249694,0
54.3865,-28.3705,-0.2457,0
33.9455,-41.7582,0.441312,0
34.2279,-42.0052,0.438851,0
34.5083,-42.2626,0.437835,0
34.7945,-42.518,0.437034,0
35.0874,-42.7693,0.436243,0
35.3902,-43.0098,0.434876,0
35.7087,-43.2249,0.431653,0
37.2395,-40.472,0.166845,174
36.6059,-42.9998,0.369744,174
36.7129,-43.7949,0.418514,0
37.1556,-43.6745,0.389046,174
37.5684,-43.6128,0.365702,174
38.958,-40.0227,0.0534978,174
39.2096,-40.1893,0.0544483,174
39.0319,-42.2387,0.206584,174
39.3857,-42.1758,0.188238,174
39.6966,-42.3129,0.186401,174
39.9916,-42.5738,0.19461,174
40.9607,-37.9406,-0.17209,174
41.2159,-37.7189,-0.196301,174
41.4515,-37.5885,-0.21289,174
41.6775,-37.4991,-0.225814,174
41.8986,-37.4121,-0.23803,174
42.1139,-37.3882,-0.245121,174
42.3288,-37.6989,-0.227416,174
42.7289,-44.7793,0.280281,0
43.1052,-44.6248,0.261732,0
43.4393,-43.9645,0.207838,174
43.8137,-44.0428,0.207619,174
44.1937,-44.1248,0.20824,0
44.543,-43.9469,0.191126,0
44.8855,-43.7636,0.174383,0
45.22,-43.5685,0.157528,0
45.5397,-43.3323,0.138494,0
45.8518,-43.0973,0.120237,0
46.1559,-42.8601,0.102503,0
46.4523,-42.6208,0.0852766,0
46.7408,-42.3796,0.068548,0
47.0217,-42.1367,0.0523273,0
47.2952,-41.8922,0.0365754,0
47.5613,-41.6461,0.021302,0
47.812,-41.3783,0.00506172,0
48.0506,-41.101,-0.0113055,0
48.2862,-40.8338,-0.0264519,0
48.5173,-40.5723,-0.0406707,0
48.7416,-40.311,-0.0543914,0
48.9595,-40.0499,-0.0676238,0
49.1709,-39.7891,-0.080368,0
49.3761,-39.5285,-0.0926434,0
49.5752,-39.2682,-0.10447,0
49.7685,-39.0081,-0.115837,0
49.9559,-38.7482,-0.126784,0
50.1382,-38.4895,-0.137223,0
50.3171,-38.2335,-0.147067,0
50.4907,-37.9778,-0.156491,0
50.6593,-37.7223,-0.165514,0
50.823,-37.4671,-0.174128,0
50.982,-37.2121,-0.18236,0
51.1362,-36.9574,-0.190202,0
51.2858,-36.7028,-0.197673,0
51.4309,-36.4483,-0.204772,0
51.5715,-36.194,-0.211511,0
51.71,-35.9416,-0.217741,0
51.8467,-35.6911,-0.223434,0
51.9795,-35.4403,-0.228796,0
52.1081,-35.1894,-0.233825,0
52.2329,-34.9382,-0.238512,0
52.3538,-34.6866,-0.242887,0
52.4709,-34.4347,-0.24694,0
52.5843,-34.1825,-0.25068,0
52.694,-33.9298,-0.254108,0
52.7999,-33.6767,-0.257223,0
52.9089,-33.4265,-0.259606,0
53.0179,-33.1772,-0.261481,0
53.1211,-32.9256,-0.26321,0
53.2204,-32.6729,-0.264665,0
53.3162,-32.4192,-0.265837,0
53.4087,-32.1645,-0.266706,0
53.498,-31.9087,-0.267292,0
53.5837,-31.6519,-0.267575,0
53.6662,-31.3938,-0.267565,0
53.7453,-31.1347,-0.267253,0
53.8266,-30.8756,-0.266354,0
53.9049,-30.6151,-0.265134,0
53.98,-30.353,-0.26362,0
54.0519,-30.0893,-0.261794,0
54.1206,-29.824,-0.259675,0
54.186,-29.5569,-0.257243,0
54.2357,-29.2867,-0.255231,0
54.2789,-29.0151,-0.253073,0
54.3184,-28.7423,-0.250641,0
54.3673,-28.4687,-0.247175,0
34.762,-40.8919,0.443861,0
35.028,-41.1163,0.441937,0
35.296,-41.3432,0.440745,0
35.5761,-41.5536,0.438304,0
35.8618,-41.7589,0.435843,0
36.7627,-40.5791,0.298148,174
37.1915,-40.3651,0.258338,174
36.7561,-42.3318,0.427357,0
37.0691,-42.4989,0.423333,0
37.3866,-42.6597,0.4193,0
37.7085,-42.8142,0.415267,0
38.8747,-40.0264,0.14719,174
39.1662,-40.0406,0.135125,174
39.4206,-40.1989,0.136399,174
39.1966,-42.623,0.33472,174
39.5318,-42.6881,0.326622,174
39.8686,-42.7442,0.318437,174
40.8937,-37.9611,-0.0962531,174
41.1547,-37.7098,-0.124948,174
41.3914,-37.5769,-0.142998,174
41.6204,-37.454,-0.159574,174
41.8411,-37.3681,-0.172537,174
42.0568,-37.3029,-0.18328,174
42.2682,-37.4974,-0.1727,174
42.5955,-43.3556,0.289432,0
42.9422,-43.2522,0.274324,0
43.2827,-43.1175,0.257518,0
43.6175,-42.977,0.241029,0
43.9466,-42.8307,0.224837,0
44.2699,-42.6789,0.208958,0
44.5874,-42.5219,0.193392,0
44.899,-42.3597,0.178138,0
45.2041,-42.1897,0.162972,0
45.497,-41.9877,0.146019,0
45.783,-41.7827,0.129486,0
46.0619,-41.5748,0.113392,0
46.3341,-41.3641,0.0976984,0
46.5994,-41.1508,0.0824348,0
46.8593,-40.939,0.0678645,0
47.1162,-40.7335,0.0543879,0
47.3671,-40.5256,0.0412824,0
47.6121,-40.3154,0.0285676,0
47.8414,-40.0816,0.0145344,0
48.0627,-39.8437,0.000706253,0
48.2777,-39.6052,-0.0126727,0
48.4866,-39.3663,-0.0256023,0
48.6895,-39.127,-0.0380926,0
48.8865,-38.8874,-0.0501434,0
49.0777,-38.6474,-0.0617742,0
49.2684,-38.4149,-0.0723504,0
49.459,-38.1891,-0.0819305,0
49.6447,-37.9625,-0.0911297,0
49.8255,-37.735,-0.0999676,0
50.0017,-37.5067,-0.108444,0
50.1705,-37.2747,-0.116833,0
50.3297,-37.0362,-0.125397,0
50.4842,-36.7976,-0.133571,0
50.6342,-36.5589,-0.141374,0
50.7798,-36.3202,-0.148805,0
50.9211,-36.0813,-0.155895,0
51.0616,-35.8455,-0.162302,0
51.1985,-35.6098,-0.168346,0
51.3316,-35.3736,-0.17405,0
51.4605,-35.1371,-0.179411,0
51.5856,-34.9001,-0.18446,0
51.707,-34.6627,-0.189186,0
51.8245,-34.4249,-0.193581,0
51.9353,-34.1847,-0.197907,0
52.0377,-33.9412,-0.202272,0
52.136,-33.6975,-0.206335,0
52.241,-33.4593,-0.209333,0
52.3511,-33.2249,-0.211413,0
52.4578,-32.9893,-0.21322,0
52.561,-32.7525,-0.214723,0
52.6579,-32.5133,-0.216159,0
52.7503,-32.2725,-0.217389,0
52.8395,-32.0307,-0.218307,0
52.9253,-31.7879,-0.218952,0
53.0078,-31.544,-0.219313,0
53.087,-31.2989,-0.219362,0
53.1644,-31.0531,-0.219059,0
53.2422,-30.8071,-0.21821,0
53.3168,-30.5596,-0.217057,0
53.3877,-30.3105,-0.215661,0
53.4434,-30.0578,-0.214733,0
53.4955,-29.804,-0.213542,0
53.5438,-29.5492,-0.212067,0
53.5885,-29.2933,-0.210329,0
53.6295,-29.0364,-0.208307,0
53.667,-28.7784,-0.206012,0
53.7095,-28.5197,-0.202868,0
34.6691,-40.8094,0.444417,0
34.9316,-41.0376,0.442747,0
35.2002,-41.261,0.441009,0
35.4752,-41.4789,0.439173,0
35.7589,-41.6861,0.436732,0
36.0482,-41.888,0.434261,0
37.093,-40.3173,0.260317,174
37.3331,-40.5405,0.263501,174
36.9566,-42.4398,0.424769,0
37.2725,-42.6029,0.420745,0
37.5929,-42.7597,0.416712,0
38.011,-42.5935,0.384109,174
39.0749,-39.9889,0.135199,174
39.35,-40.0573,0.128409,174
39.0771,-42.5976,0.337594,174
39.4117,-42.6658,0.329529,174
39.7485,-42.7222,0.321123,174
40.0701,-42.8784,0.321828,174
41.0665,-37.771,-0.117185,174
41.3077,-37.623,-0.136736,174
41.5394,-37.4953,-0.153936,174
41.7626,-37.3986,-0.167976,174
41.9804,-37.3136,-0.180519,174
42.1919,-37.3977,-0.178937,174
42.4438,-40.9033,0.0962451,174
42.8189,-43.2966,0.280228,0
43.1616,-43.1664,0.263494,0
43.4984,-43.0279,0.246888,0
43.8296,-42.8837,0.230589,0
44.1549,-42.7338,0.214612,0
44.4745,-42.5787,0.198929,0
44.7882,-42.4183,0.183558,0
45.096,-42.253,0.168509,0
45.3931,-42.0604,0.152025,0
45.6815,-41.8564,0.135355,0
45.9629,-41.6495,0.119095,0
46.2374,-41.4398,0.103265,0
46.5052,-41.2274,0.0878449,0
46.7662,-41.0126,0.0728449,0
47.0251,-40.8073,0.059173,0
47.278,-40.6002,0.0459309,0
47.5251,-40.3908,0.0330695,0
47.7607,-40.1667,0.0196125,0
47.9843,-39.9289,0.00559883,0
48.2016,-39.6906,-0.00794609,0
48.4127,-39.4518,-0.021032,0
48.6177,-39.2126,-0.0336785,0
48.8167,-38.9731,-0.0458758,0
49.01,-38.7333,-0.0576531,0
49.199,-38.4955,-0.068825,0
49.3913,-38.27,-0.0785418,0
49.5788,-38.0436,-0.0878875,0
49.7613,-37.8165,-0.0968523,0
49.9392,-37.5885,-0.105456,0
50.1123,-37.3597,-0.113708,0
50.2734,-37.1215,-0.12238,0
50.4295,-36.8829,-0.13068,0
50.581,-36.6443,-0.13863,0
50.7282,-36.4056,-0.146188,0
50.871,-36.1668,-0.153405,0
51.0117,-35.9298,-0.160065,0
51.1501,-35.6941,-0.166227,0
51.2844,-35.4581,-0.172048,0
51.4148,-35.2217,-0.177536,0
51.5412,-34.9849,-0.182692,0
51.6641,-34.7477,-0.187526,0
51.783,-34.5101,-0.192048,0
51.8977,-34.2717,-0.196276,0
52.0015,-34.0283,-0.200749,0
52.1012,-33.7847,-0.204919,0
52.2008,-33.5429,-0.208522,0
52.3121,-33.3089,-0.2107,0
52.42,-33.0737,-0.212595,0
52.5245,-32.8374,-0.214216,0
52.624,-32.5991,-0.215661,0
52.7177,-32.3588,-0.216979,0
52.808,-32.1174,-0.218014,0
52.895,-31.8749,-0.218766,0
52.9787,-31.6314,-0.219216,0
53.0591,-31.3867,-0.219382,0
53.1362,-31.141,-0.219255,0
53.2146,-30.8953,-0.218542,0
53.2905,-30.6483,-0.217507,0
53.363,-30.3998,-0.216179,0
53.4239,-30.1483,-0.215095,0
53.4773,-29.8949,-0.214001,0
53.527,-29.6405,-0.212624,0
53.573,-29.385,-0.210983,0
53.6153,-29.1284,-0.209069,0
53.654,-28.8708,-0.206862,0
53.6914,-28.6123,-0.204235,0
53.741,-28.353,-0.2003,0
34.5768,-40.7262,0.444964,0
34.8366,-40.9572,0.443421,0
35.1051,-41.1785,0.441312,0
35.3751,-41.4036,0.440052,0
35.6569,-41.6126,0.437611,0
35.9441,-41.8163,0.43514,0
36.8148,-40.6834,0.302772,174
37.262,-40.4227,0.258684,174
36.8446,-42.38,0.426214,0
37.159,-42.5453,0.422191,0
37.4777,-42.7043,0.418157,0
37.8025,-42.8519,0.413665,0
38.9692,-39.9903,0.140088,174
39.2491,-40.0425,0.131634,174
38.9553,-42.5825,0.341456,174
39.2918,-42.6425,0.332425,174
39.6275,-42.7049,0.324302,174
39.9647,-42.7585,0.316093,174
40.9727,-37.8641,-0.106645,174
41.2231,-37.6696,-0.130351,174
41.4574,-37.5405,-0.147891,174
41.6836,-37.4294,-0.16333,174
41.903,-37.3438,-0.176106,174
42.117,-37.3122,-0.184005,174
42.3303,-37.6737,-0.159968,174
42.6948,-43.3377,0.285975,0
43.0397,-43.2145,0.26951,0
43.3786,-43.0781,0.252786,0
43.7117,-42.9359,0.23639,0
44.0392,-42.7881,0.220286,0
44.3609,-42.6348,0.204495,0
44.6766,-42.4762,0.189017,0
44.9866,-42.3127,0.173861,0
45.2882,-42.1326,0.158109,0
45.5791,-41.9297,0.141273,0
45.863,-41.7238,0.124866,0
46.1401,-41.5151,0.10888,0
46.4102,-41.3037,0.0933137,0
46.6736,-41.0897,0.0781574,0
46.933,-40.8808,0.0639973,0
47.1882,-40.6746,0.0506184,0
47.4374,-40.466,0.0376203,0
47.6791,-40.2516,0.0247297,0
47.905,-40.014,0.0105598,0
48.1245,-39.7759,-0.00315117,0
48.3378,-39.5373,-0.0164031,0
48.5449,-39.2983,-0.0291961,0
48.7462,-39.0589,-0.0415594,0
48.9415,-38.8191,-0.053493,0
49.1311,-38.5791,-0.0650066,0
49.3231,-38.3508,-0.0751141,0
49.5123,-38.1247,-0.0845769,0
49.6966,-37.8978,-0.0936883,0
49.8761,-37.6701,-0.102419,0
50.0509,-37.4416,-0.110798,0
50.2163,-37.2068,-0.119304,0
50.3741,-36.9683,-0.127751,0
50.5273,-36.7297,-0.135827,0
50.676,-36.491,-0.143532,0
50.8204,-36.2522,-0.150866,0
50.9612,-36.014,-0.15778,0
51.1009,-35.7785,-0.16405,0
51.2368,-35.5426,-0.170007,0
51.3686,-35.3063,-0.175602,0
51.4965,-35.0697,-0.180886,0
51.6205,-34.8326,-0.185837,0
51.7409,-34.5951,-0.190475,0
51.8573,-34.3572,-0.194772,0
51.9648,-34.1154,-0.199186,0
52.066,-33.8719,-0.203464,0
52.1632,-33.6281,-0.207438,0
52.2727,-33.3927,-0.209958,0
52.3818,-33.158,-0.21195,0
52.4875,-32.9221,-0.213669,0
52.5897,-32.6849,-0.215114,0
52.6845,-32.4449,-0.21654,0
52.776,-32.2038,-0.217682,0
52.8643,-31.9617,-0.218532,0
52.9491,-31.7186,-0.219089,0
53.0307,-31.4744,-0.219352,0
53.109,-31.229,-0.219333,0
53.1868,-30.9833,-0.218845,0
53.2637,-30.7368,-0.217907,0
53.3374,-30.4889,-0.216686,0
53.404,-30.2387,-0.215427,0
53.4586,-29.9856,-0.214421,0
53.5096,-29.7316,-0.213151,0
53.557,-29.4765,-0.211608,0
53.6006,-29.2204,-0.209782,0
53.6405,-28.9631,-0.207682,0
53.6769,-28.7048,-0.205309,0
53.7237,-28.446,-0.201745,0
35.305,-39.9708,0.444993,0
35.5601,-40.1644,0.441956,0
35.9229,-40.1577,0.417192,174
36.0801,-40.5463,0.436868,0
36.3436,-40.7382,0.435198,0
36.9171,-40.235,0.36045,174
37.1982,-40.3547,0.353361,174
37.1689,-41.2745,0.429114,0
37.4563,-41.436,0.42638,0
37.7516,-41.582,0.422659,0
38.0622,-41.6851,0.415296,0
38.8865,-39.9927,0.233691,174
39.1821,-39.9879,0.219376,174
39.4648,-40.0216,0.209509,174
39.3262,-42.0266,0.385902,0
39.642,-42.119,0.380911,0
39.9605,-42.2039,0.375872,0
40.9063,-37.8841,-0.0311281,174
41.1839,-37.477,-0.0759176,174
41.397,-37.5351,-0.0777698,174
41.6255,-37.4039,-0.0960751,174
41.8459,-37.3003,-0.111289,174
42.0602,-37.2284,-0.123116,174
42.2699,-37.4448,-0.109208,174
42.5523,-40.9611,0.191657,174
42.8926,-42.0124,0.276732,0
43.2063,-41.9041,0.261859,0
43.5155,-41.7896,0.247181,0
43.8199,-41.6692,0.232747,0
44.1196,-41.5429,0.218529,0
44.4145,-41.411,0.204544,0
44.7045,-41.2737,0.190784,0
44.9895,-41.1311,0.177269,0
45.2672,-40.974,0.163196,0
45.5371,-40.8029,0.148597,0
45.8014,-40.6287,0.134368,0
46.0602,-40.4514,0.120511,0
46.3132,-40.2711,0.107015,0
46.5609,-40.0879,0.0938703,0
46.803,-39.902,0.0810871,0
47.0398,-39.7135,0.0686555,0
47.2712,-39.5224,0.0565559,0
47.4973,-39.329,0.0448176,0
47.7148,-39.1265,0.0328059,0
47.9198,-38.9084,0.0199641,0
48.1191,-38.6895,0.00755196,0
48.3152,-38.4736,-0.00412773,0
48.5119,-38.2668,-0.0145086,0
48.7038,-38.0588,-0.0245281,0
48.8909,-37.8497,-0.0341668,0
49.0734,-37.6395,-0.0434539,0
49.2512,-37.4282,-0.0523797,0
49.4246,-37.2159,-0.0609637,0
49.5935,-37.0026,-0.0691961,0
49.758,-36.7882,-0.0770965,0
49.9182,-36.5729,-0.0846551,0
50.0741,-36.3567,-0.0918914,0
50.2208,-36.1344,-0.0993328,0
50.3637,-35.912,-0.106393,0
50.5036,-35.6902,-0.112985,0
50.636,-35.4647,-0.119596,0
50.7632,-35.2379,-0.125973,0
50.8862,-35.0106,-0.132057,0
51.0051,-34.7828,-0.137809,0
51.1198,-34.5547,-0.143278,0
51.2305,-34.326,-0.148434,0
51.3373,-34.097,-0.153298,0
51.4399,-33.8676,-0.157868,0
51.5387,-33.6378,-0.162145,0
51.6471,-33.4153,-0.165026,0
51.7558,-33.1939,-0.167331,0
51.861,-32.9712,-0.169352,0
51.9629,-32.7474,-0.1711,0
52.0615,-32.5223,-0.172575,0
52.1566,-32.2961,-0.173766,0
52.2484,-32.0686,-0.174684,0
52.3369,-31.8398,-0.175339,0
52.422,-31.6098,-0.17572,0
52.5038,-31.3786,-0.175817,0
52.5823,-31.146,-0.175641,0
52.6502,-30.9102,-0.175729,0
52.7134,-30.673,-0.175622,0
52.7731,-30.4349,-0.175261,0
52.8292,-30.1959,-0.174626,0
52.8817,-29.9558,-0.173727,0
52.9307,-29.7148,-0.172565,0
52.9762,-29.4729,-0.17112,0
53.0179,-29.2299,-0.16943,0
53.0562,-28.986,-0.167468,0
53.0908,-28.741,-0.165221,0
53.132,-28.4955,-0.161979,0
35.2175,-39.8961,0.44557,0
35.4682,-40.0957,0.44305,0
35.7264,-40.2862,0.440003,0
36.0872,-40.2793,0.415793,174
36.2487,-40.6701,0.435804,0
36.742,-40.3574,0.380744,174
37.1133,-40.275,0.351951,174
37.3324,-40.5481,0.361189,174
37.352,-41.3814,0.427611,0
37.6455,-41.5304,0.423988,0
37.9506,-41.6496,0.417991,0
38.2633,-41.7465,0.410462,0
39.0843,-39.9619,0.221731,174
39.3737,-39.9694,0.209128,174
39.2134,-41.9938,0.387855,0
39.5287,-42.0868,0.382698,0
39.8462,-42.1744,0.377679,0
40.1664,-42.2544,0.372611,0
41.1048,-37.4819,-0.0728265,174
41.3234,-37.4875,-0.0795652,174
41.5448,-37.4483,-0.0898334,174
41.7681,-37.3304,-0.106533,174
41.9843,-37.2466,-0.119606,174
42.1945,-37.3097,-0.119257,174
42.4434,-40.68,0.169401,174
42.7597,-41.4707,0.232007,174
43.0945,-41.9436,0.267152,0
43.4054,-41.8313,0.252405,0
43.7116,-41.7129,0.237884,0
44.013,-41.5887,0.223587,0
44.3095,-41.4588,0.209515,0
44.6013,-41.3234,0.195677,0
44.888,-41.1827,0.182083,0
45.1695,-41.0358,0.168636,0
45.4412,-40.8645,0.153773,0
45.7075,-40.6914,0.139417,0
45.9682,-40.5152,0.125433,0
46.2234,-40.3359,0.1118,0
46.4729,-40.1537,0.0985383,0
46.717,-39.9688,0.0856184,0
46.9558,-39.7812,0.0730598,0
47.1891,-39.5911,0.060843,0
47.417,-39.3985,0.0489777,0
47.6398,-39.2036,0.0374445,0
47.8471,-38.9865,0.0245148,0
48.0484,-38.7678,0.0119367,0
48.2442,-38.5484,-0.000211716,0
48.442,-38.3409,-0.0108367,0
48.6355,-38.1334,-0.0209832,0
48.8245,-37.9247,-0.0307586,0
49.0086,-37.7148,-0.0401727,0
49.1882,-37.5039,-0.0492254,0
49.363,-37.292,-0.0579363,0
49.5336,-37.079,-0.0662957,0
49.6997,-36.865,-0.0743035,0
49.8614,-36.6501,-0.0819891,0
50.0188,-36.4342,-0.0893523,0
50.1695,-36.2147,-0.0966375,0
50.3127,-35.9912,-0.103952,0
50.454,-35.7696,-0.110661,0
50.5895,-35.5457,-0.117243,0
50.7182,-35.3191,-0.123737,0
50.8427,-35.0919,-0.129919,0
50.963,-34.8644,-0.135788,0
51.0792,-34.6363,-0.141364,0
51.1914,-34.4079,-0.146628,0
51.2995,-34.179,-0.151589,0
51.4036,-33.9497,-0.156266,0
51.5038,-33.72,-0.160651,0
51.6075,-33.4942,-0.164137,0
51.7173,-33.2732,-0.16654,0
51.8238,-33.051,-0.168659,0
51.9269,-32.8276,-0.170505,0
52.0266,-32.603,-0.172077,0
52.1229,-32.3771,-0.173376,0
52.2159,-32.1501,-0.174391,0
52.3055,-31.9218,-0.175143,0
52.3919,-31.6922,-0.175612,0
52.4749,-31.4614,-0.175807,0
52.5546,-31.2294,-0.175729,0
52.6267,-30.9948,-0.1757,0
52.6912,-30.758,-0.17569,0
52.7522,-30.5202,-0.175417,0
52.8095,-30.2815,-0.174889,0
52.8634,-30.0418,-0.174079,0
52.9136,-29.8012,-0.173005,0
52.9603,-29.5595,-0.171677,0
53.0034,-29.3169,-0.170075,0
53.0429,-29.0733,-0.16819,0
53.0788,-28.8288,-0.166052,0
53.1153,-28.5834,-0.163337,0
53.1605,-28.3372,-0.15947,0
35.1311,-39.8203,0.446087,0
35.377,-40.0264,0.444134,0
35.6335,-40.2186,0.441087,0
36.0182,-40.1678,0.4117,174
36.1545,-40.6014,0.4364,0
36.4195,-40.7919,0.43472,0
37.0161,-40.2253,0.353758,174
37.2661,-40.4185,0.354549,174
37.2498,-41.3221,0.42845,0
37.5399,-41.4781,0.425325,0
37.8393,-41.6132,0.420677,0
38.1512,-41.7126,0.413148,0
38.9801,-39.9586,0.226361,174
39.2682,-39.9758,0.214426,174
39.0993,-41.9677,0.39055,0
39.4157,-42.0537,0.384486,0
39.7323,-42.1439,0.379476,0
40.0516,-42.2267,0.374427,0
41.0241,-37.4965,-0.0687711,174
41.2463,-37.4771,-0.0779765,174
41.4632,-37.493,-0.0834684,174
41.6892,-37.369,-0.100952,174
41.9074,-37.2765,-0.115008,174
42.12,-37.2373,-0.123806,174
42.3317,-37.6487,-0.0927922,174
42.6441,-41.2573,0.215647,174
42.9823,-41.9822,0.272474,0
43.2948,-41.8721,0.25765,0
43.6026,-41.7559,0.24305,0
43.9058,-41.6338,0.228675,0
44.204,-41.506,0.214525,0
44.4975,-41.3725,0.200609,0
44.7861,-41.2336,0.186917,0
45.0695,-41.0896,0.17347,0
45.3446,-40.9257,0.159007,0
45.6129,-40.7537,0.144515,0
45.8755,-40.5786,0.130394,0
46.1327,-40.4004,0.116634,0
46.3842,-40.2192,0.103245,0
46.6303,-40.0353,0.0901984,0
46.871,-39.8487,0.0775129,0
47.1063,-39.6594,0.0651691,0
47.3361,-39.4677,0.053177,0
47.5606,-39.2735,0.0415266,0
47.7738,-39.0645,0.0291145,0
47.9771,-38.8462,0.0163996,0
48.1748,-38.627,0.00408516,0
48.3716,-38.4149,-0.00711601,0
48.5669,-38.2077,-0.0173992,0
48.7574,-37.9994,-0.0273016,0
48.9433,-37.79,-0.0368426,0
49.1245,-37.5795,-0.046032,0
49.301,-37.3679,-0.0548504,0
49.4731,-37.1553,-0.0633367,0
49.6408,-36.9417,-0.0714812,0
49.804,-36.7271,-0.079284,0
49.963,-36.5115,-0.0867547,0
50.1177,-36.295,-0.0938934,0
50.2612,-36.0705,-0.101442,0
50.4038,-35.849,-0.108298,0
50.5423,-35.6267,-0.114831,0
50.6727,-35.4002,-0.121452,0
50.7986,-35.1733,-0.127741,0
50.9205,-34.9458,-0.133727,0
51.0382,-34.718,-0.139401,0
51.1518,-34.4897,-0.144772,0
51.2613,-34.2609,-0.14985,0
51.3668,-34.0318,-0.154626,0
51.4684,-33.8022,-0.159118,0
51.5673,-33.573,-0.16322,0
51.6784,-33.3524,-0.16571,0
51.7861,-33.1306,-0.167936,0
51.8904,-32.9077,-0.16988,0
51.9912,-32.6835,-0.17155,0
52.0888,-32.4581,-0.172936,0
52.183,-32.2315,-0.17405,0
52.2739,-32.0036,-0.174909,0
52.3615,-31.7745,-0.175475,0
52.4456,-31.5442,-0.175768,0
52.5265,-31.3125,-0.175788,0
52.6028,-31.0792,-0.175641,0
52.6685,-30.8428,-0.175729,0
52.7307,-30.6054,-0.175544,0
52.7894,-30.367,-0.175104,0
52.8445,-30.1277,-0.174391,0
52.896,-29.8874,-0.173425,0
52.944,-29.6461,-0.172184,0
52.9884,-29.4038,-0.170671,0
53.0291,-29.1606,-0.168893,0
53.0664,-28.9164,-0.166852,0
53.0999,-28.6712,-0.164528,0
53.1448,-28.4255,-0.160886,0
35.79,-39.1479,0.442991,0
36.0287,-39.3258,0.440159,0
36.272,-39.499,0.437308,0
36.5198,-39.6673,0.434427,0
36.7677,-39.8393,0.432513,0
37.0191,-40.0095,0.430931,0
37.2752,-40.1747,0.42931,0
37.5358,-40.3348,0.427659,0
37.8031,-40.484,0.425364,0
38.1739,-40.3325,0.391307,174
38.3735,-40.6909,0.412737,0
38.8967,-39.9645,0.320383,174
39.1924,-39.9563,0.305153,174
39.4738,-39.9924,0.295299,174
39.543,-41.0193,0.386722,0
39.8408,-41.0798,0.379749,0
40.3052,-40.1336,0.273251,174
40.9766,-37.4001,-0.00720573,174
41.2021,-37.3373,-0.0210733,174
41.4209,-37.3016,-0.0316701,174
41.633,-37.3227,-0.0362203,174
41.8506,-37.2374,-0.0504719,174
42.0637,-37.155,-0.0638385,174
42.2715,-37.421,-0.0436681,174
42.5485,-40.6536,0.255855,174
42.8504,-40.9603,0.278987,0
43.1413,-40.8723,0.265745,0
43.4286,-40.7787,0.252708,0
43.712,-40.6797,0.239886,0
43.9917,-40.5753,0.227279,0
44.2674,-40.4658,0.214896,0
44.5392,-40.3512,0.202728,0
44.807,-40.2316,0.190775,0
45.0707,-40.1073,0.179066,0
45.327,-39.9654,0.16637,0
45.5762,-39.8109,0.153167,0
45.8205,-39.6529,0.140267,0
46.0598,-39.4916,0.127659,0
46.2941,-39.327,0.115374,0
46.5234,-39.1594,0.103372,0
46.7478,-38.9888,0.0916828,0
46.9673,-38.8153,0.0802766,0
47.1819,-38.6391,0.0691926,0
47.3923,-38.4618,0.0585383,0
47.5994,-38.2847,0.0484406,0
47.798,-38.098,0.0379328,0
47.9907,-37.9073,0.0275617,0
48.1786,-37.7148,0.0175129,0
48.3616,-37.5206,0.0077668,0
48.5402,-37.3247,-0.00164726,0
48.7138,-37.1272,-0.0107586,0
48.883,-36.9282,-0.0195769,0
49.0476,-36.7278,-0.0280828,0
49.2077,-36.5259,-0.0362859,0
49.3631,-36.3228,-0.0441961,0
49.5142,-36.1183,-0.0518133,0
49.6633,-35.9152,-0.0588738,0
49.8091,-35.7118,-0.0655144,0
49.9508,-35.5072,-0.0718816,0
50.0884,-35.3012,-0.0779754,0
50.2166,-35.0895,-0.0843426,0
50.3393,-34.8758,-0.090573,0
50.458,-34.6614,-0.096491,0
50.5727,-34.4465,-0.102116,0
50.6835,-34.231,-0.107448,0
50.7904,-34.015,-0.112487,0
50.8934,-33.7984,-0.117243,0
50.993,-33.5816,-0.121677,0
51.1038,-33.3733,-0.12445,0
51.2113,-33.1637,-0.12696,0
51.3153,-32.9529,-0.129206,0
51.4161,-32.7409,-0.131179,0
51.5136,-32.5278,-0.132868,0
51.6079,-32.3134,-0.134294,0
51.6987,-32.0977,-0.135456,0
51.7841,-31.8799,-0.13655,0
51.8602,-31.6588,-0.137858,0
51.9325,-31.4367,-0.138923,0
52.0012,-31.2136,-0.139743,0
52.069,-30.9905,-0.140104,0
52.1352,-30.767,-0.140046,0
52.1978,-30.5423,-0.139743,0
52.2569,-30.3166,-0.139196,0
52.3123,-30.0898,-0.138405,0
52.3641,-29.8619,-0.13735,0
52.4124,-29.633,-0.136061,0
52.457,-29.4031,-0.134518,0
52.498,-29.1721,-0.132731,0
52.5353,-28.9401,-0.13069,0
52.5689,-28.7071,-0.128395,0
52.6027,-28.4733,-0.125544,0
35.7057,-39.0831,0.443997,0
35.9428,-39.2627,0.441175,0
36.1845,-39.4376,0.438333,0
36.4305,-39.6077,0.435462,0
36.679,-39.7773,0.433079,0
36.9287,-39.9492,0.431497,0
37.183,-40.1162,0.429896,0
37.442,-40.2781,0.428255,0
37.7057,-40.4349,0.426585,0
37.9852,-40.5535,0.421331,0
38.2708,-40.6559,0.415013,0
38.5589,-40.7514,0.408626,0
39.0925,-39.9395,0.308442,174
39.3853,-39.9305,0.293699,174
39.4368,-40.9957,0.389202,0
39.734,-41.059,0.382249,0
40.0327,-41.1151,0.375277,0
40.333,-41.1625,0.368138,0
41.1224,-37.3557,-0.0165873,174
41.3437,-37.3065,-0.0287124,174
41.5574,-37.3115,-0.0350041,174
41.7725,-37.2801,-0.0442731,174
41.988,-37.1806,-0.0594921,174
42.197,-37.2234,-0.0606171,174
42.4435,-40.5031,0.243827,174
42.7455,-40.9904,0.283773,0
43.0377,-40.9044,0.270462,0
43.3262,-40.8128,0.257337,0
43.6111,-40.7157,0.244446,0
43.8921,-40.6132,0.231761,0
44.1692,-40.5055,0.21931,0
44.4425,-40.3927,0.207064,0
44.7116,-40.2749,0.195032,0
44.9768,-40.1523,0.183226,0
45.2366,-40.0198,0.171175,0
45.4877,-39.8666,0.157855,0
45.7337,-39.7098,0.144847,0
45.9747,-39.5497,0.132132,0
46.2108,-39.3863,0.11973,0
46.442,-39.2197,0.10763,0
46.668,-39.0501,0.0958234,0
46.8893,-38.8777,0.0843293,0
47.1056,-38.7024,0.0731184,0
47.3171,-38.5246,0.0622199,0
47.5259,-38.3484,0.0520051,0
47.728,-38.1658,0.0417316,0
47.9223,-37.9758,0.0312434,0
48.112,-37.7839,0.0210676,0
48.2967,-37.5903,0.0112238,0
48.4768,-37.395,0.00168282,0
48.6523,-37.198,-0.00753593,0
48.823,-36.9996,-0.0164617,0
48.9892,-36.7996,-0.025075,0
49.1509,-36.5983,-0.0333855,0
49.308,-36.3956,-0.0414031,0
49.4607,-36.1916,-0.049118,0
49.6102,-35.9877,-0.0564129,0
49.7575,-35.7847,-0.0631707,0
49.9005,-35.5805,-0.0696355,0
50.0396,-35.375,-0.075827,0
50.1716,-35.1658,-0.0820476,0
50.2958,-34.9523,-0.0883758,0
50.416,-34.7382,-0.0944109,0
50.5321,-34.5235,-0.100143,0
50.6443,-34.3082,-0.105573,0
50.7526,-34.0923,-0.11072,0
50.857,-33.876,-0.115573,0
50.9576,-33.659,-0.120143,0
51.0646,-33.4479,-0.123483,0
51.1732,-33.2388,-0.1261,0
51.2784,-33.0285,-0.128434,0
51.3805,-32.8169,-0.130495,0
51.4791,-32.6042,-0.132292,0
51.5745,-32.3902,-0.133815,0
51.6666,-32.175,-0.135065,0
51.7555,-31.9586,-0.136061,0
51.8333,-31.738,-0.137419,0
51.907,-31.5162,-0.138571,0
51.9771,-31.2935,-0.139479,0
52.0445,-31.0702,-0.140065,0
52.112,-30.8471,-0.140095,0
52.1759,-30.6228,-0.13988,0
52.2362,-30.3975,-0.139421,0
52.2929,-30.171,-0.138718,0
52.3461,-29.9436,-0.137761,0
52.3956,-29.715,-0.13655,0
52.4414,-29.4855,-0.135104,0
52.4837,-29.2549,-0.133395,0
52.5223,-29.0232,-0.131452,0
52.5573,-28.7906,-0.129245,0
52.5905,-28.5571,-0.126628,0
52.6234,-28.3225,-0.123522,0
35.622,-39.0177,0.444993,0
35.8575,-39.1989,0.442181,0
36.0975,-39.3756,0.439359,0
36.342,-39.5474,0.436487,0
36.5909,-39.7146,0.433636,0
36.8387,-39.8882,0.432064,0
37.0914,-40.057,0.430472,0
37.3488,-40.2208,0.428851,0
37.6109,-40.3794,0.427191,0
37.8836,-40.5151,0.423577,0
38.2541,-40.3589,0.389317,174
38.4555,-40.7181,0.410921,0
38.9901,-39.9307,0.312664,174
39.2783,-39.9444,0.299986,174
39.5177,-40.1587,0.308586,174
39.6275,-41.0372,0.384739,0
39.9257,-41.0958,0.377767,0
40.2237,-41.1566,0.371712,0
41.0423,-37.3741,-0.0120206,174
41.2651,-37.3227,-0.0245853,174
41.4815,-37.3048,-0.033287,174
41.6937,-37.3232,-0.0379518,174
41.9118,-37.21,-0.0547132,174
42.1229,-37.1635,-0.0644975,174
42.3332,-37.6311,-0.0251942,174
42.6379,-40.936,0.280742,174
42.9336,-40.9358,0.275198,0
43.2234,-40.8462,0.262005,0
43.5096,-40.7511,0.249036,0
43.792,-40.6505,0.236282,0
44.0705,-40.5446,0.223743,0
44.3452,-40.4336,0.211409,0
44.6159,-40.3176,0.19931,0
44.8824,-40.1967,0.187425,0
45.1449,-40.0711,0.175775,0
45.3984,-39.9219,0.162591,0
45.6462,-39.7663,0.149456,0
45.8891,-39.6073,0.136644,0
46.127,-39.4451,0.124144,0
46.3598,-39.2796,0.111927,0
46.5877,-39.1111,0.100013,0
46.8107,-38.9397,0.0884113,0
47.0288,-38.7654,0.0771027,0
47.242,-38.5884,0.0660871,0
47.4517,-38.4117,0.0556379,0
47.6573,-38.2334,0.0455598,0
47.8534,-38.044,0.0349543,0
48.0446,-37.8527,0.0246711,0
48.2312,-37.6597,0.0147102,0
48.413,-37.465,0.00506172,0
48.5901,-37.2687,-0.00427422,0
48.7625,-37.0707,-0.0133074,0
48.9302,-36.8713,-0.0220281,0
49.0935,-36.6705,-0.0304461,0
49.2523,-36.4683,-0.0385711,0
49.4066,-36.2647,-0.0463934,0
49.5565,-36.06,-0.0539227,0
49.7052,-35.8575,-0.0607879,0
49.8499,-35.6537,-0.0673504,0
49.9903,-35.4487,-0.0736492,0
50.1262,-35.242,-0.0797039,0
50.2519,-35.0287,-0.0861492,0
50.3734,-34.8149,-0.092282,0
50.491,-34.6003,-0.0981219,0
50.6046,-34.3853,-0.103659,0
50.7143,-34.1696,-0.108913,0
50.8201,-33.9534,-0.113864,0
50.922,-33.7367,-0.118542,0
51.025,-33.5224,-0.122487,0
51.1348,-33.3138,-0.125192,0
51.2412,-33.1038,-0.127634,0
51.3444,-32.8927,-0.129792,0
51.4441,-32.6804,-0.131677,0
51.5408,-32.4669,-0.133298,0
51.634,-32.2521,-0.134655,0
51.7241,-32.0361,-0.135739,0
51.8061,-31.8171,-0.13695,0
51.8811,-31.5957,-0.13819,0
51.9524,-31.3733,-0.139177,0
52.0202,-31.15,-0.139929,0
52.0882,-30.927,-0.140104,0
52.1534,-30.7032,-0.139987,0
52.215,-30.4782,-0.139616,0
52.273,-30.2521,-0.139001,0
52.3274,-30.0251,-0.138132,0
52.3783,-29.7969,-0.137009,0
52.4255,-29.5677,-0.135651,0
52.4691,-29.3375,-0.13404,0
52.509,-29.1062,-0.132175,0
52.5452,-28.8739,-0.130065,0
52.5777,-28.6407,-0.127712,0
52.612,-28.4066,-0.124655,0
36.213,-38.4302,0.441243,0
36.4373,-38.5947,0.438597,0
36.6659,-38.7548,0.435921,0
36.8985,-38.9102,0.433236,0
37.1352,-39.0609,0.430501,0
37.3723,-39.2143,0.428695,0
37.6126,-39.3657,0.427171,0
37.8621,-39.4989,0.424056,0
38.1235,-39.6041,0.418275,0
38.3875,-39.703,0.412435,0
38.6538,-39.7955,0.406527,0
38.9225,-39.8815,0.400579,0
39.2023,-39.9266,0.390778,174
39.4733,-40.0032,0.385182,174
39.7405,-40.1005,0.382474,0
40.0166,-40.1602,0.37637,0
40.3085,-40.1263,0.360961,174
40.9954,-37.2787,0.0481855,174
41.2176,-37.219,0.0340867,174
41.435,-37.1691,0.0216777,174
41.6482,-37.1329,0.011301,174
41.8564,-37.1497,0.00697838,174
42.067,-37.0866,-0.00501472,174
42.273,-37.4094,0.0228717,174
42.5404,-40.1325,0.294085,0
42.8153,-40.0814,0.283646,0
43.0871,-40.0096,0.271849,0
43.3559,-39.9322,0.260189,0
43.6215,-39.8492,0.248695,0
43.8841,-39.7608,0.237347,0
44.1427,-39.6642,0.225882,0
44.3977,-39.561,0.214446,0
44.6491,-39.453,0.203196,0
44.8968,-39.3405,0.192152,0
45.1408,-39.2235,0.181321,0
45.3766,-39.0861,0.169105,0
45.6073,-38.9425,0.156888,0
45.8334,-38.7955,0.144954,0
46.0549,-38.6453,0.133294,0
46.2723,-38.4928,0.122005,0
46.4863,-38.3401,0.111253,0
46.6961,-38.1845,0.100794,0
46.9016,-38.026,0.0906086,0
47.1027,-37.8648,0.0806867,0
47.2995,-37.701,0.0710481,0
47.492,-37.5345,0.0616633,0
47.6795,-37.3643,0.0523957,0
47.8589,-37.1855,0.042757,0
48.0338,-37.0048,0.0334016,0
48.2045,-36.8224,0.0243391,0
48.3707,-36.6383,0.0155793,0
48.5326,-36.4526,0.00710274,0
48.6902,-36.2653,-0.00110039,0
48.8436,-36.0765,-0.00900078,0
48.9953,-35.8892,-0.0162859,0
49.1431,-35.7008,-0.0232586,0
49.2871,-35.5108,-0.0299578,0
49.427,-35.3195,-0.0363836,0
49.5629,-35.1268,-0.0425457,0
49.6949,-34.9328,-0.0484344,0
49.823,-34.7375,-0.0540691,0
49.9473,-34.5409,-0.0594402,0
50.0676,-34.3432,-0.0645574,0
50.1809,-34.1418,-0.0697625,0
50.2879,-33.9377,-0.0749676,0
50.3912,-33.7329,-0.0798894,0
50.4947,-33.5302,-0.084118,0
50.6043,-33.3328,-0.0870965,0
50.7107,-33.1341,-0.0898113,0
