65.48,-52.9432,-1.85713,0
65.5507,-52.8645,-1.87159,0
65.619,-52.784,-1.88591,0
65.6851,-52.702,-1.90007,0
65.7488,-52.6185,-1.91407,0
65.8102,-52.5335,-1.92789,0
65.8691,-52.4472,-1.94153,0
65.9259,-52.3597,-1.95491,0
65.9809,-52.2717,-1.9679,0
66.0337,-52.1825,-1.98067,0
66.0842,-52.0922,-1.9932,0
66.1322,-52.0011,-2.00548,0
66.178,-51.909,-2.01753,0
66.2213,-51.8161,-2.02932,0
66.2623,-51.7224,-2.04085,0
66.3009,-51.628,-2.05213,0
66.3371,-51.533,-2.06313,0
66.3711,-51.4375,-2.07386,0
66.4025,-51.3414,-2.08433,0
66.4317,-51.245,-2.09451,0
66.4584,-51.1481,-2.10441,0
66.4828,-51.051,-2.11403,0
66.5049,-50.9535,-2.12336,0
66.5291,-50.8575,-2.13155,0
66.5636,-50.765,-2.13718,0
66.5959,-50.6717,-2.14256,0
66.6263,-50.5777,-2.14767,0
66.6544,-50.4829,-2.15252,0
66.6805,-50.3874,-2.15712,0
66.7045,-50.2913,-2.16144,0
66.7264,-50.1946,-2.1655,0
66.7462,-50.0974,-2.1693,0
66.7637,-49.9996,-2.17281,0
66.7791,-49.9015,-2.17605,0
66.7924,-49.8029,-2.17901,0
66.8034,-49.7039,-2.18169,0
66.8122,-49.6047,-2.18408,0
66.8187,-49.5052,-2.1862,0
66.8231,-49.4055,-2.18803,0
66.8253,-49.3056,-2.18957,0
66.8252,-49.2057,-2.19083,0
66.8229,-49.1057,-2.19179,0
66.8184,-49.0056,-2.19246,0
66.8091,-48.9059,-2.19322,0
66.7977,-48.8065,-2.19369,0
66.7839,-48.7072,-2.19388,0
66.7679,-48.6083,-2.19378,0
66.7496,-48.5098,-2.19339,0
66.7291,-48.4116,-2.19272,0
66.7062,-48.314,-2.19176,0
66.6812,-48.2169,-2.1905,0
66.6539,-48.1204,-2.18898,0
66.6244,-48.0245,-2.18716,0
66.5927,-47.9293,-2.18505,0
66.5588,-47.8348,-2.18267,0
66.5227,-47.7411,-2.18,0
66.4845,-47.6483,-2.17705,0
66.4443,-47.5564,-2.17382,0
66.4018,-47.4654,-2.17031,0
66.3573,-47.3754,-2.16653,0
66.3107,-47.2864,-2.16247,0
66.262,-47.1986,-2.15814,0
66.2119,-47.1115,-2.15343,0
66.1619,-47.0244,-2.14803,0
66.1098,-46.9383,-2.14237,0
66.0557,-46.8534,-2.13644,0
65.9997,-46.7697,-2.13023,0
65.9417,-46.6873,-2.12375,0
65.8817,-46.6062,-2.11701,0
65.8199,-46.5264,-2.11001,0
65.7563,-46.4481,-2.10274,0
65.6908,-46.3712,-2.09523,0
65.6235,-46.2958,-2.08744,0
65.5545,-46.2219,-2.07943,0
65.4837,-46.1496,-2.07117,0
65.4111,-46.0789,-2.06266,0
65.337,-46.0098,-2.05392,0
65.2612,-45.9425,-2.04494,0
65.1927,-45.8659,-2.03299,0
65.1222,-45.7906,-2.02075,0
65.0468,-45.7207,-2.0092,0
64.9687,-45.6537,-1.99769,0
64.8909,-45.5854,-1.98522,0
64.8123,-45.5173,-1.97213,0
64.7316,-45.451,-1.95882,0
64.649,-45.3867,-1.94529,0
64.5646,-45.3244,-1.93157,0
64.4784,-45.2642,-1.91766,0
65.1806,-53.0483,-1.81257,0
65.2555,-52.9772,-1.82698,0
65.3283,-52.9044,-1.84127,0
65.3991,-52.8299,-1.85538,0
65.4678,-52.7538,-1.86935,0
65.5345,-52.6761,-1.88316,0
65.599,-52.597,-1.89677,0
65.6613,-52.5164,-1.91021,0
65.7216,-52.4346,-1.92345,0
65.7796,-52.3514,-1.9365,0
65.8354,-52.2671,-1.94933,0
65.889,-52.1816,-1.96195,0
65.9403,-52.095,-1.97436,0
65.9894,-52.0074,-1.98654,0
66.0362,-51.9189,-1.99849,0
66.0806,-51.8295,-2.01019,0
66.1229,-51.7393,-2.02165,0
66.1628,-51.6483,-2.03287,0
66.2005,-51.5566,-2.04383,0
66.2357,-51.4644,-2.05454,0
66.2687,-51.3716,-2.06499,0
66.2995,-51.2783,-2.07517,0
66.328,-51.1845,-2.08508,0
66.3541,-51.0904,-2.09472,0
66.378,-50.996,-2.10408,0
66.3995,-50.9013,-2.11316,0
66.4316,-50.8107,-2.11948,0
66.4648,-50.7205,-2.12493,0
66.496,-50.6294,-2.13013,0
66.5252,-50.5376,-2.13509,0
66.5525,-50.4451,-2.13978,0
66.5777,-50.352,-2.14422,0
66.6007,-50.2582,-2.14841,0
66.6218,-50.1639,-2.15232,0
66.6407,-50.0691,-2.15598,0
66.6575,-49.9737,-2.15937,0
66.6722,-49.878,-2.16248,0
66.6848,-49.7819,-2.16532,0
66.6952,-49.6854,-2.16789,0
66.7034,-49.5886,-2.17019,0
66.7095,-49.4916,-2.17221,0
66.7135,-49.3945,-2.17395,0
66.7152,-49.2971,-2.17541,0
66.7148,-49.1997,-2.17658,0
66.712,-49.1023,-2.17752,0
66.7051,-49.005,-2.1785,0
66.6958,-48.9079,-2.17921,0
66.6844,-48.8111,-2.17963,0
66.6707,-48.7144,-2.17978,0
66.6548,-48.6181,-2.17965,0
66.6368,-48.5222,-2.17923,0
66.6164,-48.4267,-2.17854,0
66.5939,-48.3317,-2.17758,0
66.5693,-48.2372,-2.17633,0
66.5424,-48.1432,-2.1748,0
66.5135,-48.0499,-2.17299,0
66.4823,-47.9573,-2.17091,0
66.4491,-47.8653,-2.16855,0
66.4137,-47.7742,-2.16592,0
66.3762,-47.6839,-2.16301,0
66.3367,-47.5945,-2.15983,0
66.2952,-47.506,-2.15638,0
66.2515,-47.4184,-2.15267,0
66.2059,-47.3319,-2.14868,0
66.1583,-47.2465,-2.14443,0
66.1102,-47.1613,-2.13961,0
66.0612,-47.0766,-2.13432,0
66.0102,-46.9929,-2.12877,0
65.9571,-46.9104,-2.12294,0
65.9023,-46.8291,-2.11685,0
65.8455,-46.749,-2.1105,0
65.7869,-46.6702,-2.10389,0
65.7264,-46.5928,-2.09704,0
65.6641,-46.5167,-2.08992,0
65.6001,-46.442,-2.08257,0
65.5343,-46.3687,-2.07496,0
65.4668,-46.297,-2.06712,0
65.3977,-46.2268,-2.05904,0
65.3268,-46.1582,-2.05072,0
65.2543,-46.0913,-2.04218,0
65.1802,-46.026,-2.03341,0
65.1047,-45.9624,-2.02441,0
65.033,-45.8936,-2.01342,0
64.9598,-45.8259,-2.00207,0
64.8861,-45.758,-1.99002,0
64.8112,-45.6907,-1.97748,0
64.7345,-45.6251,-1.96471,0
64.6557,-45.5614,-1.95174,0
64.5752,-45.4997,-1.9386,0
64.4929,-45.4398,-1.92525,0
64.4088,-45.3821,-1.91172,0
65.1382,-53.0871,-1.80448,0
65.2141,-53.017,-1.81898,0
65.288,-52.9451,-1.83334,0
65.3599,-52.8715,-1.84755,0
65.4298,-52.7963,-1.86161,0
65.4977,-52.7195,-1.8755,0
65.5634,-52.6412,-1.88922,0
65.627,-52.5614,-1.90276,0
65.6884,-52.4803,-1.91611,0
65.7477,-52.3978,-1.92926,0
65.8046,-52.3141,-1.94222,0
65.8595,-52.2292,-1.95496,0
65.912,-52.1433,-1.96749,0
65.9623,-52.0562,-1.97979,0
66.0105,-51.9682,-1.99187,0
66.0563,-51.8793,-2.00371,0
66.0997,-51.7895,-2.01531,0
66.1409,-51.699,-2.02667,0
66.1798,-51.6077,-2.03777,0
66.2164,-51.5158,-2.04862,0
66.2507,-51.4232,-2.05922,0
66.2827,-51.3302,-2.06954,0
66.3124,-51.2367,-2.07959,0
66.3398,-51.1428,-2.08939,0
66.365,-51.0485,-2.0989,0
66.3878,-50.954,-2.10814,0
66.4123,-50.8606,-2.11635,0
66.4466,-50.7708,-2.12193,0
66.4789,-50.6802,-2.12728,0
66.5093,-50.5888,-2.13236,0
66.5377,-50.4967,-2.13721,0
66.5639,-50.4039,-2.14179,0
66.5881,-50.3105,-2.14612,0
66.6103,-50.2165,-2.15017,0
66.6305,-50.1219,-2.15398,0
66.6484,-50.0268,-2.15752,0
66.6643,-49.9313,-2.16078,0
66.678,-49.8354,-2.16378,0
66.6896,-49.7391,-2.1665,0
66.6991,-49.6425,-2.16895,0
66.7064,-49.5456,-2.17113,0
66.7116,-49.4485,-2.17302,0
66.7146,-49.3513,-2.17463,0
66.7153,-49.2539,-2.17596,0
66.714,-49.1565,-2.17702,0
66.7092,-49.0591,-2.17799,0
66.7012,-48.9619,-2.17885,0
66.6911,-48.8649,-2.17942,0
66.6786,-48.7681,-2.17973,0
66.6639,-48.6717,-2.17976,0
66.6471,-48.5755,-2.17949,0
66.628,-48.4798,-2.17896,0
66.6068,-48.3845,-2.17815,0
66.5833,-48.2896,-2.17706,0
66.5577,-48.1954,-2.17568,0
66.5298,-48.1017,-2.17403,0
66.4999,-48.0087,-2.17211,0
66.4678,-47.9164,-2.16989,0
66.4337,-47.8248,-2.16742,0
66.3973,-47.734,-2.16466,0
66.3589,-47.6441,-2.16164,0
66.3185,-47.5551,-2.15834,0
66.276,-47.467,-2.15476,0
66.2315,-47.3799,-2.15094,0
66.185,-47.2939,-2.14682,0
66.1366,-47.2089,-2.14243,0
66.0887,-47.1235,-2.1373,0
66.0387,-47.0393,-2.13189,0
65.9869,-46.9562,-2.1262,0
65.933,-46.8742,-2.12027,0
65.8773,-46.7934,-2.11407,0
65.8197,-46.7139,-2.1076,0
65.7603,-46.6357,-2.10089,0
65.699,-46.5588,-2.09391,0
65.6359,-46.4833,-2.08669,0
65.5711,-46.4093,-2.07923,0
65.5045,-46.3367,-2.07151,0
65.4363,-46.2657,-2.06356,0
65.3663,-46.1962,-2.05537,0
65.2948,-46.1283,-2.04695,0
65.2216,-46.0621,-2.03831,0
65.1469,-45.9976,-2.02944,0
65.0716,-45.9336,-2.02007,0
65.0013,-45.8626,-2.00822,0
64.9269,-45.7961,-1.9969,0
64.8531,-45.7279,-1.98447,0
64.7773,-45.6613,-1.97184,0
64.6998,-45.5966,-1.95899,0
64.6202,-45.5338,-1.94594,0
64.5389,-45.4729,-1.93269,0
64.4558,-45.4139,-1.91927,0
64.3709,-45.3571,-1.90567,0
65.1721,-53.0562,-1.81093,0
65.2471,-52.9853,-1.82537,0
65.3202,-52.9127,-1.83966,0
65.3913,-52.8383,-1.85382,0
65.4602,-52.7624,-1.86779,0
65.5271,-52.6849,-1.88161,0
65.5919,-52.606,-1.89525,0
65.6545,-52.5256,-1.90871,0
65.715,-52.4438,-1.92197,0
65.7732,-52.3608,-1.93504,0
65.8293,-52.2766,-1.9479,0
65.8831,-52.1912,-1.96055,0
65.9347,-52.1048,-1.97298,0
65.984,-52.0173,-1.98518,0
66.031,-51.9289,-1.99715,0
66.0759,-51.8396,-2.00888,0
66.1183,-51.7494,-2.02038,0
66.1584,-51.6586,-2.03162,0
66.1963,-51.567,-2.04261,0
66.2319,-51.4748,-2.05335,0
66.2652,-51.382,-2.06383,0
66.2962,-51.2888,-2.07403,0
66.3248,-51.1951,-2.08398,0
66.3512,-51.101,-2.09365,0
66.3754,-51.0066,-2.10304,0
66.3972,-50.912,-2.11215,0
66.4277,-50.8208,-2.11885,0
66.4612,-50.7307,-2.12434,0
66.4926,-50.6397,-2.12956,0
66.5221,-50.548,-2.13454,0
66.5495,-50.4556,-2.13927,0
66.5749,-50.3625,-2.14374,0
66.5983,-50.2688,-2.14796,0
66.6195,-50.1745,-2.1519,0
66.6387,-50.0798,-2.15558,0
66.6557,-49.9845,-2.15899,0
66.6706,-49.8888,-2.16215,0
66.6834,-49.7927,-2.16502,0
66.6941,-49.6963,-2.16761,0
66.7027,-49.5995,-2.16995,0
66.709,-49.5026,-2.17199,0
66.7131,-49.4054,-2.17377,0
66.7152,-49.3081,-2.17526,0
66.715,-49.2107,-2.17647,0
66.7127,-49.1132,-2.17739,0
66.706,-49.0159,-2.1784,0
66.697,-48.9188,-2.17914,0
66.6858,-48.8219,-2.1796,0
66.6723,-48.7253,-2.17978,0
66.6567,-48.6289,-2.17967,0
66.6389,-48.533,-2.17929,0
66.6188,-48.4374,-2.17863,0
66.5966,-48.3423,-2.1777,0
66.5722,-48.2477,-2.17648,0
66.5456,-48.1537,-2.17498,0
66.5168,-48.0603,-2.17321,0
66.4859,-47.9676,-2.17116,0
66.4529,-47.8756,-2.16883,0
66.4177,-47.7844,-2.16623,0
66.3805,-47.694,-2.16335,0
66.3412,-47.6045,-2.16021,0
66.2999,-47.5159,-2.15678,0
66.2565,-47.4282,-2.1531,0
66.2111,-47.3416,-2.14914,0
66.1637,-47.2561,-2.14492,0
66.1156,-47.1709,-2.14018,0
66.0668,-47.086,-2.13492,0
66.0159,-47.0023,-2.1294,0
65.9632,-46.9196,-2.1236,0
65.9085,-46.8382,-2.11755,0
65.852,-46.758,-2.11123,0
65.7935,-46.679,-2.10466,0
65.7333,-46.6014,-2.09782,0
65.6712,-46.5251,-2.09074,0
65.6074,-46.4503,-2.08341,0
65.5418,-46.3769,-2.07583,0
65.4744,-46.305,-2.06801,0
65.4055,-46.2346,-2.05996,0
65.3348,-46.1659,-2.05166,0
65.2625,-46.0987,-2.04314,0
65.1887,-46.0332,-2.0344,0
65.1133,-45.9695,-2.02543,0
65.0409,-45.9016,-2.01477,0
64.9683,-45.8332,-2.00331,0
64.8944,-45.7656,-1.99141,0
64.8197,-45.6981,-1.97888,0
64.7431,-45.6324,-1.96615,0
64.6647,-45.5685,-1.95322,0
64.5843,-45.5065,-1.94008,0
64.5022,-45.4465,-1.92675,0
64.4184,-45.3884,-1.91326,0
65.1048,-52.9456,-1.80956,0
65.1777,-52.8767,-1.82357,0
65.2487,-52.8062,-1.83746,0
65.3177,-52.734,-1.8512,0
65.3847,-52.6602,-1.86478,0
65.4498,-52.585,-1.87821,0
65.5127,-52.5083,-1.89146,0
65.5735,-52.4302,-1.90454,0
65.6323,-52.3509,-1.91744,0
65.6891,-52.2702,-1.93014,0
65.7435,-52.1884,-1.94264,0
65.7959,-52.1055,-1.95494,0
65.8461,-52.0215,-1.96702,0
65.8941,-51.9365,-1.97889,0
65.9398,-51.8506,-1.99054,0
65.9834,-51.7638,-2.00195,0
66.0248,-51.6762,-2.01313,0
66.064,-51.5879,-2.02407,0
66.1009,-51.4989,-2.03477,0
66.1356,-51.4093,-2.04522,0
66.1681,-51.3191,-2.05541,0
66.1983,-51.2284,-2.06535,0
66.2263,-51.1373,-2.07503,0
66.2521,-51.0458,-2.08445,0
66.2756,-50.9541,-2.0936,0
66.3003,-50.8632,-2.1018,0
66.3345,-50.7759,-2.10735,0
66.367,-50.6879,-2.11265,0
66.3973,-50.5991,-2.11772,0
66.4257,-50.5095,-2.12254,0
66.4523,-50.4193,-2.12712,0
66.4767,-50.3285,-2.13143,0
66.4991,-50.237,-2.13551,0
66.5196,-50.145,-2.13932,0
66.538,-50.0525,-2.14287,0
66.5543,-49.9595,-2.14616,0
66.5686,-49.8661,-2.14919,0
66.5808,-49.7724,-2.15196,0
66.5909,-49.6783,-2.15446,0
66.5988,-49.584,-2.15669,0
66.6047,-49.4894,-2.15864,0
66.6085,-49.3946,-2.16033,0
66.6102,-49.2997,-2.16175,0
66.6095,-49.2047,-2.16293,0
66.6048,-49.1099,-2.16414,0
66.598,-49.0151,-2.1651,0
66.5889,-48.9205,-2.16578,0
66.5777,-48.8261,-2.1662,0
66.5644,-48.7319,-2.16633,0
66.5488,-48.6381,-2.1662,0
66.5312,-48.5446,-2.1658,0
66.5115,-48.4515,-2.16513,0
66.4895,-48.3589,-2.16417,0
66.4655,-48.2668,-2.16296,0
66.4392,-48.1753,-2.16147,0
66.4109,-48.0844,-2.1597,0
66.3806,-47.9941,-2.15767,0
66.3482,-47.9045,-2.15537,0
66.3137,-47.8157,-2.1528,0
66.2772,-47.7277,-2.14997,0
66.2387,-47.6406,-2.14687,0
66.1981,-47.5544,-2.14351,0
66.1556,-47.4691,-2.13988,0
66.1111,-47.3848,-2.13599,0
66.0648,-47.3016,-2.13185,0
66.0185,-47.2181,-2.127,0
65.9706,-47.1356,-2.12183,0
65.9208,-47.0541,-2.11641,0
65.8691,-46.9738,-2.11071,0
65.8155,-46.8946,-2.10478,0
65.7602,-46.8166,-2.09859,0
65.703,-46.7399,-2.09214,0
65.6441,-46.6644,-2.08545,0
65.5833,-46.5903,-2.07851,0
65.5208,-46.5176,-2.07133,0
65.4566,-46.4463,-2.06391,0
65.3908,-46.3765,-2.05626,0
65.3233,-46.3081,-2.04838,0
65.2542,-46.2414,-2.04026,0
65.1836,-46.1762,-2.03193,0
65.1114,-46.1126,-2.02338,0
65.0377,-46.0507,-2.01461,0
64.9626,-45.9905,-2.00563,0
64.8881,-45.9293,-1.99572,0
64.817,-45.8626,-1.98371,0
64.7441,-45.7976,-1.97152,0
64.6693,-45.7343,-1.9591,0
64.5927,-45.6729,-1.9465,0
64.5143,-45.6132,-1.93371,0
64.4342,-45.5555,-1.92073,0
64.3524,-45.4998,-1.90759,0
65.0634,-52.9831,-1.8017,0
65.1373,-52.9152,-1.81579,0
65.2094,-52.8456,-1.82975,0
65.2795,-52.7743,-1.84358,0
65.3477,-52.7015,-1.85725,0
65.4137,-52.627,-1.87076,0
65.4779,-52.5511,-1.88412,0
65.54,-52.4738,-1.8973,0
65.5999,-52.3952,-1.91029,0
65.6577,-52.3152,-1.9231,0
65.7134,-52.2341,-1.93571,0
65.7671,-52.1517,-1.94812,0
65.8184,-52.0683,-1.96033,0
65.8677,-51.9839,-1.97232,0
65.9147,-51.8985,-1.98409,0
65.9595,-51.8122,-1.99564,0
66.0022,-51.725,-2.00695,0
66.0425,-51.6371,-2.01802,0
66.0806,-51.5485,-2.02885,0
66.1166,-51.4592,-2.03944,0
66.1503,-51.3693,-2.04977,0
66.1817,-51.2789,-2.05986,0
66.211,-51.188,-2.06968,0
66.238,-51.0968,-2.07924,0
66.2628,-51.0051,-2.08854,0
66.2853,-50.9132,-2.09757,0
66.3157,-50.8246,-2.10429,0
66.3491,-50.737,-2.10973,0
66.3806,-50.6486,-2.11493,0
66.4102,-50.5594,-2.11989,0
66.4378,-50.4696,-2.1246,0
66.4634,-50.3791,-2.12906,0
66.487,-50.2879,-2.13328,0
66.5085,-50.1962,-2.13723,0
66.528,-50.104,-2.14093,0
66.5455,-50.0113,-2.14437,0
66.5609,-49.9181,-2.14755,0
66.5743,-49.8246,-2.15046,0
66.5855,-49.7307,-2.1531,0
66.5946,-49.6365,-2.15549,0
66.6017,-49.542,-2.15759,0
66.6067,-49.4473,-2.15943,0
66.6095,-49.3525,-2.16099,0
66.6102,-49.2576,-2.16229,0
66.6077,-49.1626,-2.16349,0
66.602,-49.0678,-2.1646,0
66.5942,-48.9731,-2.16544,0
66.5842,-48.8786,-2.166,0
66.5721,-48.7843,-2.16629,0
66.5577,-48.6902,-2.16631,0
66.5413,-48.5965,-2.16606,0
66.5227,-48.5032,-2.16553,0
66.502,-48.4104,-2.16473,0
66.4791,-48.318,-2.16367,0
66.4541,-48.2261,-2.16233,0
66.4269,-48.1349,-2.16071,0
66.3977,-48.0442,-2.15883,0
66.3665,-47.9543,-2.15668,0
66.3331,-47.865,-2.15426,0
66.2977,-47.7766,-2.15158,0
66.2603,-47.689,-2.14862,0
66.2209,-47.6022,-2.14541,0
66.1795,-47.5164,-2.14193,0
66.1361,-47.4316,-2.13819,0
66.0908,-47.3477,-2.13418,0
66.0443,-47.2645,-2.12975,0
65.9975,-47.1814,-2.12474,0
65.9487,-47.0993,-2.11945,0
65.8981,-47.0183,-2.11392,0
65.8455,-46.9385,-2.10812,0
65.7912,-46.8598,-2.10206,0
65.735,-46.7824,-2.09575,0
65.677,-46.7062,-2.0892,0
65.6173,-46.6314,-2.0824,0
65.5557,-46.5579,-2.07535,0
65.4925,-46.4858,-2.06806,0
65.4276,-46.4151,-2.06054,0
65.361,-46.3459,-2.05279,0
65.2928,-46.2783,-2.0448,0
65.2231,-46.2122,-2.03659,0
65.1518,-46.1478,-2.02816,0
65.0789,-46.0849,-2.01951,0
65.0046,-46.0238,-2.01065,0
64.9288,-45.9644,-2.00158,0
64.8568,-45.8995,-1.99042,0
64.7849,-45.8336,-1.97833,0
64.7112,-45.7693,-1.96603,0
64.6355,-45.7068,-1.95353,0
64.5581,-45.6462,-1.94085,0
64.4789,-45.5874,-1.92798,0
64.3981,-45.5305,-1.91492,0
64.3155,-45.4757,-1.9017,0
65.0965,-52.9532,-1.80797,0
65.1696,-52.8845,-1.822,0
65.2408,-52.8142,-1.83591,0
65.31,-52.7422,-1.84966,0
65.3773,-52.6686,-1.86327,0
65.4425,-52.5935,-1.87672,0
65.5057,-52.517,-1.88999,0
65.5668,-52.4391,-1.90309,0
65.6259,-52.3598,-1.916,0
65.6828,-52.2793,-1.92873,0
65.7375,-52.1977,-1.94124,0
65.7902,-52.1148,-1.95358,0
65.8405,-52.031,-1.96568,0
65.8888,-51.9461,-1.97757,0
65.9349,-51.8603,-1.98924,0
65.9787,-51.7736,-2.00068,0
66.0203,-51.6861,-2.01189,0
66.0598,-51.5979,-2.02285,0
66.097,-51.5089,-2.03358,0
66.1319,-51.4194,-2.04405,0
66.1645,-51.3293,-2.05428,0
66.195,-51.2386,-2.06425,0
66.2233,-51.1476,-2.07396,0
66.2493,-51.0562,-2.0834,0
66.273,-50.9644,-2.09258,0
66.2962,-50.8729,-2.10116,0
66.3308,-50.7858,-2.10673,0
66.3634,-50.6978,-2.11207,0
66.394,-50.6091,-2.11716,0
66.4227,-50.5196,-2.12202,0
66.4493,-50.4295,-2.12662,0
66.4741,-50.3387,-2.13096,0
66.4968,-50.2473,-2.13506,0
66.5174,-50.1554,-2.13891,0
66.536,-50.0629,-2.14248,0
66.5526,-49.97,-2.14581,0
66.5671,-49.8767,-2.14887,0
66.5795,-49.7829,-2.15167,0
66.5898,-49.6889,-2.15419,0
66.598,-49.5946,-2.15646,0
66.6042,-49.5,-2.15844,0
66.6082,-49.4053,-2.16016,0
66.6101,-49.3104,-2.1616,0
66.6098,-49.2154,-2.16277,0
66.6054,-49.1205,-2.16402,0
66.5988,-49.0257,-2.16501,0
66.59,-48.9311,-2.16572,0
66.5791,-48.8367,-2.16616,0
66.5659,-48.7425,-2.16633,0
66.5508,-48.6486,-2.16623,0
66.5334,-48.5551,-2.16586,0
66.5138,-48.462,-2.16522,0
66.4921,-48.3693,-2.1643,0
66.4683,-48.2771,-2.1631,0
66.4423,-48.1855,-2.16164,0
66.4143,-48.0945,-2.15991,0
66.3841,-48.0042,-2.15791,0
66.352,-47.9146,-2.15565,0
66.3177,-47.8257,-2.1531,0
66.2813,-47.7376,-2.1503,0
66.243,-47.6504,-2.14722,0
66.2028,-47.564,-2.14389,0
66.1605,-47.4786,-2.1403,0
66.1162,-47.3942,-2.13644,0
66.07,-47.3109,-2.13233,0
66.0238,-47.2275,-2.12756,0
65.9761,-47.1448,-2.12243,0
65.9266,-47.0632,-2.11703,0
65.8751,-46.9828,-2.11137,0
65.8216,-46.9034,-2.10546,0
65.7665,-46.8253,-2.09929,0
65.7094,-46.7484,-2.09288,0
65.6507,-46.6728,-2.08621,0
65.5902,-46.5986,-2.0793,0
65.5279,-46.5257,-2.07214,0
65.4639,-46.4542,-2.06476,0
65.3982,-46.3842,-2.05714,0
65.331,-46.3157,-2.04927,0
65.262,-46.2488,-2.04119,0
65.1916,-46.1834,-2.03287,0
65.1195,-46.1197,-2.02435,0
65.0461,-46.0576,-2.0156,0
64.9711,-45.9972,-2.00665,0
64.8959,-45.9369,-1.99705,0
64.8252,-45.87,-1.98507,0
64.7524,-45.8048,-1.9729,0
64.6777,-45.7414,-1.9605,0
64.6014,-45.6797,-1.94793,0
64.5232,-45.6198,-1.93516,0
64.4433,-45.5619,-1.9222,0
64.3617,-45.5059,-1.90907,0
65.0328,-52.848,-1.80669,0
65.1038,-52.7813,-1.82033,0
65.173,-52.7129,-1.83384,0
65.2404,-52.6429,-1.84722,0
65.3057,-52.5714,-1.86045,0
65.3692,-52.4985,-1.87352,0
65.4306,-52.4241,-1.88642,0
65.4901,-52.3483,-1.89917,0
65.5475,-52.2713,-1.91173,0
65.6029,-52.1931,-1.9241,0
65.6562,-52.1137,-1.93628,0
65.7074,-52.0331,-1.94827,0
65.7565,-51.9516,-1.96005,0
65.8035,-51.8691,-1.97163,0
65.8484,-51.7856,-1.98298,0
65.891,-51.7013,-1.99411,0
65.9316,-51.6162,-2.00503,0
65.97,-51.5304,-2.0157,0
66.0062,-51.4439,-2.02614,0
66.0403,-51.3568,-2.03634,0
66.0722,-51.2691,-2.0463,0
66.1019,-51.181,-2.05601,0
66.1295,-51.0924,-2.06547,0
66.1549,-51.0034,-2.07466,0
66.1781,-50.9141,-2.08361,0
66.2084,-50.8279,-2.09033,0
66.2418,-50.7427,-2.09574,0
66.2733,-50.6568,-2.10091,0
66.3029,-50.5701,-2.10585,0
66.3306,-50.4827,-2.11055,0
66.3565,-50.3946,-2.11501,0
66.3802,-50.306,-2.11921,0
66.402,-50.2167,-2.12317,0
66.422,-50.1269,-2.12689,0
66.4398,-50.0367,-2.13035,0
66.4558,-49.9459,-2.13356,0
66.4695,-49.8548,-2.1365,0
66.4814,-49.7633,-2.13919,0
66.4912,-49.6715,-2.14162,0
66.4989,-49.5795,-2.14379,0
66.5045,-49.4872,-2.14569,0
66.5081,-49.3948,-2.14733,0
66.5095,-49.3022,-2.14874,0
66.507,-49.2096,-2.15019,0
66.5024,-49.1171,-2.15139,0
66.4957,-49.0247,-2.15231,0
66.4869,-48.9325,-2.15297,0
66.4759,-48.8404,-2.15338,0
66.4629,-48.7486,-2.1535,0
66.4477,-48.6571,-2.15337,0
66.4305,-48.566,-2.15298,0
66.4112,-48.4752,-2.15231,0
66.3898,-48.3849,-2.15138,0
66.3663,-48.2951,-2.1502,0
66.3408,-48.2059,-2.14874,0
66.3132,-48.1172,-2.14701,0
66.2835,-48.0292,-2.14503,0
66.252,-47.9419,-2.14279,0
66.2183,-47.8554,-2.14028,0
66.1827,-47.7696,-2.13752,0
66.145,-47.6846,-2.13449,0
66.1055,-47.6006,-2.13121,0
66.0641,-47.5174,-2.12767,0
66.0207,-47.4352,-2.12388,0
65.9759,-47.3538,-2.11975,0
65.931,-47.2724,-2.11495,0
65.8841,-47.192,-2.10991,0
65.8355,-47.1126,-2.10462,0
65.7851,-47.0343,-2.09906,0
65.7328,-46.9571,-2.09326,0
65.6787,-46.8811,-2.08721,0
65.6229,-46.8063,-2.08092,0
65.5653,-46.7328,-2.07438,0
65.506,-46.6606,-2.0676,0
65.4452,-46.5898,-2.0606,0
65.3825,-46.5203,-2.05336,0
65.3182,-46.4523,-2.0459,0
65.2524,-46.3857,-2.0382,0
65.185,-46.3207,-2.03028,0
65.1161,-46.2572,-2.02216,0
65.0457,-46.1953,-2.01381,0
64.9738,-46.135,-2.00526,0
64.9005,-46.0764,-1.9965,0
64.8266,-46.0185,-1.98728,0
64.7529,-45.9599,-1.97722,0
64.6805,-45.899,-1.96587,0
64.6076,-45.8379,-1.95379,0
64.5329,-45.7784,-1.94153,0
64.4566,-45.7208,-1.92908,0
64.3786,-45.6651,-1.91646,0
64.299,-45.6113,-1.90368,0
64.9925,-52.8844,-1.79905,0
65.0645,-52.8186,-1.81277,0
65.1348,-52.7512,-1.82635,0
65.2032,-52.6821,-1.8398,0
65.2696,-52.6114,-1.85312,0
65.3341,-52.5392,-1.86627,0
65.3967,-52.4656,-1.87927,0
65.4573,-52.3906,-1.8921,0
65.5159,-52.3143,-1.90476,0
65.5723,-52.2367,-1.91725,0
65.6268,-52.158,-1.92953,0
65.6791,-52.0781,-1.94162,0
65.7295,-51.9971,-1.95353,0
65.7777,-51.9151,-1.96522,0
65.8237,-51.8321,-1.97669,0
65.8676,-51.7483,-1.98795,0
65.9093,-51.6637,-1.99898,0
65.9489,-51.5782,-2.00979,0
65.9863,-51.4921,-2.02036,0
66.0216,-51.4053,-2.0307,0
66.0547,-51.318,-2.04079,0
66.0856,-51.2301,-2.05063,0
66.1144,-51.1417,-2.06023,0
66.141,-51.0529,-2.06958,0
66.1655,-50.9638,-2.07867,0
66.189,-50.8749,-2.08722,0
66.2234,-50.7902,-2.09277,0
66.256,-50.7046,-2.09807,0
66.2867,-50.6184,-2.10314,0
66.3155,-50.5314,-2.10797,0
66.3423,-50.4437,-2.11256,0
66.3673,-50.3554,-2.11691,0
66.3902,-50.2664,-2.12101,0
66.4112,-50.1769,-2.12486,0
66.4302,-50.0869,-2.12846,0
66.4471,-49.9965,-2.1318,0
66.4621,-49.9055,-2.13489,0
66.4751,-49.8143,-2.13772,0
66.486,-49.7226,-2.1403,0
66.4948,-49.6307,-2.14261,0
66.5016,-49.5386,-2.14466,0
66.5064,-49.4462,-2.14645,0
66.5091,-49.3537,-2.14797,0
66.5086,-49.2611,-2.14942,0
66.5052,-49.1686,-2.15075,0
66.4997,-49.0761,-2.15183,0
66.4921,-48.9838,-2.15263,0
66.4823,-48.8916,-2.15318,0
66.4705,-48.7996,-2.15346,0
66.4565,-48.708,-2.15347,0
66.4404,-48.6166,-2.15323,0
66.4222,-48.5256,-2.15272,0
66.402,-48.4351,-2.15194,0
66.3796,-48.345,-2.15089,0
66.3552,-48.2555,-2.14958,0
66.3288,-48.1665,-2.14801,0
66.3003,-48.0781,-2.14617,0
66.2698,-47.9904,-2.14407,0
66.2373,-47.9034,-2.14171,0
66.2027,-47.8172,-2.13908,0
66.1663,-47.7318,-2.1362,0
66.1277,-47.6472,-2.13306,0
66.0873,-47.5635,-2.12967,0
66.0451,-47.4808,-2.12602,0
66.0008,-47.3991,-2.12212,0
65.9562,-47.3176,-2.11766,0
65.9104,-47.2366,-2.11275,0
65.8628,-47.1566,-2.10759,0
65.8134,-47.0777,-2.10218,0
65.7621,-46.9999,-2.09653,0
65.709,-46.9232,-2.0906,0
65.6542,-46.8478,-2.08445,0
65.5976,-46.7736,-2.07804,0
65.5392,-46.7006,-2.07141,0
65.4792,-46.629,-2.06453,0
65.4175,-46.5588,-2.05742,0
65.3542,-46.4899,-2.05008,0
65.2892,-46.4225,-2.0425,0
65.2227,-46.3566,-2.03472,0
65.1546,-46.2923,-2.02671,0
65.085,-46.2295,-2.01847,0
65.014,-46.1683,-2.01004,0
64.9415,-46.1088,-2.00139,0
64.8676,-46.0509,-1.99255,0
64.7941,-45.9923,-1.98284,0
64.7202,-45.9338,-1.9725,0
64.6484,-45.8717,-1.96052,0
64.5746,-45.8113,-1.94837,0
64.4992,-45.7526,-1.93602,0
64.4222,-45.6959,-1.9235,0
64.3434,-45.641,-1.91081,0
64.263,-45.588,-1.89796,0
65.0247,-52.8554,-1.80515,0
65.0959,-52.7889,-1.81881,0
65.1653,-52.7207,-1.83233,0
65.2329,-52.6509,-1.84572,0
65.2985,-52.5795,-1.85897,0
65.3622,-52.5067,-1.87207,0
65.4239,-52.4325,-1.88499,0
65.4835,-52.3569,-1.89774,0
65.5412,-52.28,-1.91032,0
65.5967,-52.2019,-1.92272,0
65.6503,-52.1226,-1.93492,0
65.7018,-52.0422,-1.94694,0
65.7511,-51.9608,-1.95874,0
65.7983,-51.8784,-1.97033,0
65.8434,-51.795,-1.98171,0
65.8863,-51.7108,-1.99287,0
65.9271,-51.6258,-2.00381,0
65.9658,-51.5401,-2.01451,0
66.0023,-51.4537,-2.02498,0
66.0366,-51.3666,-2.03521,0
66.0687,-51.279,-2.04519,0
66.0987,-51.1909,-2.05493,0
66.1265,-51.1024,-2.06441,0
66.1521,-51.0134,-2.07364,0
66.1756,-50.9242,-2.08262,0
66.2045,-50.8374,-2.08971,0
66.2381,-50.7523,-2.09514,0
66.2699,-50.6665,-2.10035,0
66.2998,-50.5798,-2.10531,0
66.3277,-50.4925,-2.11003,0
66.3537,-50.4046,-2.11451,0
66.3777,-50.316,-2.11875,0
66.3997,-50.2268,-2.12275,0
66.4198,-50.1371,-2.12649,0
66.438,-50.0468,-2.12997,0
66.454,-49.9562,-2.13321,0
66.4681,-49.8651,-2.13619,0
66.4802,-49.7736,-2.1389,0
66.4902,-49.6819,-2.14135,0
66.4981,-49.5899,-2.14355,0
66.504,-49.4976,-2.14549,0
66.5078,-49.4052,-2.14715,0
66.5096,-49.3126,-2.14856,0
66.5074,-49.22,-2.15004,0
66.503,-49.1275,-2.15126,0
66.4966,-49.0351,-2.15222,0
66.488,-48.9428,-2.15291,0
66.4773,-48.8507,-2.15334,0
66.4645,-48.7589,-2.1535,0
66.4495,-48.6674,-2.1534,0
66.4326,-48.5762,-2.15303,0
66.4135,-48.4854,-2.1524,0
66.3923,-48.3951,-2.1515,0
66.3691,-48.3052,-2.15034,0
66.3438,-48.2159,-2.14891,0
66.3164,-48.1272,-2.14722,0
66.287,-48.0391,-2.14527,0
66.2555,-47.9517,-2.14306,0
66.2222,-47.865,-2.14057,0
66.1867,-47.7792,-2.13784,0
66.1494,-47.6941,-2.13485,0
66.1101,-47.6099,-2.13159,0
66.0688,-47.5267,-2.12809,0
66.0257,-47.4444,-2.12432,0
65.9808,-47.3631,-2.12027,0
65.9361,-47.2815,-2.11551,0
65.8895,-47.201,-2.1105,0
65.8411,-47.1214,-2.10522,0
65.7909,-47.043,-2.0997,0
65.7388,-46.9657,-2.09393,0
65.6849,-46.8896,-2.0879,0
65.6292,-46.8147,-2.08164,0
65.5719,-46.741,-2.07513,0
65.5128,-46.6687,-2.06838,0
65.452,-46.5977,-2.0614,0
65.3895,-46.528,-2.05419,0
65.3255,-46.4598,-2.04675,0
65.2598,-46.3931,-2.03908,0
65.1927,-46.3279,-2.03119,0
65.1239,-46.2642,-2.02308,0
65.0537,-46.2021,-2.01476,0
64.9819,-46.1417,-2.00622,0
64.9088,-46.0829,-1.99749,0
64.8348,-46.0252,-1.98841,0
64.7612,-45.9664,-1.97837,0
64.6885,-45.906,-1.96721,0
64.6159,-45.8446,-1.95516,0
64.5413,-45.785,-1.94291,0
64.4652,-45.7272,-1.93049,0
64.3874,-45.6713,-1.91789,0
64.3079,-45.6172,-1.90512,0
64.9643,-52.7553,-1.80398,0
65.0336,-52.6906,-1.81726,0
65.1012,-52.6242,-1.83041,0
65.1669,-52.5564,-1.84344,0
65.2306,-52.4869,-1.85633,0
65.2926,-52.4161,-1.86905,0
65.3527,-52.3439,-1.88163,0
65.4107,-52.2704,-1.89404,0
65.4668,-52.1956,-1.90628,0
65.5209,-52.1196,-1.91835,0
65.573,-52.0425,-1.93024,0
65.6231,-51.9643,-1.94192,0
65.6712,-51.885,-1.95341,0
65.7172,-51.8049,-1.96469,0
65.7611,-51.7238,-1.97578,0
65.803,-51.6418,-1.98664,0
65.8427,-51.5591,-1.9973,0
65.8804,-51.4756,-2.00772,0
65.916,-51.3915,-2.01791,0
65.9494,-51.3068,-2.02788,0
65.9808,-51.2215,-2.0376,0
66.01,-51.1357,-2.04709,0
66.0371,-51.0495,-2.05633,0
66.0622,-50.9629,-2.06534,0
66.0861,-50.8764,-2.07387,0
66.1205,-50.794,-2.07936,0
66.153,-50.7109,-2.08463,0
66.1837,-50.627,-2.08969,0
66.2127,-50.5423,-2.09449,0
66.2397,-50.457,-2.09907,0
66.2648,-50.371,-2.10342,0
66.2879,-50.2844,-2.10752,0
66.3091,-50.1973,-2.11138,0
66.3285,-50.1096,-2.11499,0
66.3459,-50.0215,-2.11837,0
66.3613,-49.933,-2.12148,0
66.3748,-49.844,-2.12435,0
66.3863,-49.7547,-2.12697,0
66.3958,-49.6651,-2.12934,0
66.4033,-49.5752,-2.13144,0
66.4087,-49.4851,-2.13329,0
66.4119,-49.3949,-2.13494,0
66.4115,-49.3046,-2.13661,0
66.4091,-49.2143,-2.13803,0
66.4045,-49.1241,-2.13918,0
66.398,-49.0339,-2.14008,0
66.3894,-48.9439,-2.14073,0
66.3787,-48.8541,-2.14111,0
66.3659,-48.7646,-2.14124,0
66.3512,-48.6753,-2.14111,0
66.3344,-48.5864,-2.14072,0
66.3155,-48.4979,-2.14007,0
66.2945,-48.4098,-2.13917,0
66.2716,-48.3222,-2.138,0
66.2466,-48.2351,-2.13658,0
66.2198,-48.1487,-2.13489,0
66.1908,-48.0628,-2.13296,0
66.16,-47.9777,-2.13076,0
66.1271,-47.8932,-2.12832,0
66.0923,-47.8095,-2.12562,0
66.0556,-47.7267,-2.12266,0
66.0171,-47.6447,-2.11946,0
65.9766,-47.5636,-2.11601,0
65.9343,-47.4834,-2.11231,0
65.8911,-47.4037,-2.10813,0
65.8473,-47.3243,-2.10345,0
65.8016,-47.2458,-2.09852,0
65.7541,-47.1684,-2.09334,0
65.7048,-47.0921,-2.08791,0
65.6537,-47.0168,-2.08225,0
65.6009,-46.9427,-2.07634,0
65.5464,-46.8698,-2.0702,0
65.4902,-46.7982,-2.06382,0
65.4323,-46.7278,-2.0572,0
65.3728,-46.6587,-2.05036,0
65.3116,-46.591,-2.04328,0
65.249,-46.5247,-2.036,0
65.1847,-46.4598,-2.02848,0
65.1189,-46.3964,-2.02076,0
65.0516,-46.3345,-2.01282,0
64.983,-46.2742,-2.00467,0
64.9128,-46.2155,-1.99633,0
64.8412,-46.1583,-1.98778,0
64.7687,-46.1026,-1.97896,0
64.6966,-46.0456,-1.96913,0
64.6234,-45.9903,-1.9591,0
64.5489,-45.9361,-1.94874,0
64.4762,-45.8787,-1.9368,0
64.4018,-45.823,-1.92469,0
64.3258,-45.7691,-1.9124,0
64.2482,-45.717,-1.89998,0
64.9248,-52.7903,-1.79662,0
64.9953,-52.7268,-1.80988,0
65.0638,-52.6613,-1.82311,0
65.1305,-52.5943,-1.83621,0
65.1954,-52.5257,-1.84918,0
65.2584,-52.4557,-1.86199,0
65.3195,-52.3842,-1.87466,0
65.3786,-52.3114,-1.88716,0
65.4359,-52.2373,-1.8995,0
65.491,-52.162,-1.91166,0
65.5443,-52.0855,-1.92364,0
65.5955,-52.0079,-1.93544,0
65.6447,-51.9292,-1.94704,0
65.6918,-51.8496,-1.95845,0
65.737,-51.769,-1.96965,0
65.78,-51.6875,-1.98063,0
65.8209,-51.6052,-1.9914,0
65.8597,-51.5221,-2.00195,0
65.8965,-51.4384,-2.01228,0
65.9311,-51.354,-2.02237,0
65.9636,-51.269,-2.03222,0
65.994,-51.1835,-2.04185,0
66.0223,-51.0975,-2.05123,0
66.0485,-51.0111,-2.06036,0
66.0726,-50.9244,-2.06925,0
66.1016,-50.8399,-2.07632,0
66.1352,-50.7572,-2.08173,0
66.1669,-50.6737,-2.08691,0
66.1968,-50.5895,-2.09184,0
66.2248,-50.5045,-2.09655,0
66.251,-50.4189,-2.10103,0
66.2752,-50.3327,-2.10527,0
66.2977,-50.2458,-2.10926,0
66.318,-50.1585,-2.11301,0
66.3366,-50.0706,-2.11652,0
66.353,-49.9823,-2.11978,0
66.3676,-49.8935,-2.12279,0
66.3802,-49.8044,-2.12555,0
66.3908,-49.715,-2.12805,0
66.3994,-49.6252,-2.1303,0
66.4059,-49.5353,-2.13229,0
66.4105,-49.4451,-2.13403,0
66.4119,-49.3548,-2.13571,0
66.4106,-49.2645,-2.13727,0
66.4073,-49.1742,-2.13858,0
66.4019,-49.084,-2.13962,0
66.3945,-48.9939,-2.1404,0
66.3848,-48.904,-2.14093,0
66.3734,-48.8143,-2.14121,0
66.3596,-48.7249,-2.14122,0
66.3439,-48.6358,-2.14097,0
66.3262,-48.5471,-2.14047,0
66.3064,-48.4587,-2.1397,0
66.2846,-48.3709,-2.13868,0
66.2608,-48.2835,-2.1374,0
66.235,-48.1967,-2.13586,0
66.2072,-48.1105,-2.13407,0
66.1773,-48.025,-2.13201,0
66.1456,-47.9401,-2.12971,0
66.112,-47.856,-2.12716,0
66.0762,-47.7727,-2.12434,0
66.0387,-47.6902,-2.12128,0
65.9994,-47.6086,-2.11796,0
65.958,-47.5279,-2.1144,0
65.9149,-47.4482,-2.11059,0
65.8719,-47.3683,-2.10609,0
65.8273,-47.2893,-2.1013,0
65.7807,-47.2113,-2.09626,0
65.7324,-47.1344,-2.09097,0
65.6823,-47.0585,-2.08543,0
65.6305,-46.9838,-2.07966,0
65.577,-46.9102,-2.07364,0
65.5216,-46.8379,-2.06739,0
65.4648,-46.7668,-2.06091,0
65.4061,-46.697,-2.05419,0
65.3459,-46.6285,-2.04724,0
65.284,-46.5614,-2.04008,0
65.2206,-46.4957,-2.03269,0
65.1557,-46.4315,-2.02507,0
65.0893,-46.3688,-2.01726,0
65.0213,-46.3076,-2.00923,0
64.952,-46.2479,-2.00099,0
64.8812,-46.1899,-1.99256,0
64.8091,-46.1335,-1.98392,0
64.7369,-46.0771,-1.97462,0
64.6643,-46.0209,-1.9647,0
64.5904,-45.9663,-1.95458,0
64.5169,-45.9104,-1.94346,0
64.4434,-45.8537,-1.93144,0
64.3683,-45.7988,-1.91925,0
64.2916,-45.7457,-1.90691,0
64.2133,-45.6946,-1.8944,0
64.9564,-52.7625,-1.80248,0
65.0259,-52.6979,-1.81577,0
65.0936,-52.6318,-1.82894,0
65.1595,-52.5641,-1.84198,0
65.2235,-52.4948,-1.85488,0
65.2858,-52.4241,-1.86763,0
65.346,-52.3521,-1.88022,0
65.4043,-52.2787,-1.89266,0
65.4606,-52.2041,-1.90492,0
65.5149,-52.1282,-1.91701,0
65.5673,-52.0512,-1.9289,0
65.6177,-51.9731,-1.94062,0
65.6659,-51.894,-1.95213,0
65.7121,-51.8139,-1.96344,0
65.7563,-51.7329,-1.97454,0
65.7984,-51.6511,-1.98543,0
65.8384,-51.5684,-1.99611,0
65.8763,-51.4851,-2.00656,0
65.912,-51.401,-2.01678,0
65.9458,-51.3163,-2.02677,0
65.9773,-51.2311,-2.03653,0
66.0068,-51.1454,-2.04604,0
66.0342,-51.0592,-2.0553,0
66.0594,-50.9727,-2.06433,0
66.0826,-50.8858,-2.07311,0
66.1167,-50.8033,-2.07876,0
66.1495,-50.7203,-2.08406,0
66.1804,-50.6364,-2.08912,0
66.2095,-50.5519,-2.09397,0
66.2367,-50.4666,-2.09857,0
66.262,-50.3807,-2.10294,0
66.2854,-50.2942,-2.10707,0
66.3069,-50.2071,-2.11096,0
66.3264,-50.1195,-2.1146,0
66.3441,-50.0314,-2.118,0
66.3598,-49.9429,-2.12114,0
66.3734,-49.854,-2.12404,0
66.3851,-49.7647,-2.12669,0
66.3948,-49.6752,-2.12908,0
66.4025,-49.5853,-2.13122,0
66.4082,-49.4953,-2.13309,0
66.4118,-49.405,-2.13474,0
66.4116,-49.3147,-2.13643,0
66.4095,-49.2245,-2.13787,0
66.4052,-49.1342,-2.13906,0
66.3988,-49.044,-2.14,0
66.3905,-48.954,-2.14067,0
66.38,-48.8642,-2.14109,0
66.3675,-48.7746,-2.14124,0
66.3529,-48.6853,-2.14113,0
66.3363,-48.5964,-2.14077,0
66.3177,-48.5078,-2.14015,0
66.297,-48.4197,-2.13928,0
66.2743,-48.332,-2.13815,0
66.2496,-48.2449,-2.13675,0
66.2228,-48.1584,-2.13509,0
66.1942,-48.0724,-2.13319,0
66.1635,-47.9872,-2.13103,0
66.1309,-47.9027,-2.1286,0
66.0963,-47.8189,-2.12593,0
66.0598,-47.736,-2.12301,0
66.0215,-47.6538,-2.11984,0
65.9812,-47.5726,-2.11641,0
65.9391,-47.4924,-2.11275,0
65.8959,-47.4127,-2.10864,0
65.8523,-47.3331,-2.104,0
65.8068,-47.2546,-2.09909,0
65.7595,-47.1771,-2.09394,0
65.7105,-47.1006,-2.08854,0
65.6595,-47.0252,-2.0829,0
65.6069,-46.951,-2.07702,0
65.5527,-46.878,-2.0709,0
65.4966,-46.8062,-2.06454,0
65.4389,-46.7356,-2.05796,0
65.3795,-46.6664,-2.05113,0
65.3186,-46.5985,-2.0441,0
65.256,-46.5321,-2.03682,0
65.1919,-46.467,-2.02934,0
65.1263,-46.4035,-2.02164,0
65.0592,-46.3414,-2.01372,0
64.9907,-46.2809,-2.0056,0
64.9208,-46.222,-1.99727,0
64.8494,-46.1647,-1.98875,0
64.7766,-46.109,-1.98003,0
64.7049,-46.0519,-1.97025,0
64.6316,-45.9964,-1.96024,0
64.5571,-45.9426,-1.95003,0
64.4845,-45.885,-1.93815,0
64.4102,-45.8291,-1.92606,0
64.3344,-45.775,-1.9138,0
64.257,-45.7228,-1.90138,0
64.8986,-52.6664,-1.80163,0
64.9668,-52.6042,-1.81432,0
65.0327,-52.5398,-1.82715,0
65.0968,-52.4739,-1.83983,0
65.1591,-52.4065,-1.85239,0
65.2196,-52.3377,-1.8648,0
65.2783,-52.2676,-1.87707,0
65.3351,-52.1961,-1.88917,0
65.3898,-52.1235,-1.90111,0
65.4428,-52.0496,-1.91287,0
65.4938,-51.9746,-1.92446,0
65.5428,-51.8986,-1.93587,0
65.5899,-51.8216,-1.94708,0
65.6349,-51.7436,-1.9581,0
65.678,-51.6647,-1.96891,0
65.719,-51.585,-1.97952,0
65.758,-51.5046,-1.98992,0
65.7949,-51.4234,-2.0001,0
65.8298,-51.3415,-2.01006,0
65.8627,-51.2591,-2.0198,0
65.8935,-51.176,-2.02931,0
65.9223,-51.0926,-2.03859,0
65.949,-51.0086,-2.04762,0
65.9737,-50.9243,-2.05643,0
66.0027,-50.8421,-2.06348,0
66.0362,-50.7616,-2.06885,0
66.068,-50.6804,-2.074,0
66.098,-50.5984,-2.07892,0
66.1261,-50.5157,-2.08362,0
66.1524,-50.4324,-2.08808,0
66.1769,-50.3484,-2.09231,0
66.1995,-50.2638,-2.09631,0
66.2202,-50.1787,-2.10008,0
66.2391,-50.0931,-2.10361,0
66.256,-50.007,-2.10688,0
66.271,-49.9205,-2.10993,0
66.2841,-49.8336,-2.11272,0
66.2952,-49.7464,-2.11527,0
66.3045,-49.6589,-2.11757,0
66.3116,-49.5711,-2.11962,0
66.3165,-49.4832,-2.12151,0
66.3181,-49.3951,-2.12338,0
66.3177,-49.3069,-2.12501,0
66.3154,-49.2188,-2.12638,0
66.311,-49.1307,-2.12751,0
66.3046,-49.0427,-2.12839,0
66.2961,-48.9549,-2.12902,0
66.2856,-48.8672,-2.12939,0
66.2732,-48.7798,-2.12951,0
66.2588,-48.6927,-2.12938,0
66.2423,-48.6059,-2.129,0
66.2238,-48.5196,-2.12836,0
66.2034,-48.4336,-2.12747,0
66.181,-48.3481,-2.12633,0
66.1566,-48.2631,-2.12494,0
66.1303,-48.1787,-2.1233,0
66.1021,-48.095,-2.12141,0
66.072,-48.0118,-2.11926,0
66.0399,-47.9294,-2.11688,0
66.0059,-47.8478,-2.11424,0
65.9701,-47.7669,-2.11135,0
65.9324,-47.6869,-2.10822,0
65.8929,-47.6077,-2.10486,0
65.8516,-47.5295,-2.10124,0
65.8101,-47.4514,-2.09702,0
65.7672,-47.3739,-2.09244,0
65.7226,-47.2974,-2.08763,0
65.6762,-47.2218,-2.08257,0
65.628,-47.1473,-2.07726,0
65.578,-47.0739,-2.07173,0
65.5265,-47.0017,-2.06594,0
65.4733,-46.9306,-2.05993,0
65.4183,-46.8607,-2.0537,0
65.3617,-46.792,-2.04724,0
65.3036,-46.7247,-2.04055,0
65.2439,-46.6586,-2.03364,0
65.1827,-46.594,-2.02653,0
65.1199,-46.5307,-2.01919,0
65.0557,-46.4689,-2.01165,0
64.99,-46.4085,-2.00389,0
64.923,-46.3497,-1.99594,0
64.8544,-46.2924,-1.98778,0
64.7846,-46.2367,-1.97944,0
64.7135,-46.1827,-1.9709,0
64.643,-46.1275,-1.9614,0
64.5713,-46.0737,-1.9516,0
64.4984,-46.0214,-1.94162,0
64.4241,-45.9709,-1.93143,0
64.3497,-45.92,-1.92051,0
64.2756,-45.8679,-1.90855,0
64.2,-45.8175,-1.89645,0
64.8598,-52.7,-1.79461,0
64.9293,-52.6392,-1.80721,0
64.9963,-52.5758,-1.82003,0
65.0613,-52.5107,-1.83279,0
65.1247,-52.4442,-1.84543,0
65.1862,-52.3761,-1.85792,0
65.2459,-52.3067,-1.87027,0
65.3037,-52.236,-1.88246,0
65.3596,-52.164,-1.89448,0
65.4136,-52.0908,-1.90634,0
65.4657,-52.0165,-1.91804,0
65.5158,-51.941,-1.92954,0
65.564,-51.8645,-1.94087,0
65.6101,-51.7871,-1.95199,0
65.6543,-51.7087,-1.96293,0
65.6963,-51.6295,-1.97365,0
65.7366,-51.5494,-1.98416,0
65.7746,-51.4686,-1.99446,0
65.8106,-51.3871,-2.00455,0
65.8447,-51.305,-2.01442,0
65.8766,-51.2223,-2.02405,0
65.9065,-51.1391,-2.03345,0
65.9344,-51.0554,-2.04262,0
65.9602,-50.9712,-2.05156,0
65.9839,-50.8867,-2.06025,0
66.0178,-50.8065,-2.06589,0
66.0505,-50.7257,-2.07116,0
66.0816,-50.6441,-2.07621,0
66.1106,-50.5618,-2.08103,0
66.138,-50.4788,-2.08563,0
66.1635,-50.3952,-2.08999,0
66.1872,-50.3109,-2.09412,0
66.209,-50.2261,-2.09801,0
66.2288,-50.1408,-2.10167,0
66.2468,-50.0549,-2.10509,0
66.2629,-49.9687,-2.10826,0
66.277,-49.882,-2.1112,0
66.2893,-49.7949,-2.11388,0
66.2995,-49.7076,-2.11633,0
66.3079,-49.62,-2.11851,0
66.3142,-49.5321,-2.12045,0
66.3175,-49.4441,-2.12237,0
66.3182,-49.3559,-2.12413,0
66.3169,-49.2678,-2.12566,0
66.3137,-49.1797,-2.12692,0
66.3084,-49.0916,-2.12794,0
66.301,-49.0037,-2.1287,0
66.2917,-48.916,-2.12922,0
66.2804,-48.8284,-2.12947,0
66.267,-48.7411,-2.12949,0
66.2516,-48.6542,-2.12925,0
66.2343,-48.5676,-2.12875,0
66.215,-48.4813,-2.128,0
66.1937,-48.3956,-2.127,0
66.1705,-48.3103,-2.12575,0
66.1452,-48.2256,-2.12425,0
66.118,-48.1415,-2.12249,0
66.0889,-48.058,-2.12049,0
66.058,-47.9752,-2.11823,0
66.0251,-47.8931,-2.11574,0
65.9902,-47.8118,-2.11299,0
65.9536,-47.7313,-2.11,0
65.9152,-47.6516,-2.10676,0
65.8748,-47.5729,-2.10328,0
65.8331,-47.4949,-2.09946,0
65.7913,-47.4169,-2.09502,0
65.7477,-47.3398,-2.09034,0
65.7022,-47.2637,-2.08541,0
65.6549,-47.1887,-2.08024,0
65.606,-47.1146,-2.07483,0
65.5554,-47.0417,-2.06919,0
65.503,-46.97,-2.06331,0
65.4491,-46.8994,-2.0572,0
65.3934,-46.83,-2.05086,0
65.3362,-46.762,-2.0443,0
65.2773,-46.6952,-2.03751,0
65.2169,-46.6297,-2.03051,0
65.155,-46.5657,-2.0233,0
65.0916,-46.5031,-2.01587,0
65.0267,-46.4419,-2.00823,0
64.9604,-46.3822,-2.00039,0
64.8927,-46.3241,-1.99234,0
64.8237,-46.2675,-1.9841,0
64.7532,-46.2125,-1.97567,0
64.6823,-46.1582,-1.96676,0
64.6113,-46.1034,-1.95707,0
64.5391,-46.0503,-1.94718,0
64.4655,-45.9988,-1.93712,0
64.3907,-45.949,-1.92687,0
64.317,-45.8966,-1.91522,0
64.2423,-45.8453,-1.9032,0
64.166,-45.7958,-1.89102,0
64.8908,-52.6732,-1.80021,0
64.9593,-52.6114,-1.81288,0
65.0254,-52.5471,-1.82571,0
65.0897,-52.4814,-1.83841,0
65.1522,-52.4141,-1.85099,0
65.2129,-52.3455,-1.86342,0
65.2718,-52.2755,-1.8757,0
65.3288,-52.2042,-1.88782,0
65.3838,-52.1317,-1.89977,0
65.437,-52.058,-1.91156,0
65.4882,-51.9831,-1.92317,0
65.5374,-51.9072,-1.93459,0
65.5847,-51.8303,-1.94583,0
65.6299,-51.7524,-1.95687,0
65.6732,-51.6736,-1.96771,0
65.7145,-51.594,-1.97834,0
65.7537,-51.5137,-1.98876,0
65.7909,-51.4325,-1.99897,0
65.8259,-51.3507,-2.00896,0
65.8591,-51.2684,-2.01871,0
65.8902,-51.1854,-2.02825,0
65.9191,-51.1019,-2.03756,0
65.9461,-51.0181,-2.04662,0
65.9709,-50.9338,-2.05545,0
65.9988,-50.8511,-2.06287,0
66.0326,-50.7707,-2.06826,0
66.0645,-50.6896,-2.07342,0
66.0947,-50.6077,-2.07838,0
66.123,-50.5251,-2.08309,0
66.1495,-50.4418,-2.08759,0
66.1742,-50.3578,-2.09185,0
66.197,-50.2733,-2.09588,0
66.218,-50.1883,-2.09967,0
66.237,-50.1027,-2.10322,0
66.2542,-50.0167,-2.10653,0
66.2695,-49.9302,-2.1096,0
66.2827,-49.8434,-2.11242,0
66.2941,-49.7562,-2.115,0
66.3035,-49.6687,-2.11732,0
66.311,-49.581,-2.11941,0
66.3162,-49.493,-2.12129,0
66.318,-49.405,-2.12318,0
66.3179,-49.3168,-2.12484,0
66.3157,-49.2287,-2.12624,0
66.3116,-49.1406,-2.1274,0
66.3054,-49.0526,-2.12831,0
66.2972,-48.9647,-2.12896,0
66.2869,-48.8771,-2.12936,0
66.2747,-48.7896,-2.12952,0
66.2605,-48.7025,-2.12942,0
66.2442,-48.6157,-2.12905,0
66.226,-48.5292,-2.12844,0
66.2058,-48.4432,-2.12759,0
66.1837,-48.3577,-2.12648,0
66.1595,-48.2727,-2.12511,0
66.1334,-48.1882,-2.1235,0
66.1054,-48.1043,-2.12164,0
66.0755,-48.0212,-2.11952,0
66.0436,-47.9387,-2.11716,0
66.0098,-47.8569,-2.11454,0
65.9743,-47.776,-2.11169,0
65.9368,-47.6958,-2.10859,0
65.8975,-47.6166,-2.10525,0
65.8563,-47.5383,-2.10166,0
65.8148,-47.4602,-2.09752,0
65.7721,-47.3826,-2.09298,0
65.7277,-47.3059,-2.08818,0
65.6814,-47.2303,-2.08315,0
65.6334,-47.1557,-2.07787,0
65.5837,-47.0821,-2.07235,0
65.5323,-47.0097,-2.0666,0
65.4793,-46.9385,-2.06063,0
65.4245,-46.8685,-2.05442,0
65.3682,-46.7997,-2.04798,0
65.3102,-46.7322,-2.04132,0
65.2507,-46.666,-2.03443,0
65.1896,-46.6011,-2.02734,0
65.127,-46.5377,-2.02003,0
65.063,-46.4757,-2.01251,0
64.9974,-46.4152,-2.00477,0
64.9305,-46.3562,-1.99684,0
64.8622,-46.2988,-1.98871,0
64.7925,-46.2429,-1.98039,0
64.7216,-46.1886,-1.97187,0
64.651,-46.1337,-1.96248,0
64.5795,-46.0796,-1.95271,0
64.5066,-46.0272,-1.94274,0
64.4325,-45.9765,-1.93259,0
64.3579,-45.926,-1.92185,0
64.2841,-45.8736,-1.9099,0
64.2086,-45.8231,-1.89781,0
64.8357,-52.5813,-1.79952,0
64.9026,-52.5213,-1.81175,0
64.9674,-52.4593,-1.82403,0
65.0301,-52.3953,-1.83641,0
65.0909,-52.3298,-1.84864,0
65.15,-52.2629,-1.86075,0
65.2073,-52.1947,-1.87271,0
65.2628,-52.1253,-1.88451,0
65.3165,-52.0546,-1.89616,0
65.3683,-51.9828,-1.90765,0
65.4181,-51.9099,-1.91896,0
65.4662,-51.836,-1.93009,0
65.5123,-51.761,-1.94103,0
65.5563,-51.6852,-1.95179,0
65.5985,-51.6084,-1.96236,0
65.6387,-51.5308,-1.97272,0
65.6769,-51.4525,-1.98288,0
65.7132,-51.3735,-1.99283,0
65.7475,-51.2938,-2.00257,0
65.7798,-51.2135,-2.01209,0
65.8101,-51.1326,-2.02138,0
65.8384,-51.0513,-2.03046,0
65.8647,-50.9695,-2.03929,0
65.889,-50.8873,-2.0479,0
65.9227,-50.8092,-2.05353,0
65.9555,-50.7306,-2.05877,0
65.9865,-50.6512,-2.0638,0
66.0157,-50.571,-2.06861,0
66.0432,-50.4902,-2.07318,0
66.0688,-50.4088,-2.07754,0
66.0927,-50.3267,-2.08167,0
66.1147,-50.244,-2.08558,0
66.1349,-50.1609,-2.08924,0
66.1533,-50.0772,-2.09268,0
66.1698,-49.9931,-2.09588,0
66.1844,-49.9086,-2.09884,0
66.1971,-49.8237,-2.10156,0
66.2079,-49.7385,-2.10405,0
66.2169,-49.6529,-2.1063,0
66.2233,-49.5672,-2.10841,0
66.2269,-49.4812,-2.11049,0
66.2284,-49.3952,-2.11232,0
66.228,-49.3091,-2.1139,0
66.2256,-49.2231,-2.11524,0
66.2213,-49.1371,-2.11634,0
66.2151,-49.0511,-2.11719,0
66.2068,-48.9654,-2.1178,0
66.1966,-48.8798,-2.11816,0
66.1844,-48.7944,-2.11828,0
66.1702,-48.7094,-2.11815,0
66.1541,-48.6246,-2.11778,0
66.1362,-48.5403,-2.11715,0
66.1162,-48.4564,-2.11628,0
66.0943,-48.3729,-2.11516,0
66.0705,-48.2899,-2.11381,0
66.0448,-48.2075,-2.11219,0
66.0172,-48.1257,-2.11034,0
65.9877,-48.0446,-2.10825,0
65.9564,-47.9641,-2.10592,0
65.9232,-47.8844,-2.10334,0
65.8882,-47.8054,-2.10052,0
65.8514,-47.7273,-2.09746,0
65.8128,-47.65,-2.09418,0
65.7726,-47.5736,-2.09062,0
65.7325,-47.4971,-2.08638,0
65.6905,-47.4214,-2.0819,0
65.6469,-47.3467,-2.07718,0
65.6015,-47.273,-2.07223,0
65.5544,-47.2003,-2.06705,0
65.5056,-47.1287,-2.06164,0
65.4552,-47.0581,-2.05599,0
65.4031,-46.9887,-2.05011,0
65.3494,-46.9205,-2.04402,0
65.2942,-46.8535,-2.03771,0
65.2374,-46.7878,-2.03117,0
65.1791,-46.7234,-2.02442,0
65.1192,-46.6603,-2.01746,0
65.0579,-46.5985,-2.01029,0
64.9952,-46.5382,-2.00292,0
64.931,-46.4794,-1.99534,0
64.8654,-46.422,-1.98758,0
64.7985,-46.3661,-1.97961,0
64.7304,-46.3118,-1.97145,0
64.6609,-46.259,-1.96312,0
64.5916,-46.2059,-1.954,0
64.5216,-46.1534,-1.94442,0
64.4503,-46.1026,-1.93467,0
64.3777,-46.0533,-1.92472,0
64.3039,-46.0058,-1.91461,0
64.229,-45.9599,-1.90431,0
64.1542,-45.9131,-1.89309,0
64.7979,-52.6139,-1.79268,0
64.8655,-52.5548,-1.80496,0
64.9317,-52.4942,-1.81715,0
64.9955,-52.4311,-1.82954,0
65.0573,-52.3664,-1.84185,0
65.1173,-52.3003,-1.85403,0
65.1757,-52.2328,-1.86608,0
65.2322,-52.1641,-1.87797,0
65.2869,-52.0941,-1.88971,0
65.3397,-52.0229,-1.90128,0
65.3907,-51.9506,-1.91269,0
65.4397,-51.8772,-1.92391,0
65.4868,-51.8028,-1.93497,0
65.532,-51.7275,-1.94583,0
65.5752,-51.6512,-1.95651,0
65.6166,-51.5741,-1.96698,0
65.6559,-51.4962,-1.97726,0
65.6933,-51.4175,-1.98733,0
65.7287,-51.3382,-1.99718,0
65.7621,-51.2582,-2.00682,0
65.7934,-51.1776,-2.01624,0
65.8229,-51.0966,-2.02544,0
65.8503,-51.015,-2.03441,0
65.8757,-50.9331,-2.04315,0
65.9037,-50.8526,-2.05053,0
65.9375,-50.7744,-2.05589,0
65.9695,-50.6954,-2.06102,0
65.9997,-50.6157,-2.06595,0
66.0281,-50.5353,-2.07066,0
66.0548,-50.4542,-2.07514,0
66.0797,-50.3724,-2.0794,0
66.1027,-50.2901,-2.08343,0
66.1239,-50.2072,-2.08723,0
66.1433,-50.1238,-2.0908,0
66.1608,-50.0399,-2.09413,0
66.1765,-49.9556,-2.09722,0
66.1902,-49.8709,-2.10008,0
66.2021,-49.7859,-2.1027,0
66.2121,-49.7005,-2.10508,0
66.2202,-49.6149,-2.10721,0
66.2251,-49.529,-2.10937,0
66.2277,-49.4431,-2.11133,0
66.2285,-49.357,-2.11304,0
66.2272,-49.2709,-2.11452,0
66.224,-49.1849,-2.11576,0
66.2188,-49.0989,-2.11674,0
66.2116,-49.0131,-2.11749,0
66.2025,-48.9274,-2.118,0
66.1914,-48.8419,-2.11824,0
66.1784,-48.7567,-2.11825,0
66.1634,-48.6717,-2.11801,0
66.1464,-48.5872,-2.11753,0
66.1275,-48.503,-2.11679,0
66.1066,-48.4193,-2.11582,0
66.084,-48.336,-2.11459,0
66.0593,-48.2533,-2.11312,0
66.0327,-48.1712,-2.11141,0
66.0044,-48.0896,-2.10945,0
65.9741,-48.0088,-2.10725,0
65.9419,-47.9286,-2.10481,0
65.9079,-47.8492,-2.10212,0
65.8721,-47.7706,-2.0992,0
65.8345,-47.6929,-2.09604,0
65.7952,-47.616,-2.09264,0
65.755,-47.5395,-2.08878,0
65.7141,-47.4634,-2.08443,0
65.6714,-47.3882,-2.07984,0
65.6269,-47.3139,-2.07502,0
65.5808,-47.2406,-2.06996,0
65.533,-47.1684,-2.06467,0
65.4834,-47.0972,-2.05916,0
65.4323,-47.0272,-2.05341,0
65.3795,-46.9583,-2.04743,0
65.3252,-46.8906,-2.04125,0
65.2692,-46.8242,-2.03484,0
65.2117,-46.759,-2.0282,0
65.1527,-46.6952,-2.02135,0
65.0922,-46.6327,-2.01431,0
65.0302,-46.5716,-2.00705,0
64.9668,-46.5119,-1.99959,0
64.902,-46.4537,-1.99192,0
64.8359,-46.397,-1.98406,0
64.7684,-46.3418,-1.97602,0
64.6997,-46.2881,-1.96778,0
64.6299,-46.2357,-1.95924,0
64.5606,-46.1824,-1.94977,0
64.4901,-46.1306,-1.94011,0
64.4182,-46.0805,-1.93028,0
64.3451,-46.032,-1.92026,0
64.2709,-45.9852,-1.91007,0
64.1954,-45.94,-1.89966,0
64.121,-45.8921,-1.88781,0
64.8281,-52.5879,-1.79815,0
64.8951,-52.5281,-1.81039,0
64.9602,-52.4664,-1.82263,0
65.023,-52.4025,-1.83502,0
65.0842,-52.3372,-1.84728,0
65.1434,-52.2705,-1.8594,0
65.201,-52.2025,-1.87137,0
65.2567,-52.1332,-1.88319,0
65.3105,-52.0626,-1.89487,0
65.3626,-51.9909,-1.90636,0
65.4127,-51.9182,-1.91769,0
65.4609,-51.8443,-1.92884,0
65.5071,-51.7695,-1.93981,0
65.5514,-51.6937,-1.95059,0
65.5939,-51.6171,-1.96118,0
65.6343,-51.5396,-1.97157,0
65.6727,-51.4613,-1.98175,0
65.7092,-51.3824,-1.99173,0
65.7438,-51.3027,-2.00148,0
65.7762,-51.2225,-2.01102,0
65.8068,-51.1417,-2.02035,0
65.8353,-51.0604,-2.02945,0
65.8619,-50.9787,-2.03831,0
65.8863,-50.8966,-2.04695,0
65.9189,-50.818,-2.05294,0
65.9519,-50.7394,-2.05819,0
65.983,-50.6601,-2.06324,0
66.0125,-50.5801,-2.06807,0
66.0402,-50.4993,-2.07268,0
66.066,-50.4179,-2.07706,0
66.0901,-50.3359,-2.08122,0
66.1123,-50.2533,-2.08515,0
66.1327,-50.1702,-2.08884,0
