24.1407,-6.01046,0.445472,0
24.1385,-5.92825,0.445296,0
24.1344,-5.84611,0.44515,0
24.1282,-5.76413,0.445071,0
24.12,-5.68234,0.445042,0
24.1098,-5.60079,0.445062,0
24.0977,-5.51958,0.445169,0
24.0835,-5.4387,0.445306,0
24.0673,-5.35822,0.445511,0
24.052,-5.27767,0.446585,0
24.0423,-5.19568,0.450081,0
24.0307,-5.11374,0.453704,0
24.0173,-5.03188,0.457425,0
24.0021,-4.95016,0.461282,0
23.9849,-4.86861,0.465257,0
23.9659,-4.78728,0.469349,0
23.945,-4.7062,0.473558,0
23.9223,-4.62545,0.477884,0
23.8977,-4.54503,0.482318,0
23.8711,-4.46499,0.486859,0
23.8427,-4.38541,0.491517,0
23.8125,-4.3063,0.496273,0
23.7802,-4.22774,0.501146,0
20.5585,-9.60841,0.629466,0
20.6395,-9.60105,0.622972,0
20.7203,-9.59195,0.616527,0
20.8008,-9.58118,0.610159,0
20.8808,-9.56871,0.603851,0
20.9605,-9.55457,0.59762,0
21.0396,-9.53877,0.591458,0
21.1184,-9.52131,0.585364,0
21.1965,-9.50225,0.579359,0
21.2742,-9.48154,0.573441,0
21.3513,-9.45925,0.567591,0
21.4278,-9.43535,0.561819,0
21.5037,-9.40988,0.556146,0
21.5791,-9.38287,0.55056,0
21.6537,-9.35431,0.545052,0
21.7275,-9.32422,0.539642,0
21.8007,-9.29264,0.534329,0
21.8731,-9.25956,0.529105,0
21.9448,-9.22501,0.523978,0
22.0156,-9.18901,0.518958,0
22.0855,-9.15156,0.514027,0
22.1547,-9.11271,0.509202,0
22.223,-9.07246,0.504486,0
22.2904,-9.03083,0.499866,0
22.3568,-8.98782,0.495355,0
22.4223,-8.94351,0.49096,0
22.4868,-8.89783,0.486663,0
22.5498,-8.85025,0.48223,0
22.6116,-8.80105,0.477767,0
22.6722,-8.75064,0.473431,0
22.7316,-8.69898,0.469193,0
22.79,-8.64612,0.465062,0
22.8472,-8.59212,0.461058,0
22.9032,-8.53691,0.457142,0
22.9598,-8.48242,0.454173,0
23.0195,-8.43069,0.453128,0
23.0781,-8.37749,0.452132,0
23.1355,-8.32284,0.451185,0
23.1918,-8.26679,0.450296,0
23.2469,-8.20934,0.449466,0
23.3006,-8.15049,0.448665,0
23.353,-8.09033,0.447943,0
23.4041,-8.02886,0.447269,0
23.4538,-7.96606,0.446644,0
23.5021,-7.90204,0.446077,0
23.549,-7.83678,0.44557,0
23.5944,-7.77032,0.44512,0
23.6381,-7.70271,0.44473,0
23.6805,-7.63397,0.444388,0
23.7212,-7.56414,0.444114,0
23.7603,-7.49328,0.443909,0
23.7977,-7.42138,0.443753,0
23.8334,-7.34851,0.443655,0
23.8675,-7.2747,0.443626,0
23.8998,-7.19998,0.443636,0
23.9304,-7.12442,0.443724,0
23.9591,-7.04807,0.44388,0
23.9861,-6.97092,0.444085,0
24.0112,-6.89305,0.444349,0
24.0345,-6.8145,0.444671,0
24.0559,-6.73534,0.445081,0
24.0753,-6.6556,0.44554,0
24.0928,-6.57529,0.446048,0
24.1084,-6.49453,0.446634,0
24.122,-6.41329,0.447269,0
24.1298,-6.33138,0.44681,0
24.1356,-6.24928,0.44639,0
24.1393,-6.16708,0.446029,0
24.1409,-6.0848,0.445716,0
24.1406,-6.00254,0.445462,0
24.1383,-5.92031,0.445267,0
24.1339,-5.83819,0.44513,0
24.1276,-5.75624,0.445062,0
24.1191,-5.67447,0.445042,0
24.1087,-5.59298,0.445091,0
24.0964,-5.51177,0.445179,0
24.082,-5.43093,0.445325,0
24.0657,-5.3505,0.44554,0
24.0511,-5.26975,0.446907,0
24.0413,-5.18778,0.450423,0
24.0295,-5.10583,0.454046,0
24.0159,-5.02401,0.457806,0
24.0005,-4.94229,0.461663,0
23.9831,-4.86076,0.465648,0
23.964,-4.77944,0.469739,0
23.9429,-4.6984,0.473968,0
23.92,-4.61767,0.478294,0
23.8952,-4.53728,0.482747,0
23.8685,-4.4573,0.487298,0
23.8399,-4.37775,0.491966,0
23.8095,-4.2987,0.496732,0
23.7771,-4.2202,0.501624,0
21.6169,-9.29197,0.549466,0
21.6894,-9.26287,0.544144,0
21.7612,-9.23228,0.538919,0
21.8323,-9.2002,0.533773,0
21.9027,-9.16671,0.528734,0
21.9723,-9.13178,0.523792,0
22.041,-9.09542,0.518939,0
22.109,-9.05766,0.514183,0
22.1761,-9.01855,0.509544,0
22.2423,-8.97805,0.504993,0
22.3076,-8.93622,0.50055,0
22.3719,-8.89308,0.496214,0
22.4348,-8.84796,0.491722,0
22.4966,-8.80134,0.48723,0
22.5573,-8.75346,0.482835,0
22.6169,-8.70435,0.478558,0
22.6754,-8.65403,0.474388,0
22.7329,-8.60252,0.470316,0
22.7891,-8.54984,0.466351,0
22.8442,-8.49605,0.462503,0
22.8981,-8.44112,0.458773,0
22.9519,-8.38613,0.455628,0
23.0093,-8.33431,0.454632,0
23.0655,-8.28109,0.453714,0
23.1206,-8.22647,0.452825,0
23.1745,-8.17052,0.452015,0
23.2272,-8.1132,0.451243,0
23.2786,-8.05458,0.450511,0
23.3287,-7.99467,0.449847,0
23.3773,-7.93351,0.449241,0
23.4247,-7.8711,0.448675,0
23.4706,-7.8075,0.448167,0
23.5151,-7.74275,0.447737,0
23.5581,-7.67684,0.447327,0
23.5996,-7.60985,0.446995,0
23.6396,-7.5418,0.446732,0
23.678,-7.4727,0.446507,0
23.7147,-7.40262,0.446351,0
23.7498,-7.33156,0.446243,0
23.7833,-7.25961,0.446204,0
23.8151,-7.18679,0.446224,0
23.8452,-7.11312,0.446302,0
23.8734,-7.03864,0.446429,0
23.9,-6.96342,0.446624,0
23.9248,-6.88751,0.446898,0
23.9477,-6.8109,0.4472,0
23.9688,-6.73369,0.447581,0
23.9881,-6.6559,0.448011,0
24.0055,-6.57759,0.448509,0
24.021,-6.49878,0.449056,0
24.0347,-6.41956,0.449681,0
24.043,-6.33965,0.44931,0
24.0489,-6.25954,0.4489,0
24.0529,-6.17929,0.448519,0
24.0549,-6.09899,0.448206,0
24.055,-6.01867,0.447952,0
24.053,-5.93841,0.447757,0
24.0492,-5.85819,0.447601,0
24.0434,-5.77815,0.447523,0
24.0356,-5.6983,0.447493,0
24.0259,-5.61866,0.447513,0
24.0142,-5.53932,0.447591,0
24.0005,-5.46033,0.447737,0
23.9852,-5.38171,0.447923,0
23.976,-5.30181,0.450784,0
23.9665,-5.22166,0.454212,0
23.9552,-5.14155,0.457747,0
23.9421,-5.06153,0.46139,0
23.9272,-4.98165,0.465159,0
23.9105,-4.90193,0.469046,0
23.8919,-4.82245,0.47305,0
23.8714,-4.7432,0.477161,0
23.8491,-4.66428,0.48139,0
23.8252,-4.58566,0.485706,0
23.7992,-4.50748,0.490159,0
23.7715,-4.42971,0.4947,0
23.7418,-4.3524,0.499349,0
23.7104,-4.27565,0.504114,0
20.5505,-9.53456,0.631771,0
20.6298,-9.52763,0.625394,0
20.7089,-9.51902,0.619085,0
20.7877,-9.50874,0.612835,0
20.8661,-9.4968,0.606644,0
20.9441,-9.48321,0.60054,0
21.0218,-9.46801,0.594495,0
21.099,-9.45116,0.588519,0
21.1756,-9.43271,0.58262,0
21.2518,-9.4127,0.57681,0
21.3274,-9.3911,0.571068,0
21.4024,-9.36792,0.565404,0
21.4769,-9.34322,0.559837,0
21.5507,-9.31698,0.554349,0
21.6238,-9.28923,0.548948,0
21.6963,-9.25997,0.543626,0
21.7681,-9.22924,0.538411,0
21.8392,-9.19705,0.533294,0
21.9095,-9.1634,0.528255,0
21.9789,-9.12832,0.523314,0
22.0476,-9.09184,0.51847,0
22.1155,-9.05395,0.513734,0
22.1825,-9.01469,0.509095,0
22.2486,-8.97408,0.504564,0
22.3137,-8.93214,0.50014,0
22.378,-8.88885,0.495804,0
22.4408,-8.84351,0.491273,0
22.5024,-8.79678,0.4868,0
22.563,-8.74879,0.482435,0
22.6226,-8.69955,0.478157,0
22.681,-8.6491,0.473987,0
22.7383,-8.59749,0.469925,0
22.7945,-8.54471,0.46598,0
22.8495,-8.4908,0.462142,0
22.9033,-8.43575,0.458402,0
22.9575,-8.38118,0.455521,0
23.0148,-8.32923,0.454534,0
23.0709,-8.2759,0.453636,0
23.1259,-8.22113,0.452737,0
23.1797,-8.16504,0.451927,0
23.2322,-8.10761,0.451165,0
23.2834,-8.04888,0.450462,0
23.3334,-7.98883,0.449788,0
23.382,-7.92753,0.449173,0
23.4292,-7.86503,0.448626,0
23.475,-7.80131,0.448128,0
23.5193,-7.73645,0.447698,0
23.5622,-7.67043,0.447298,0
23.6035,-7.60334,0.446976,0
23.6434,-7.53516,0.446693,0
23.6816,-7.46598,0.446487,0
23.7181,-7.3958,0.446331,0
23.7531,-7.32468,0.446243,0
23.7865,-7.25262,0.446195,0
23.818,-7.17971,0.446224,0
23.848,-7.10596,0.446302,0
23.8761,-7.03142,0.446448,0
23.9025,-6.95613,0.446654,0
23.927,-6.88015,0.446917,0
23.9498,-6.80348,0.44723,0
23.9708,-6.7262,0.447611,0
23.9898,-6.64836,0.44804,0
24.0071,-6.57001,0.448568,0
24.0224,-6.49115,0.449105,0
24.0359,-6.41189,0.449739,0
24.0436,-6.33193,0.449261,0
24.0494,-6.25179,0.448841,0
24.0532,-6.17155,0.448489,0
24.055,-6.09125,0.448187,0
24.0548,-6.01093,0.447923,0
24.0528,-5.93066,0.447737,0
24.0487,-5.85048,0.447591,0
24.0427,-5.77043,0.447503,0
24.0348,-5.6906,0.447493,0
24.0248,-5.61101,0.447532,0
24.013,-5.5317,0.447611,0
23.9992,-5.45271,0.447737,0
23.9834,-5.37416,0.447952,0
23.9752,-5.2941,0.451126,0
23.9655,-5.21394,0.454544,0
23.9541,-5.13384,0.458089,0
23.9408,-5.05383,0.461761,0
23.9256,-4.97396,0.46554,0
23.9087,-4.89426,0.469427,0
23.89,-4.8148,0.473441,0
23.8694,-4.73558,0.477571,0
23.847,-4.65667,0.48179,0
23.8227,-4.57811,0.486136,0
23.7966,-4.49996,0.490589,0
23.7687,-4.42223,0.49514,0
23.7389,-4.345,0.499818,0
23.7073,-4.26828,0.504583,0
20.558,-9.53396,0.631155,0
20.6374,-9.52687,0.624788,0
20.7166,-9.51811,0.61848,0
20.7953,-9.50766,0.61223,0
20.8737,-9.49556,0.606058,0
20.9517,-9.48181,0.599945,0
21.0292,-9.46644,0.593909,0
21.1063,-9.44945,0.587952,0
21.183,-9.43087,0.582064,0
21.2591,-9.41067,0.576243,0
21.3346,-9.38894,0.570521,0
21.4097,-9.36561,0.564866,0
21.484,-9.34075,0.5593,0
21.5578,-9.31437,0.553822,0
21.6309,-9.28646,0.548431,0
21.7034,-9.25708,0.543128,0
21.775,-9.2262,0.537913,0
21.8459,-9.19386,0.532796,0
21.9162,-9.16009,0.527777,0
21.9856,-9.12488,0.522855,0
22.0542,-9.08824,0.518011,0
22.122,-9.05021,0.513275,0
22.1889,-9.01084,0.508655,0
22.2548,-8.97009,0.504124,0
22.32,-8.92801,0.4997,0
22.3841,-8.88461,0.495384,0
22.4468,-8.83906,0.490843,0
22.5084,-8.7922,0.48637,0
22.5689,-8.74408,0.482015,0
22.6283,-8.69473,0.477737,0
22.6866,-8.64419,0.473597,0
22.7438,-8.59245,0.469544,0
22.7998,-8.53956,0.465599,0
22.8547,-8.48554,0.46178,0
22.9084,-8.4304,0.45806,0
22.963,-8.37625,0.455433,0
23.0202,-8.32417,0.454466,0
23.0763,-8.27065,0.453528,0
23.1311,-8.2158,0.452679,0
23.1848,-8.15955,0.451839,0
23.2372,-8.10199,0.451087,0
23.2883,-8.04313,0.450384,0
23.3381,-7.98298,0.44973,0
23.3866,-7.92157,0.449124,0
23.4337,-7.85895,0.448577,0
23.4794,-7.79509,0.44807,0
23.5235,-7.73014,0.44765,0
23.5662,-7.664,0.447259,0
23.6074,-7.59682,0.446946,0
23.6471,-7.52854,0.446683,0
23.6851,-7.45927,0.446478,0
23.7216,-7.38899,0.446331,0
23.7564,-7.31776,0.446234,0
23.7895,-7.24563,0.446195,0
23.8211,-7.17264,0.446224,0
23.8508,-7.09883,0.446331,0
23.8787,-7.0242,0.446468,0
23.905,-6.94883,0.446673,0
23.9293,-6.87276,0.446937,0
23.952,-6.79604,0.447259,0
23.9727,-6.71871,0.44764,0
23.9916,-6.64083,0.448099,0
24.0087,-6.5624,0.448597,0
24.0238,-6.48355,0.449183,0
24.0367,-6.40419,0.449691,0
24.0442,-6.32422,0.449232,0
24.0498,-6.24405,0.448802,0
24.0534,-6.16382,0.44845,0
24.0551,-6.08351,0.448157,0
24.0548,-6.0032,0.447904,0
24.0525,-5.92292,0.447718,0
24.0482,-5.84277,0.447601,0
24.042,-5.76273,0.447513,0
24.0339,-5.68292,0.447503,0
24.0238,-5.60334,0.447523,0
24.0117,-5.52405,0.44762,0
23.9978,-5.44513,0.447767,0
23.9823,-5.36652,0.448118,0
23.9744,-5.28635,0.451429,0
23.9645,-5.20619,0.454876,0
23.9528,-5.12611,0.458441,0
23.9394,-5.04612,0.462112,0
23.9241,-4.96627,0.465902,0
23.907,-4.88658,0.469808,0
23.888,-4.80714,0.473831,0
23.8673,-4.72795,0.477962,0
23.8447,-4.64908,0.48221,0
23.8202,-4.57057,0.486575,0
23.794,-4.49246,0.491038,0
23.7659,-4.41476,0.495589,0
23.7359,-4.33758,0.500277,0
23.7041,-4.26092,0.505042,0
21.5952,-9.22639,0.552698,0
21.6663,-9.19793,0.547484,0
21.7366,-9.16803,0.542357,0
21.8064,-9.13666,0.537308,0
21.8754,-9.10389,0.532366,0
21.9435,-9.06971,0.527513,0
22.011,-9.03414,0.522767,0
22.0776,-8.9972,0.518109,0
22.1434,-8.9589,0.513558,0
22.2083,-8.91926,0.509085,0
22.2722,-8.87822,0.5047,0
22.3347,-8.83514,0.500101,0
22.3963,-8.79076,0.495599,0
22.4568,-8.74515,0.491214,0
22.5163,-8.69828,0.486898,0
22.5748,-8.65021,0.482708,0
22.6321,-8.60096,0.478616,0
22.6884,-8.55052,0.474613,0
22.7436,-8.49895,0.470736,0
22.7977,-8.44627,0.466976,0
22.8505,-8.39249,0.463304,0
22.9021,-8.33764,0.459749,0
22.9539,-8.28287,0.456859,0
23.0088,-8.23077,0.45597,0
23.0626,-8.17729,0.455111,0
23.1152,-8.12249,0.4543,0
23.1666,-8.06639,0.453548,0
23.2166,-8.009,0.452855,0
23.2655,-7.95037,0.4522,0
23.313,-7.89054,0.451624,0
23.3591,-7.82947,0.451068,0
23.404,-7.76724,0.450579,0
23.4474,-7.70389,0.45015,0
23.4893,-7.63941,0.449759,0
23.5297,-7.5739,0.449446,0
23.5687,-7.50734,0.449183,0
23.6061,-7.43977,0.448978,0
23.642,-7.37124,0.448821,0
23.6762,-7.30178,0.448724,0
23.7087,-7.23143,0.448685,0
23.7396,-7.16022,0.448704,0
23.769,-7.0882,0.448773,0
23.7965,-7.01544,0.448919,0
23.8223,-6.94191,0.449114,0
23.8465,-6.8677,0.449359,0
23.8687,-6.79286,0.449681,0
23.8893,-6.71741,0.450042,0
23.908,-6.6414,0.450462,0
23.9249,-6.56488,0.45096,0
23.94,-6.48791,0.451507,0
23.9531,-6.41052,0.452103,0
23.9609,-6.33242,0.451624,0
23.9667,-6.25417,0.451204,0
23.9706,-6.1758,0.450843,0
23.9726,-6.09739,0.45055,0
23.9727,-6.01895,0.450306,0
23.9709,-5.94054,0.450101,0
23.9671,-5.86222,0.449954,0
23.9614,-5.78403,0.449876,0
23.9538,-5.70603,0.449847,0
23.9444,-5.62824,0.449866,0
23.933,-5.55074,0.449935,0
23.9198,-5.47359,0.450081,0
23.9098,-5.39584,0.451898,0
23.9021,-5.31744,0.45515,0
23.8927,-5.23904,0.458499,0
23.8815,-5.16071,0.461976,0
23.8685,-5.08247,0.46556,0
23.8537,-5.00434,0.469241,0
23.8372,-4.92643,0.47306,0
23.8188,-4.84872,0.476986,0
23.7987,-4.77127,0.481019,0
23.7767,-4.69412,0.485159,0
23.753,-4.61731,0.489398,0
23.7275,-4.54091,0.493753,0
23.7002,-4.46493,0.498216,0
23.6711,-4.38942,0.502767,0
23.6402,-4.31445,0.507435,0
20.5502,-9.46276,0.633382,0
20.628,-9.45609,0.627132,0
20.7055,-9.44776,0.620941,0
20.7826,-9.4378,0.614827,0
20.8595,-9.42621,0.608763,0
20.9359,-9.41299,0.602767,0
21.012,-9.39818,0.596839,0
21.0876,-9.3818,0.590989,0
21.1627,-9.36383,0.585208,0
21.2373,-9.34429,0.579505,0
21.3114,-9.3232,0.57388,0
21.385,-9.3006,0.568333,0
21.458,-9.27645,0.562864,0
21.5303,-9.25082,0.557484,0
21.602,-9.2237,0.552191,0
21.6731,-9.19511,0.546976,0
21.7434,-9.16507,0.541868,0
21.8131,-9.13357,0.536839,0
21.882,-9.10065,0.531898,0
21.9501,-9.06635,0.527064,0
22.0174,-9.03062,0.522308,0
22.0839,-8.99355,0.517659,0
22.1496,-8.95514,0.513118,0
22.2145,-8.91537,0.508665,0
22.2783,-8.87411,0.504241,0
22.3407,-8.83092,0.499661,0
22.4022,-8.78643,0.495179,0
22.4626,-8.74066,0.490775,0
22.522,-8.69371,0.486507,0
22.5803,-8.64551,0.482298,0
22.6377,-8.59615,0.478226,0
22.6938,-8.5456,0.474241,0
22.7488,-8.49392,0.470364,0
22.8027,-8.44113,0.466614,0
22.8555,-8.38724,0.462952,0
22.9071,-8.33227,0.459398,0
22.9593,-8.27792,0.45678,0
23.0141,-8.22567,0.455882,0
23.0677,-8.17206,0.455023,0
23.1202,-8.11715,0.454232,0
23.1714,-8.06091,0.45348,0
23.2214,-8.0034,0.452786,0
23.2702,-7.94465,0.452142,0
23.3176,-7.8847,0.451566,0
23.3635,-7.82352,0.451019,0
23.4083,-7.76119,0.45054,0
23.4515,-7.69772,0.450111,0
23.4932,-7.63315,0.449739,0
23.5336,-7.56753,0.449417,0
23.5723,-7.50086,0.449154,0
23.6095,-7.43319,0.448948,0
23.6452,-7.36459,0.448812,0
23.6793,-7.29504,0.448724,0
23.7118,-7.2246,0.448685,0
23.7426,-7.15333,0.448714,0
23.7716,-7.08124,0.448802,0
23.7991,-7.00837,0.448929,0
23.8248,-6.93478,0.449124,0
23.8487,-6.86053,0.449398,0
23.8708,-6.78561,0.4497,0
23.8912,-6.71011,0.450081,0
23.9097,-6.63407,0.45053,0
23.9265,-6.55749,0.451009,0
23.9414,-6.48046,0.451556,0
23.954,-6.40297,0.452034,0
23.9615,-6.32488,0.451575,0
23.9672,-6.24663,0.451175,0
23.9709,-6.16826,0.450823,0
23.9727,-6.08982,0.450521,0
23.9726,-6.01138,0.450267,0
23.9705,-5.93299,0.450091,0
23.9666,-5.85468,0.449954,0
23.9608,-5.7765,0.449876,0
23.953,-5.69852,0.449847,0
23.9434,-5.62077,0.449876,0
23.9318,-5.54329,0.449954,0
23.9184,-5.46616,0.450091,0
23.9091,-5.3883,0.45222,0
23.9012,-5.30988,0.455472,0
23.8917,-5.2315,0.458841,0
23.8803,-5.15316,0.462318,0
23.8671,-5.07493,0.465911,0
23.8522,-4.99683,0.469612,0
23.8355,-4.91893,0.473431,0
23.8169,-4.84124,0.477376,0
23.7966,-4.76381,0.481409,0
23.7745,-4.6867,0.48556,0
23.7506,-4.60993,0.489818,0
23.7249,-4.53355,0.494173,0
23.6974,-4.45764,0.498655,0
23.6681,-4.38217,0.503216,0
23.6371,-4.30726,0.507894,0
20.5577,-9.4622,0.632777,0
20.6354,-9.45534,0.626527,0
20.7129,-9.44687,0.620355,0
20.7901,-9.43674,0.614232,0
20.8668,-9.425,0.608177,0
20.9433,-9.41163,0.602191,0
21.0192,-9.39668,0.596273,0
21.0948,-9.38014,0.590433,0
21.1699,-9.36201,0.584661,0
21.2445,-9.34232,0.578968,0
21.3186,-9.32109,0.573343,0
21.392,-9.29834,0.567806,0
21.4649,-9.27405,0.562347,0
21.5372,-9.24829,0.556976,0
21.6089,-9.22101,0.551683,0
21.6798,-9.19227,0.546478,0
21.7502,-9.16209,0.54138,0
21.8198,-9.13045,0.536351,0
21.8886,-9.0974,0.531419,0
21.9566,-9.06295,0.526585,0
22.0239,-9.02711,0.521859,0
22.0903,-8.9899,0.51721,0
22.1559,-8.95136,0.512689,0
22.2206,-8.91146,0.508236,0
22.2843,-8.87002,0.503802,0
22.3467,-8.82669,0.499232,0
22.408,-8.78205,0.494739,0
22.4684,-8.73621,0.490374,0
22.5277,-8.6891,0.486087,0
22.5859,-8.64081,0.481917,0
22.643,-8.59131,0.477835,0
22.6991,-8.54066,0.473861,0
22.7541,-8.48888,0.470003,0
22.8079,-8.43599,0.466253,0
22.8605,-8.38198,0.462601,0
22.912,-8.32693,0.459075,0
22.9646,-8.27291,0.456673,0
23.0193,-8.22055,0.455794,0
23.0728,-8.16684,0.454954,0
23.1252,-8.11177,0.454154,0
23.1762,-8.05541,0.453411,0
23.2262,-7.99779,0.452718,0
23.2748,-7.93893,0.452083,0
23.322,-7.87883,0.451497,0
23.3679,-7.81755,0.45096,0
23.4125,-7.7551,0.450491,0
23.4555,-7.69154,0.450062,0
23.4973,-7.62688,0.44971,0
23.5373,-7.56114,0.449388,0
23.576,-7.49437,0.449134,0
23.6131,-7.42664,0.448939,0
23.6486,-7.35792,0.448802,0
23.6826,-7.28828,0.448714,0
23.7148,-7.21777,0.448685,0
23.7455,-7.14639,0.448704,0
23.7744,-7.07424,0.448802,0
23.8016,-7.00131,0.448948,0
23.8272,-6.92766,0.449154,0
23.8509,-6.85331,0.449407,0
23.8729,-6.77836,0.449749,0
23.893,-6.70279,0.45012,0
23.9115,-6.62669,0.45057,0
23.928,-6.55008,0.451058,0
23.9427,-6.47303,0.451624,0
23.9548,-6.39545,0.451995,0
23.9621,-6.31735,0.451546,0
23.9677,-6.23908,0.451146,0
23.9712,-6.16069,0.450784,0
23.9727,-6.08226,0.450491,0
23.9725,-6.00383,0.450257,0
23.9702,-5.92542,0.450062,0
23.9661,-5.84713,0.449935,0
23.9601,-5.76897,0.449857,0
23.9522,-5.69102,0.449847,0
23.9423,-5.61328,0.449876,0
23.9306,-5.53585,0.449964,0
23.917,-5.45874,0.450111,0
23.9084,-5.38074,0.452532,0
23.9005,-5.30232,0.455794,0
23.8906,-5.22395,0.459163,0
23.8791,-5.14561,0.46265,0
23.8658,-5.06738,0.466253,0
23.8507,-4.98933,0.469984,0
23.8337,-4.91143,0.473812,0
23.8151,-4.83378,0.477767,0
23.7946,-4.75636,0.4818,0
23.7723,-4.67928,0.48596,0
23.7482,-4.60253,0.490218,0
23.7223,-4.52622,0.494603,0
23.6947,-4.45033,0.499075,0
23.6652,-4.37493,0.503665,0
23.634,-4.30006,0.508353,0
21.5741,-9.16306,0.555823,0
21.6439,-9.13523,0.550706,0
21.713,-9.10597,0.545667,0
21.7813,-9.07531,0.540736,0
21.849,-9.04323,0.535882,0
21.9159,-9.00977,0.531116,0
21.982,-8.97495,0.526458,0
22.0473,-8.93879,0.521898,0
22.1117,-8.90129,0.517425,0
22.1752,-8.86207,0.512874,0
22.2374,-8.82117,0.508275,0
22.2987,-8.77899,0.503773,0
22.3591,-8.73557,0.499359,0
22.4184,-8.6909,0.495042,0
22.4768,-8.64501,0.490823,0
22.5341,-8.59794,0.486702,0
22.5904,-8.54972,0.482698,0
22.6455,-8.50032,0.478782,0
22.6997,-8.44982,0.474984,0
22.7526,-8.39819,0.471263,0
22.8045,-8.34553,0.467679,0
22.8552,-8.29179,0.464183,0
22.9047,-8.23701,0.460804,0
22.9543,-8.18238,0.458128,0
23.0068,-8.13,0.457288,0
23.0581,-8.07634,0.456507,0
23.1083,-8.02141,0.455784,0
23.1572,-7.96521,0.455091,0
23.2048,-7.9078,0.454466,0
23.2512,-7.84922,0.45389,0
23.2963,-7.78946,0.453372,0
23.3399,-7.72855,0.452884,0
23.3823,-7.66656,0.452474,0
23.4232,-7.60349,0.452112,0
23.4627,-7.53937,0.45179,0
23.5006,-7.47424,0.451536,0
23.537,-7.40815,0.451341,0
23.572,-7.3411,0.451175,0
23.6053,-7.27316,0.451097,0
23.6371,-7.20437,0.451068,0
23.6673,-7.13473,0.451087,0
23.6958,-7.06431,0.451165,0
23.7226,-6.99314,0.451302,0
23.7477,-6.92126,0.451478,0
23.7712,-6.84872,0.451751,0
23.793,-6.77556,0.452054,0
23.813,-6.7018,0.452415,0
23.8312,-6.6275,0.452845,0
23.8476,-6.5527,0.453314,0
23.8622,-6.47747,0.453851,0
23.8746,-6.40178,0.45429,0
23.8822,-6.32548,0.453841,0
23.8879,-6.24903,0.453431,0
23.8917,-6.17247,0.453089,0
23.8937,-6.09584,0.452786,0
23.8937,-6.0192,0.452542,0
23.892,-5.9426,0.452357,0
23.8883,-5.86606,0.45221,0
23.8828,-5.78966,0.452122,0
23.8754,-5.71346,0.452103,0
23.8662,-5.63744,0.452122,0
23.8552,-5.56172,0.452191,0
23.8446,-5.48594,0.453109,0
23.8386,-5.40922,0.456165,0
23.831,-5.33249,0.459349,0
23.8216,-5.25578,0.46263,0
23.8104,-5.17916,0.466048,0
23.7976,-5.10262,0.469564,0
23.783,-5.02621,0.473187,0
23.7666,-4.95,0.476927,0
23.7485,-4.87398,0.480765,0
23.7286,-4.79828,0.48473,0
23.707,-4.72285,0.488792,0
23.6837,-4.64777,0.492952,0
23.6585,-4.57307,0.49721,0
23.6316,-4.49881,0.501585,0
23.603,-4.42502,0.506058,0
23.5727,-4.35174,0.510609,0
20.5499,-9.3935,0.634935,0
20.6262,-9.38706,0.628812,0
20.702,-9.37899,0.622747,0
20.7777,-9.36934,0.616741,0
20.853,-9.35809,0.610804,0
20.928,-9.34524,0.604925,0
21.0024,-9.33081,0.599114,0
21.0766,-9.31483,0.593372,0
21.1502,-9.29731,0.587718,0
21.2234,-9.27826,0.582122,0
21.296,-9.25767,0.576595,0
21.3681,-9.2356,0.571165,0
21.4397,-9.212,0.565794,0
21.5106,-9.18695,0.560521,0
21.5809,-9.16044,0.555335,0
21.6506,-9.13248,0.550228,0
21.7196,-9.10308,0.545189,0
21.7879,-9.07227,0.540257,0
21.8555,-9.04006,0.535413,0
21.9223,-9.00646,0.530657,0
21.9884,-8.97153,0.526019,0
22.0535,-8.93522,0.521448,0
22.1179,-8.89759,0.516986,0
22.1812,-8.85818,0.512435,0
22.2434,-8.81717,0.507835,0
22.3046,-8.77487,0.503353,0
22.3648,-8.73132,0.498939,0
22.4241,-8.68653,0.494632,0
22.4824,-8.64053,0.490423,0
22.5395,-8.59336,0.486321,0
22.5957,-8.54499,0.482308,0
22.6509,-8.49551,0.478411,0
22.7048,-8.44488,0.474613,0
22.7577,-8.39317,0.470921,0
22.8094,-8.34038,0.467327,0
22.86,-8.28656,0.46387,0
22.9094,-8.23169,0.460491,0
22.9595,-8.17738,0.45805,0
23.0117,-8.12489,0.45722,0
23.063,-8.07108,0.456439,0
23.113,-8.01604,0.455716,0
23.1619,-7.95974,0.455042,0
23.2094,-7.90221,0.454407,0
23.2556,-7.84352,0.453841,0
23.3005,-7.78362,0.453304,0
23.3441,-7.72263,0.452845,0
23.3863,-7.66053,0.452435,0
23.427,-7.59734,0.452064,0
23.4663,-7.53313,0.451771,0
23.5041,-7.46791,0.451507,0
23.5405,-7.40174,0.451331,0
23.5752,-7.3346,0.451175,0
23.6084,-7.26657,0.451087,0
23.6401,-7.19769,0.451058,0
23.67,-7.12797,0.451087,0
23.6984,-7.05749,0.451175,0
23.7252,-6.98627,0.451331,0
23.7501,-6.91431,0.451527,0
23.7734,-6.84168,0.451761,0
23.795,-6.76846,0.452073,0
23.8148,-6.69465,0.452454,0
23.8328,-6.62032,0.452884,0
23.8491,-6.54548,0.453372,0
23.8636,-6.4702,0.453909,0
23.8754,-6.39442,0.454251,0
23.8828,-6.31812,0.453792,0
23.8883,-6.24165,0.453402,0
23.892,-6.16509,0.45305,0
23.8937,-6.08846,0.452757,0
23.8937,-6.01181,0.452523,0
23.8917,-5.9352,0.452337,0
23.8879,-5.85869,0.45221,0
23.8822,-5.78229,0.452122,0
23.8746,-5.7061,0.452093,0
23.8652,-5.63014,0.452132,0
23.8539,-5.55444,0.45221,0
23.8441,-5.47854,0.453392,0
23.838,-5.40182,0.456468,0
23.8302,-5.3251,0.459661,0
23.8206,-5.24841,0.462972,0
23.8093,-5.17177,0.46638,0
23.7962,-5.09525,0.469915,0
23.7815,-5.01886,0.473538,0
23.765,-4.94267,0.477298,0
23.7466,-4.8667,0.481155,0
23.7266,-4.79099,0.485111,0
23.7048,-4.7156,0.489183,0
23.6812,-4.64057,0.493372,0
23.656,-4.56589,0.49763,0
23.629,-4.49168,0.502015,0
23.6002,-4.41792,0.506478,0
23.5696,-4.34471,0.511058,0
20.5572,-9.39295,0.634339,0
20.6334,-9.38635,0.628226,0
20.7094,-9.37814,0.622161,0
20.785,-9.36832,0.616165,0
20.8602,-9.3569,0.610228,0
20.9351,-9.34391,0.604359,0
21.0096,-9.32934,0.598558,0
21.0837,-9.3132,0.592825,0
21.1573,-9.29555,0.587171,0
21.2305,-9.27633,0.581575,0
21.303,-9.25561,0.576068,0
21.3751,-9.23337,0.570638,0
21.4465,-9.20966,0.565296,0
21.5174,-9.18446,0.560023,0
21.5877,-9.1578,0.554837,0
21.6573,-9.1297,0.54973,0
21.7262,-9.10017,0.54471,0
21.7944,-9.06923,0.539798,0
21.8619,-9.03688,0.534954,0
21.9287,-9.00317,0.530228,0
21.9946,-8.96808,0.525569,0
22.0597,-8.93166,0.521029,0
22.1241,-8.8939,0.516566,0
22.1872,-8.8543,0.511995,0
22.2494,-8.81314,0.507405,0
22.3104,-8.77072,0.502913,0
22.3705,-8.72703,0.498509,0
22.4298,-8.68215,0.494222,0
22.4879,-8.63603,0.490023,0
22.5451,-8.58875,0.485931,0
22.6011,-8.54027,0.481927,0
22.6561,-8.49066,0.47804,0
22.7099,-8.43994,0.474251,0
22.7627,-8.38812,0.47057,0
22.8144,-8.33523,0.466995,0
22.8648,-8.2813,0.463529,0
22.9141,-8.22635,0.460179,0
22.9645,-8.17237,0.457962,0
23.0168,-8.11975,0.457132,0
23.0679,-8.06584,0.456361,0
23.1178,-8.01065,0.455638,0
23.1665,-7.95423,0.454974,0
23.2139,-7.8966,0.454349,0
23.26,-7.83776,0.453773,0
23.3048,-7.77779,0.453265,0
23.3483,-7.71668,0.452796,0
23.3902,-7.65447,0.452396,0
23.4309,-7.5912,0.452044,0
23.4701,-7.52689,0.451741,0
23.5077,-7.46156,0.451487,0
23.5439,-7.39528,0.451292,0
23.5785,-7.32808,0.451165,0
23.6116,-7.25996,0.451087,0
23.643,-7.19101,0.451058,0
23.6729,-7.12122,0.451097,0
23.7011,-7.05064,0.451185,0
23.7277,-6.97935,0.451341,0
23.7524,-6.90733,0.451546,0
23.7756,-6.83464,0.45179,0
23.797,-6.76138,0.452122,0
23.8166,-6.68751,0.452493,0
23.8345,-6.61312,0.452933,0
23.8505,-6.53823,0.453411,0
23.8648,-6.46292,0.453968,0
23.8762,-6.38707,0.454202,0
23.8834,-6.31075,0.453753,0
23.8888,-6.23427,0.453362,0
23.8923,-6.1577,0.453021,0
23.8938,-6.08104,0.452728,0
23.8936,-6.00442,0.452503,0
23.8914,-5.92782,0.452318,0
23.8874,-5.85133,0.452191,0
23.8816,-5.77496,0.452122,0
23.8737,-5.69877,0.452093,0
23.8642,-5.62281,0.452132,0
23.8528,-5.54717,0.45222,0
23.8436,-5.47114,0.453685,0
23.8373,-5.39443,0.45678,0
23.8293,-5.31769,0.459964,0
23.8195,-5.241,0.463275,0
23.8081,-5.16437,0.466712,0
23.7949,-5.08788,0.470267,0
23.78,-5.01151,0.473909,0
23.7632,-4.93533,0.477669,0
23.7448,-4.85938,0.481527,0
23.7246,-4.78369,0.485501,0
23.7027,-4.70834,0.489573,0
23.6789,-4.63332,0.493763,0
23.6534,-4.55872,0.49805,0
23.6262,-4.48453,0.502425,0
23.5973,-4.41086,0.506927,0
23.5666,-4.33768,0.511507,0
21.554,-9.10186,0.558841,0
21.6223,-9.07464,0.553822,0
21.6901,-9.04601,0.54888,0
21.7571,-9.016,0.544036,0
21.8234,-8.98462,0.53929,0
21.8891,-8.95186,0.534612,0
21.9538,-8.91774,0.530023,0
22.018,-8.88233,0.52556,0
22.0809,-8.84487,0.520863,0
22.1427,-8.80609,0.516243,0
22.2038,-8.76608,0.511751,0
22.264,-8.72477,0.507308,0
22.3231,-8.68226,0.502991,0
22.3813,-8.63851,0.498753,0
22.4386,-8.59357,0.494622,0
22.4948,-8.54745,0.49057,0
22.55,-8.50021,0.486644,0
22.6041,-8.45184,0.482806,0
22.6573,-8.40236,0.479075,0
22.7092,-8.35178,0.475433,0
22.76,-8.30016,0.471907,0
22.8098,-8.24748,0.46847,0
22.8584,-8.19382,0.465159,0
22.9058,-8.13914,0.461946,0
22.9531,-8.08451,0.459398,0
23.0032,-8.03192,0.458626,0
23.0523,-7.97812,0.457923,0
23.1,-7.9231,0.457259,0
23.1465,-7.86687,0.456644,0
23.1918,-7.80951,0.456097,0
23.2358,-7.75099,0.455579,0
23.2784,-7.69136,0.455111,0
23.3198,-7.63067,0.45471,0
23.3596,-7.56892,0.454349,0
23.398,-7.50615,0.454036,0
23.4351,-7.44244,0.453802,0
23.4707,-7.37774,0.453607,0
23.5048,-7.31215,0.45346,0
23.5373,-7.24567,0.453382,0
23.5683,-7.17836,0.453353,0
23.5977,-7.11024,0.453382,0
23.6255,-7.04136,0.45346,0
23.6516,-6.97173,0.453587,0
23.6762,-6.90143,0.453782,0
23.699,-6.83049,0.454036,0
23.7202,-6.75893,0.454339,0
23.7396,-6.68678,0.454691,0
23.7573,-6.61415,0.455111,0
23.7734,-6.54101,0.45557,0
23.7876,-6.46745,0.456107,0
23.7992,-6.39341,0.456429,0
23.8066,-6.31884,0.45598,0
23.8122,-6.2441,0.455579,0
23.8159,-6.16926,0.455228,0
23.8178,-6.09437,0.454945,0
23.818,-6.01946,0.45471,0
23.8162,-5.94456,0.454515,0
23.8127,-5.86976,0.454378,0
23.8073,-5.79509,0.4543,0
23.8001,-5.72057,0.454261,0
23.7911,-5.64629,0.45429,0
23.7803,-5.57226,0.454378,0
23.776,-5.4972,0.457269,0
23.7701,-5.4221,0.460277,0
23.7624,-5.347,0.463392,0
23.753,-5.27193,0.466624,0
23.742,-5.19693,0.469974,0
23.7293,-5.12202,0.473421,0
23.7148,-5.04728,0.476986,0
23.6987,-4.9727,0.480638,0
23.6808,-4.89837,0.484427,0
23.6612,-4.82429,0.488294,0
23.6398,-4.75052,0.492288,0
23.6169,-4.67707,0.496361,0
23.5922,-4.60403,0.50055,0
23.5657,-4.53142,0.504818,0
23.5375,-4.45928,0.509202,0
23.5077,-4.38766,0.513685,0
20.5496,-9.32659,0.636429,0
20.6243,-9.3204,0.630433,0
20.6988,-9.31259,0.624486,0
20.773,-9.30321,0.618597,0
20.8467,-9.29228,0.612767,0
20.9202,-9.27978,0.607005,0
20.9933,-9.26573,0.601312,0
21.0659,-9.25016,0.595677,0
21.1381,-9.23305,0.59012,0
21.2099,-9.21445,0.584642,0
21.2812,-9.19436,0.579222,0
21.3519,-9.17277,0.57388,0
21.422,-9.14974,0.568636,0
21.4916,-9.12524,0.56346,0
21.5605,-9.09931,0.558362,0
21.6289,-9.07193,0.553343,0
21.6966,-9.04317,0.548402,0
21.7636,-9.01304,0.543577,0
21.8298,-8.9815,0.538831,0
21.8954,-8.94861,0.534163,0
21.9602,-8.9144,0.529603,0
22.0241,-8.87878,0.525101,0
22.0868,-8.84118,0.520404,0
22.1487,-8.80231,0.515823,0
22.2097,-8.76213,0.511302,0
22.2697,-8.72073,0.506898,0
22.3288,-8.67809,0.502581,0
22.387,-8.63421,0.498343,0
22.4441,-8.58916,0.494212,0
22.5002,-8.54297,0.490198,0
22.5553,-8.49559,0.486263,0
22.6093,-8.4471,0.482435,0
22.6623,-8.39752,0.478704,0
22.7141,-8.34686,0.475101,0
22.7648,-8.29513,0.471575,0
22.8145,-8.24236,0.468157,0
22.8629,-8.18859,0.464857,0
22.9102,-8.13383,0.461654,0
22.958,-8.07949,0.45932,0
23.008,-8.02681,0.458558,0
23.0569,-7.97286,0.457855,0
23.1045,-7.91773,0.4572,0
23.1509,-7.86139,0.456585,0
23.1961,-7.80391,0.456029,0
23.24,-7.74528,0.455521,0
23.2824,-7.68554,0.455062,0
23.3236,-7.62476,0.454671,0
23.3634,-7.56292,0.45432,0
23.4017,-7.50007,0.454017,0
23.4387,-7.43624,0.453782,0
23.4741,-7.37145,0.453587,0
23.508,-7.30578,0.45345,0
23.5404,-7.23922,0.453372,0
23.5712,-7.17183,0.453353,0
23.6004,-7.10363,0.453382,0
23.628,-7.03467,0.45346,0
23.6541,-6.96498,0.453607,0
23.6784,-6.89462,0.453812,0
23.7011,-6.82359,0.454056,0
23.7221,-6.75199,0.454368,0
23.7413,-6.67981,0.454739,0
23.7589,-6.60711,0.45515,0
23.7748,-6.53396,0.455638,0
23.7888,-6.46033,0.456155,0
23.8,-6.38622,0.45638,0
23.8072,-6.31164,0.455941,0
23.8126,-6.23688,0.45554,0
23.8162,-6.16204,0.455198,0
23.818,-6.08714,0.454915,0
23.8178,-6.01222,0.454681,0
23.8159,-5.93735,0.454505,0
23.8123,-5.86256,0.454378,0
23.8066,-5.78788,0.45429,0
23.7994,-5.7134,0.454261,0
23.7902,-5.63914,0.4543,0
23.78,-5.56502,0.454642,0
23.7755,-5.48996,0.457552,0
23.7694,-5.41487,0.460579,0
23.7616,-5.33976,0.463704,0
23.752,-5.2647,0.466946,0
23.7409,-5.18971,0.470296,0
23.728,-5.11482,0.473763,0
23.7133,-5.04009,0.477337,0
23.697,-4.96553,0.481009,0
23.6789,-4.89121,0.484788,0
23.6592,-4.81716,0.488685,0
23.6377,-4.74341,0.492669,0
23.6145,-4.67001,0.496761,0
23.5897,-4.59702,0.50096,0
23.563,-4.52445,0.505257,0
23.5347,-4.45235,0.509632,0
23.5047,-4.38078,0.514124,0
20.5569,-9.32607,0.635853,0
20.6316,-9.31971,0.629857,0
20.706,-9.31178,0.623919,0
20.7801,-9.30224,0.61803,0
20.8538,-9.29114,0.61221,0
20.9273,-9.27849,0.606448,0
21.0003,-9.2643,0.600765,0
21.073,-9.24857,0.59514,0
21.1451,-9.23133,0.589583,0
21.2168,-9.21258,0.584114,0
21.288,-9.19232,0.578695,0
21.3587,-9.17062,0.573372,0
21.4287,-9.14743,0.568118,0
21.4983,-9.1228,0.562962,0
21.5672,-9.09673,0.557874,0
21.6355,-9.06922,0.552855,0
21.703,-9.04033,0.547943,0
21.77,-9.01005,0.543109,0
21.8362,-8.97839,0.538372,0
21.9016,-8.94537,0.533714,0
21.9663,-8.91103,0.529154,0
22.0302,-8.87522,0.524652,0
22.0928,-8.8375,0.519964,0
22.1546,-8.7985,0.515384,0
22.2155,-8.75819,0.510872,0
22.2755,-8.71667,0.506468,0
22.3345,-8.6739,0.502161,0
22.3925,-8.62994,0.497952,0
22.4495,-8.58477,0.493831,0
22.5055,-8.53845,0.489818,0
22.5605,-8.49096,0.485892,0
22.6145,-8.44236,0.482064,0
22.6673,-8.39268,0.478353,0
22.7191,-8.3419,0.474739,0
22.7698,-8.29009,0.471243,0
22.8192,-8.23722,0.467835,0
22.8675,-8.18336,0.464544,0
22.9147,-8.12851,0.461351,0
22.9629,-8.07448,0.459251,0
23.0128,-8.02166,0.458489,0
23.0615,-7.9676,0.457786,0
23.1091,-7.91235,0.457142,0
23.1554,-7.85591,0.456536,0
23.2004,-7.79829,0.45598,0
23.2441,-7.73958,0.455482,0
23.2865,-7.67974,0.455023,0
23.3275,-7.61885,0.454642,0
23.3672,-7.55691,0.4543,0
23.4053,-7.49396,0.453997,0
23.4421,-7.43002,0.453753,0
23.4774,-7.36518,0.453577,0
23.5112,-7.2994,0.45345,0
23.5434,-7.23274,0.453362,0
23.5741,-7.16528,0.453353,0
23.6031,-7.09703,0.453402,0
23.6306,-7.02798,0.45348,0
23.6565,-6.95824,0.453636,0
23.6807,-6.8878,0.453821,0
23.7032,-6.81672,0.454085,0
23.724,-6.74506,0.454407,0
23.7432,-6.6728,0.454759,0
23.7606,-6.60007,0.455189,0
23.7762,-6.52687,0.455677,0
23.7901,-6.45322,0.456214,0
23.8008,-6.37903,0.456331,0
23.8078,-6.30442,0.455892,0
23.813,-6.22967,0.455501,0
23.8165,-6.15483,0.455179,0
23.818,-6.07991,0.454886,0
23.8177,-6.005,0.454661,0
23.8156,-5.93013,0.454486,0
23.8118,-5.85536,0.454368,0
23.806,-5.7807,0.45429,0
23.7985,-5.70623,0.454271,0
23.7891,-5.63198,0.45429,0
23.7797,-5.5578,0.454935,0
23.775,-5.48273,0.457845,0
23.7687,-5.40763,0.460862,0
23.7607,-5.33253,0.464017,0
23.7511,-5.25745,0.467259,0
23.7397,-5.18247,0.470628,0
23.7266,-5.10761,0.474105,0
23.7118,-5.0329,0.477689,0
23.6954,-4.95836,0.48138,0
23.6771,-4.88405,0.485159,0
23.6572,-4.81002,0.489046,0
23.6355,-4.73633,0.49306,0
23.6122,-4.66295,0.497152,0
23.5872,-4.59002,0.50138,0
23.5603,-4.51747,0.505667,0
23.5319,-4.44544,0.510062,0
23.5016,-4.37392,0.514564,0
21.5344,-9.04269,0.561761,0
21.6015,-9.01604,0.556829,0
21.6679,-8.98804,0.551995,0
21.7337,-8.95865,0.547239,0
21.7987,-8.92789,0.542552,0
21.8631,-8.89582,0.537982,0
21.9266,-8.86202,0.533314,0
21.989,-8.82665,0.528636,0
22.0507,-8.78995,0.524017,0
22.1114,-8.75201,0.519505,0
22.1714,-8.7128,0.515081,0
22.2303,-8.67236,0.510736,0
22.2884,-8.63071,0.506497,0
22.3455,-8.58785,0.502337,0
22.4017,-8.54383,0.498275,0
22.4568,-8.49867,0.49432,0
22.5109,-8.45235,0.490452,0
22.5641,-8.40494,0.486683,0
22.6162,-8.35645,0.483011,0
22.6672,-8.30689,0.479446,0
22.717,-8.25629,0.475999,0
22.7658,-8.20467,0.47264,0
22.8134,-8.15205,0.469388,0
22.86,-8.09847,0.466243,0
22.9054,-8.04393,0.463196,0
22.9505,-7.98918,0.460667,0
22.9983,-7.93645,0.459984,0
23.0449,-7.88254,0.459339,0
23.0904,-7.82746,0.458734,0
23.1346,-7.77128,0.458196,0
23.1776,-7.71396,0.457708,0
23.2191,-7.65557,0.457259,0
23.2595,-7.59613,0.456859,0
23.2985,-7.53568,0.456517,0
23.336,-7.47423,0.456224,0
23.3721,-7.41183,0.45598,0
23.4068,-7.3485,0.455794,0
23.4401,-7.2843,0.455667,0
23.4718,-7.21921,0.45557,0
23.502,-7.15334,0.45555,0
23.5307,-7.08667,0.45557,0
23.5578,-7.01927,0.455667,0
23.5834,-6.95115,0.455804,0
23.6073,-6.88237,0.455999,0
23.6295,-6.81293,0.456224,0
23.6502,-6.74292,0.456536,0
23.6691,-6.67237,0.456888,0
23.6863,-6.60129,0.457288,0
23.702,-6.52977,0.457757,0
23.7157,-6.45781,0.458275,0
23.7267,-6.38535,0.45845,0
23.734,-6.31244,0.458021,0
23.7394,-6.23937,0.45764,0
23.7431,-6.16618,0.457308,0
23.745,-6.09293,0.457005,0
23.7451,-6.0197,0.45678,0
23.7434,-5.94646,0.456595,0
23.7399,-5.8733,0.456458,0
23.7348,-5.80028,0.45637,0
23.7277,-5.72743,0.456351,0
23.7189,-5.65478,0.45637,0
23.7142,-5.58156,0.458431,0
23.7099,-5.50807,0.461273,0
23.7039,-5.43453,0.464232,0
23.6962,-5.36101,0.467308,0
23.687,-5.28749,0.470472,0
23.676,-5.21405,0.473743,0
23.6634,-5.14075,0.477152,0
23.6491,-5.06759,0.480648,0
23.6332,-4.99461,0.484241,0
23.6155,-4.92183,0.487933,0
23.5962,-4.84937,0.491751,0
23.5752,-4.77718,0.495657,0
23.5525,-4.70533,0.499652,0
23.5281,-4.6339,0.503773,0
23.5021,-4.56286,0.507952,0
23.4744,-4.4923,0.512259,0
23.445,-4.42225,0.516634,0
20.5494,-9.26196,0.637884,0
20.6227,-9.25597,0.631995,0
20.6956,-9.24842,0.626165,0
20.7684,-9.23933,0.620384,0
20.8407,-9.22867,0.614671,0
20.9128,-9.21652,0.609027,0
20.9845,-9.20283,0.603441,0
21.0557,-9.18763,0.597903,0
21.1266,-9.17094,0.592454,0
21.1969,-9.15278,0.587073,0
21.2668,-9.13315,0.581771,0
21.3362,-9.11204,0.576517,0
21.405,-9.0895,0.571361,0
21.4732,-9.06555,0.566282,0
21.5409,-9.04018,0.561292,0
21.6079,-9.01342,0.55637,0
21.6743,-8.98527,0.551536,0
21.74,-8.95574,0.54678,0
21.805,-8.92486,0.542112,0
21.8693,-8.89267,0.537542,0
21.9326,-8.85866,0.532855,0
21.995,-8.82316,0.528177,0
22.0566,-8.78638,0.523597,0
22.1173,-8.74829,0.519075,0
22.1771,-8.70896,0.514661,0
22.236,-8.66841,0.510335,0
22.294,-8.62664,0.506097,0
22.351,-8.58366,0.501946,0
22.4071,-8.53951,0.497884,0
22.4621,-8.49425,0.493948,0
22.5162,-8.44783,0.490081,0
22.5691,-8.40033,0.486341,0
22.6211,-8.35171,0.482669,0
22.672,-8.30205,0.479114,0
22.7218,-8.25134,0.475648,0
22.7705,-8.19964,0.472318,0
22.818,-8.14692,0.469075,0
22.8645,-8.09324,0.465931,0
22.9097,-8.03863,0.462913,0
22.9551,-7.98416,0.460609,0
23.0028,-7.93132,0.459925,0
23.0494,-7.87727,0.459271,0
23.0947,-7.82211,0.458695,0
23.1388,-7.76579,0.458138,0
23.1816,-7.70838,0.457659,0
23.2231,-7.64987,0.45721,0
23.2633,-7.59033,0.45681,0
23.3021,-7.52978,0.456478,0
23.3396,-7.46825,0.456204,0
23.3755,-7.40576,0.45597,0
23.4102,-7.34236,0.455794,0
23.4433,-7.27805,0.455648,0
23.4748,-7.21292,0.455579,0
23.5048,-7.14694,0.45555,0
23.5334,-7.08022,0.455599,0
23.5603,-7.01273,0.455677,0
23.5858,-6.94453,0.455814,0
23.6095,-6.87567,0.456009,0
23.6316,-6.80621,0.456263,0
23.652,-6.73614,0.456556,0
23.6708,-6.66553,0.456917,0
23.6879,-6.59442,0.457337,0
23.7033,-6.52284,0.457796,0
23.717,-6.45086,0.458323,0
23.7275,-6.37832,0.458402,0
23.7346,-6.3054,0.457982,0
23.7398,-6.2323,0.457591,0
23.7434,-6.15911,0.457259,0
23.7451,-6.08587,0.456986,0
23.745,-6.01262,0.456751,0
23.7432,-5.93938,0.456566,0
23.7395,-5.86625,0.456448,0
23.7341,-5.79325,0.45638,0
23.7269,-5.72041,0.456351,0
23.718,-5.64778,0.45637,0
23.7139,-5.57449,0.458704,0
23.7094,-5.50099,0.461556,0
23.7032,-5.42745,0.464534,0
23.6955,-5.35391,0.467601,0
23.686,-5.28041,0.470784,0
23.6748,-5.207,0.474085,0
23.6621,-5.13368,0.477474,0
23.6477,-5.06053,0.48098,0
23.6315,-4.98759,0.484593,0
23.6137,-4.91485,0.488314,0
23.5942,-4.84239,0.492122,0
23.573,-4.77022,0.496029,0
23.5502,-4.69843,0.500052,0
23.5257,-4.62701,0.504153,0
23.4995,-4.55605,0.508372,0
23.4716,-4.48552,0.512669,0
23.4421,-4.41552,0.517054,0
20.5565,-9.26145,0.637318,0
20.6297,-9.25533,0.631439,0
20.7027,-9.24762,0.625609,0
20.7753,-9.23838,0.619837,0
20.8477,-9.22758,0.614124,0
20.9198,-9.21525,0.60847,0
20.9913,-9.20141,0.602884,0
21.0625,-9.18607,0.597376,0
21.1334,-9.16926,0.591927,0
21.2037,-9.15093,0.586546,0
21.2735,-9.13117,0.581253,0
21.3428,-9.10994,0.576029,0
21.4116,-9.08726,0.570862,0
21.4798,-9.06316,0.565794,0
21.5473,-9.03765,0.560794,0
21.6143,-9.01075,0.555892,0
21.6806,-8.98246,0.551058,0
21.7463,-8.95283,0.546331,0
21.8112,-8.92183,0.541673,0
21.8755,-8.88947,0.537093,0
21.9387,-8.85529,0.532396,0
22.001,-8.81967,0.527737,0
22.0624,-8.78275,0.523157,0
22.123,-8.74455,0.518646,0
22.1828,-8.70511,0.514241,0
22.2416,-8.66442,0.509915,0
22.2995,-8.62253,0.505687,0
22.3565,-8.57946,0.501556,0
22.4124,-8.5352,0.497503,0
22.4674,-8.48983,0.493568,0
22.5213,-8.4433,0.48972,0
22.5742,-8.39568,0.48598,0
22.6261,-8.34698,0.482327,0
22.6769,-8.29722,0.478782,0
22.7266,-8.24642,0.475335,0
22.7751,-8.1946,0.471995,0
22.8225,-8.14179,0.468763,0
22.8688,-8.08803,0.465648,0
22.914,-8.03328,0.462611,0
22.9598,-7.9791,0.46053,0
23.0073,-7.92616,0.459866,0
23.0537,-7.87203,0.459232,0
23.099,-7.81672,0.458626,0
23.143,-7.76029,0.458089,0
23.1857,-7.70277,0.457601,0
23.2271,-7.64416,0.457161,0
23.2671,-7.58453,0.456771,0
23.3058,-7.52389,0.456448,0
23.3431,-7.46228,0.456175,0
23.3789,-7.39969,0.455941,0
23.4134,-7.33619,0.455755,0
23.4463,-7.27182,0.455648,0
23.4778,-7.20657,0.45556,0
23.5077,-7.14055,0.45555,0
23.5361,-7.07373,0.455589,0
23.5629,-7.00619,0.455687,0
23.588,-6.93794,0.455833,0
23.6117,-6.86902,0.456038,0
23.6336,-6.79946,0.456273,0
23.6539,-6.72936,0.456595,0
23.6725,-6.65871,0.456966,0
23.6895,-6.58752,0.457366,0
23.7047,-6.51592,0.457845,0
23.7182,-6.44389,0.458372,0
23.7283,-6.3713,0.458362,0
23.7351,-6.29835,0.457933,0
23.7402,-6.22525,0.457571,0
23.7435,-6.15207,0.457239,0
23.7452,-6.07881,0.456956,0
23.7449,-6.00557,0.456741,0
23.7429,-5.93233,0.456556,0
23.7391,-5.85922,0.456448,0
23.7335,-5.78622,0.456361,0
23.7261,-5.71341,0.456351,0
23.717,-5.6408,0.45638,0
23.7135,-5.56741,0.458978,0
23.7088,-5.4939,0.461849,0
23.7025,-5.42034,0.464808,0
23.6946,-5.34683,0.467913,0
23.685,-5.27333,0.471097,0
23.6737,-5.19993,0.474407,0
23.6608,-5.12663,0.477816,0
23.6462,-5.0535,0.481331,0
23.6298,-4.98054,0.484935,0
23.6119,-4.90785,0.488675,0
23.5923,-4.83542,0.492493,0
23.5709,-4.76329,0.496409,0
23.5479,-4.69153,0.500443,0
23.5232,-4.62015,0.504554,0
23.4969,-4.54921,0.508773,0
23.4689,-4.47876,0.513099,0
23.4391,-4.40879,0.517493,0
21.5155,-8.98544,0.564593,0
21.5812,-8.95936,0.559759,0
21.6465,-8.93192,0.554993,0
21.711,-8.90315,0.550335,0
21.7748,-8.87284,0.545657,0
21.8377,-8.8408,0.540892,0
21.8998,-8.80745,0.536224,0
21.961,-8.77279,0.531614,0
22.0216,-8.73687,0.527103,0
22.0812,-8.69969,0.52265,0
22.1399,-8.66129,0.518314,0
22.1978,-8.62167,0.514056,0
22.2548,-8.58086,0.509896,0
22.3109,-8.53887,0.505804,0
22.366,-8.49573,0.501829,0
22.4201,-8.45145,0.497933,0
22.4733,-8.40606,0.494134,0
22.5254,-8.35958,0.490443,0
22.5765,-8.31204,0.486839,0
22.6265,-8.26346,0.483343,0
22.6755,-8.21384,0.479945,0
22.7234,-8.16324,0.476654,0
22.7701,-8.11164,0.47346,0
22.8158,-8.0591,0.470374,0
22.8603,-8.00561,0.467386,0
22.9037,-7.95123,0.464515,0
22.9462,-7.89633,0.461976,0
22.9919,-7.8435,0.461351,0
23.0362,-7.78951,0.460755,0
23.0795,-7.73444,0.460238,0
23.1215,-7.67829,0.459749,0
23.1621,-7.62107,0.4593,0
23.2016,-7.56288,0.458939,0
23.2395,-7.50364,0.458587,0
23.2762,-7.44347,0.458314,0
23.3116,-7.38235,0.458079,0
23.3454,-7.32034,0.457894,0
23.3779,-7.25748,0.457777,0
23.4088,-7.19376,0.457689,0
23.4384,-7.12926,0.457669,0
23.4663,-7.064,0.457708,0
23.4927,-6.99801,0.457786,0
23.5176,-6.93133,0.457923,0
23.5409,-6.86399,0.458109,0
23.5626,-6.79605,0.458353,0
23.5827,-6.72753,0.458636,0
23.6012,-6.65848,0.458997,0
23.618,-6.58893,0.459388,0
23.6332,-6.51893,0.459837,0
23.6466,-6.44853,0.460355,0
23.657,-6.37759,0.460404,0
23.6641,-6.30627,0.459984,0
23.6695,-6.23479,0.459603,0
23.673,-6.1632,0.459271,0
23.6748,-6.09156,0.458997,0
23.6749,-6.0199,0.458763,0
23.6734,-5.94827,0.458587,0
23.67,-5.87672,0.45846,0
23.6648,-5.80527,0.458372,0
23.658,-5.73401,0.458353,0
23.6532,-5.66251,0.459681,0
23.6505,-5.59057,0.462357,0
23.6461,-5.51858,0.465169,0
23.64,-5.44653,0.46806,0
23.6324,-5.37451,0.471077,0
23.6232,-5.30252,0.474193,0
23.6123,-5.23061,0.477405,0
23.5998,-5.15882,0.480745,0
23.5858,-5.08717,0.484163,0
23.5699,-5.01571,0.487698,0
23.5525,-4.9445,0.491341,0
23.5335,-4.87355,0.495081,0
23.5127,-4.80288,0.4989,0
23.4905,-4.7326,0.502835,0
23.4664,-4.66266,0.506849,0
23.4409,-4.59315,0.51097,0
23.4135,-4.52411,0.515179,0
23.3847,-4.45561,0.519495,0
20.5491,-9.19947,0.63929,0
20.621,-9.19368,0.633509,0
20.6926,-9.18637,0.627786,0
20.7639,-9.17753,0.622122,0
20.8349,-9.16718,0.616517,0
20.9055,-9.15532,0.61097,0
20.9759,-9.14197,0.605482,0
21.0458,-9.12715,0.600062,0
21.1152,-9.11085,0.59471,0
21.1843,-9.09311,0.589427,0
21.2528,-9.07391,0.584212,0
21.3209,-9.05328,0.579075,0
21.3884,-9.03126,0.574017,0
21.4554,-9.00781,0.569027,0
21.5218,-8.98298,0.564114,0
21.5876,-8.95677,0.55928,0
21.6527,-8.92921,0.554544,0
21.7172,-8.90029,0.549876,0
21.7809,-8.8698,0.545198,0
21.8438,-8.83764,0.540443,0
21.9057,-8.80415,0.535755,0
21.9669,-8.76938,0.531175,0
22.0273,-8.73333,0.526654,0
22.0869,-8.69604,0.522239,0
22.1456,-8.65753,0.517904,0
22.2034,-8.61778,0.513646,0
22.2603,-8.57687,0.509495,0
22.3162,-8.53475,0.505413,0
22.3713,-8.4915,0.501448,0
22.4253,-8.44712,0.497562,0
22.4784,-8.40162,0.493773,0
22.5303,-8.35505,0.490091,0
22.5813,-8.3074,0.486497,0
22.6313,-8.25872,0.483011,0
22.6802,-8.20899,0.479612,0
22.7279,-8.15829,0.476331,0
22.7745,-8.10662,0.473157,0
22.8201,-8.05398,0.470081,0
22.8645,-8.00041,0.467112,0
22.9077,-7.94592,0.464241,0
22.9507,-7.89129,0.461917,0
22.9963,-7.83833,0.461282,0
23.0405,-7.78426,0.460716,0
23.0836,-7.72907,0.460179,0
23.1255,-7.67282,0.45971,0
23.166,-7.61552,0.459271,0
23.2052,-7.55721,0.4589,0
23.2431,-7.49789,0.458568,0
23.2797,-7.4376,0.458275,0
23.3148,-7.37643,0.45807,0
23.3486,-7.31432,0.457884,0
23.3809,-7.25136,0.457757,0
23.4117,-7.18758,0.457689,0
23.4411,-7.123,0.457669,0
23.4689,-7.05767,0.457708,0
23.4952,-6.9916,0.457786,0
23.5199,-6.92486,0.457943,0
23.543,-6.85746,0.458128,0
23.5646,-6.78947,0.458382,0
23.5846,-6.72088,0.458665,0
23.6029,-6.6518,0.459036,0
23.6195,-6.58222,0.459437,0
23.6345,-6.51216,0.459876,0
23.6479,-6.44174,0.460413,0
23.6577,-6.37073,0.460364,0
23.6647,-6.29939,0.459954,0
23.6698,-6.22789,0.459573,0
23.6733,-6.1563,0.459251,0
23.6749,-6.08465,0.458968,0
23.6748,-6.01299,0.458753,0
23.6731,-5.94138,0.458577,0
23.6696,-5.86982,0.45845,0
23.6643,-5.79842,0.458382,0
23.6573,-5.72716,0.458353,0
23.653,-5.65558,0.459925,0
23.6501,-5.58363,0.46262,0
23.6455,-5.51163,0.465433,0
23.6395,-5.43959,0.468353,0
23.6316,-5.36757,0.47137,0
23.6223,-5.29559,0.474505,0
23.6112,-5.22368,0.477728,0
23.5986,-5.1519,0.481058,0
23.5842,-5.08027,0.484505,0
23.5684,-5.00885,0.48804,0
23.5508,-4.93765,0.491693,0
23.5316,-4.86671,0.495433,0
23.5106,-4.79609,0.499271,0
23.4882,-4.72581,0.503206,0
23.4641,-4.65595,0.507259,0
23.4383,-4.58648,0.51137,0
23.4109,-4.5175,0.515599,0
23.3818,-4.44901,0.519905,0
20.5561,-9.19898,0.638724,0
20.628,-9.19305,0.632952,0
20.6995,-9.18558,0.627239,0
20.7708,-9.17659,0.621575,0
20.8417,-9.16609,0.61597,0
20.9123,-9.15411,0.610443,0
20.9826,-9.14062,0.604964,0
21.0525,-9.12564,0.599544,0
21.122,-9.10921,0.594202,0
21.1909,-9.09132,0.588919,0
21.2595,-9.07198,0.583714,0
21.3275,-9.05123,0.578587,0
21.3948,-9.02905,0.573538,0
21.4618,-9.00548,0.568548,0
21.5282,-8.98051,0.563646,0
21.5938,-8.95417,0.558821,0
21.659,-8.92648,0.554095,0
21.7234,-8.89745,0.549437,0
21.787,-8.86679,0.544749,0
21.8497,-8.83446,0.539984,0
21.9116,-8.80086,0.535316,0
21.9728,-8.76596,0.530736,0
22.0331,-8.72979,0.526234,0
22.0926,-8.69239,0.52182,0
22.1512,-8.65375,0.517493,0
22.2089,-8.61391,0.513255,0
22.2657,-8.57284,0.509095,0
22.3216,-8.53063,0.505032,0
22.3766,-8.48728,0.501077,0
22.4305,-8.44279,0.4972,0
22.4834,-8.39718,0.493421,0
22.5353,-8.35051,0.489739,0
22.5863,-8.30277,0.486175,0
22.636,-8.25398,0.482689,0
22.6848,-8.20417,0.47931,0
22.7325,-8.15337,0.476029,0
22.779,-8.10158,0.472864,0
22.8245,-8.04886,0.469788,0
22.8687,-7.99519,0.46682,0
22.9119,-7.94063,0.463978,0
22.9552,-7.88622,0.461839,0
23.0005,-7.83315,0.461224,0
23.0447,-7.779,0.460667,0
23.0877,-7.72369,0.46013,0
23.1294,-7.66734,0.459652,0
23.1698,-7.60994,0.459241,0
23.2089,-7.55154,0.45887,0
23.2467,-7.49212,0.458538,0
23.2831,-7.43176,0.458255,0
23.3181,-7.37045,0.45803,0
23.3518,-7.30828,0.457864,0
23.3839,-7.24524,0.457738,0
23.4146,-7.1814,0.457689,0
23.4438,-7.11673,0.457669,0
23.4715,-7.05134,0.457718,0
23.4977,-6.98519,0.457796,0
23.5223,-6.91839,0.457952,0
23.5452,-6.85093,0.458148,0
23.5666,-6.78286,0.458392,0
23.5864,-6.71426,0.458704,0
23.6046,-6.64511,0.459066,0
23.6211,-6.57547,0.459476,0
23.6359,-6.5054,0.459945,0
23.6491,-6.4349,0.460443,0
23.6585,-6.36386,0.460335,0
23.6652,-6.29251,0.459915,0
23.6702,-6.22099,0.459534,0
23.6735,-6.14939,0.459212,0
23.675,-6.07776,0.458968,0
23.6748,-6.0061,0.458743,0
23.6728,-5.93446,0.458558,0
23.6691,-5.86293,0.458431,0
23.6637,-5.79151,0.458362,0
23.6566,-5.72029,0.458353,0
23.6528,-5.64863,0.460169,0
23.6497,-5.5767,0.462894,0
23.645,-5.50468,0.465706,0
23.6388,-5.43264,0.468626,0
23.6308,-5.36062,0.471663,0
23.6213,-5.28865,0.474808,0
23.61,-5.21676,0.47805,0
