42.0554,-33.2504,0.345306,0
42.2651,-33.1683,0.339857,0
42.4721,-33.0818,0.334505,0
42.6766,-32.991,0.329261,0
42.8746,-32.885,0.322689,0
43.0688,-32.7735,0.316029,0
43.2598,-32.6584,0.309515,0
43.4472,-32.5399,0.303148,0
43.6312,-32.4179,0.296937,0
43.8118,-32.2927,0.290872,0
43.9889,-32.1644,0.284964,0
44.1625,-32.0329,0.279212,0
44.3324,-31.8985,0.273616,0
44.4988,-31.7612,0.268167,0
44.6615,-31.6212,0.262884,0
44.8207,-31.4783,0.257747,0
44.9762,-31.3329,0.252767,0
45.1279,-31.185,0.247943,0
45.2734,-31.0312,0.242747,0
45.4142,-30.8741,0.237542,0
45.551,-30.7149,0.232484,0
45.6841,-30.5538,0.227611,0
45.8134,-30.391,0.222933,0
45.9388,-30.2264,0.218411,0
46.0605,-30.0602,0.214075,0
46.1784,-29.8924,0.209915,0
46.2924,-29.7232,0.205941,0
46.4027,-29.5525,0.202132,0
46.5093,-29.3804,0.198509,0
46.6121,-29.2071,0.195052,0
46.7112,-29.0325,0.191771,0
46.8065,-28.8568,0.188655,0
46.898,-28.68,0.185726,0
46.9928,-28.5066,0.183958,0
47.0855,-28.3328,0.182601,0
47.1748,-28.1578,0.181409,0
47.2607,-27.9815,0.180404,0
47.3432,-27.8039,0.179564,0
47.4222,-27.6252,0.17888,0
47.4977,-27.4453,0.178382,0
47.5698,-27.2644,0.17805,0
47.6384,-27.0824,0.177894,0
47.7009,-26.8983,0.177523,0
47.7595,-26.7132,0.177298,0
47.8148,-26.5275,0.177269,0
47.8668,-26.3411,0.177415,0
47.9158,-26.1541,0.177816,0
47.9642,-25.9672,0.178753,0
48.0083,-25.7792,0.17972,0
48.0449,-25.5897,0.180384,0
48.0782,-25.3998,0.181214,0
48.108,-25.2094,0.1822,0
48.1342,-25.0186,0.183372,0
48.157,-24.8274,0.18471,0
48.1763,-24.6359,0.186214,0
48.1922,-24.4441,0.187884,0
48.2045,-24.252,0.18973,0
48.2134,-24.0597,0.191741,0
48.2188,-23.8673,0.193929,0
48.2218,-23.6746,0.196419,0
48.2273,-23.4815,0.199818,0
39.2761,-33.2545,0.411185,0
39.4945,-33.2575,0.407718,0
39.7128,-33.2552,0.404271,0
39.9307,-33.2477,0.400853,0
40.1482,-33.2348,0.397464,0
40.3646,-33.2079,0.392894,0
40.5795,-33.1699,0.387571,0
40.7927,-33.1248,0.382034,0
41.0039,-33.0733,0.376341,0
41.2132,-33.0172,0.370736,0
41.4206,-32.9565,0.365228,0
41.6259,-32.8913,0.359798,0
41.8291,-32.8216,0.354456,0
42.0299,-32.7476,0.349202,0
42.2284,-32.6693,0.344056,0
42.4245,-32.5868,0.338987,0
42.6181,-32.5002,0.334027,0
42.807,-32.4033,0.328304,0
42.9912,-32.2976,0.321986,0
43.1722,-32.1885,0.315804,0
43.3501,-32.0761,0.309769,0
43.5247,-31.9604,0.30387,0
43.6961,-31.8416,0.298118,0
43.8642,-31.7197,0.292513,0
44.0289,-31.5948,0.287054,0
44.1903,-31.4671,0.281741,0
44.3484,-31.3366,0.276566,0
44.5029,-31.2033,0.271536,0
44.6541,-31.0675,0.266663,0
44.8017,-30.9291,0.261927,0
44.9459,-30.7883,0.257357,0
45.0866,-30.6451,0.252923,0
45.2227,-30.4982,0.248402,0
45.3529,-30.3466,0.243587,0
45.4795,-30.1931,0.238948,0
45.6027,-30.0379,0.234486,0
45.7221,-29.8811,0.230189,0
45.8379,-29.7225,0.226058,0
45.9502,-29.5625,0.222103,0
46.0588,-29.4009,0.218323,0
46.1638,-29.238,0.2147,0
46.2653,-29.0737,0.211243,0
46.3632,-28.9081,0.207962,0
46.4574,-28.7413,0.204837,0
46.5514,-28.5756,0.202415,0
46.6461,-28.4116,0.200804,0
46.7376,-28.2462,0.199378,0
46.8256,-28.0794,0.198118,0
46.9105,-27.9113,0.197025,0
46.9919,-27.742,0.196097,0
47.07,-27.5715,0.195325,0
47.1448,-27.3999,0.19472,0
47.2162,-27.2271,0.19429,0
47.2844,-27.0533,0.194027,0
47.3491,-26.8784,0.193919,0
47.4106,-26.7026,0.193988,0
47.4688,-26.5259,0.194212,0
47.5235,-26.3482,0.194593,0
47.5734,-26.1693,0.194945,0
47.6191,-25.9894,0.195345,0
47.6609,-25.8087,0.195833,0
47.6984,-25.6271,0.196351,0
47.7325,-25.4451,0.197034,0
47.7632,-25.2626,0.197894,0
47.7905,-25.0797,0.1989,0
47.8145,-24.8964,0.200091,0
47.835,-24.7128,0.201429,0
47.8522,-24.5288,0.202943,0
47.8661,-24.3446,0.204622,0
47.8765,-24.1601,0.206458,0
47.8836,-23.9754,0.20846,0
47.8873,-23.7906,0.210618,0
47.891,-23.6055,0.213421,0
47.8937,-23.4201,0.216693,0
35.677,-32.2676,0.455042,0
35.8683,-32.3739,0.453831,0
36.0623,-32.4756,0.452601,0
36.2588,-32.5727,0.451361,0
36.4599,-32.6599,0.449339,0
36.6636,-32.7412,0.447152,0
36.8692,-32.8176,0.444954,0
37.0768,-32.8889,0.442757,0
37.286,-32.9553,0.44057,0
37.4969,-33.0166,0.438372,0
37.7092,-33.0728,0.436175,0
37.9245,-33.1167,0.432991,0
38.1411,-33.1528,0.429456,0
38.3584,-33.1835,0.425911,0
38.5761,-33.209,0.422396,0
38.7943,-33.229,0.41888,0
39.0127,-33.2438,0.415384,0
39.2312,-33.2532,0.411898,0
39.4497,-33.2573,0.408431,0
39.668,-33.2561,0.404974,0
39.886,-33.2496,0.401556,0
40.1036,-33.2379,0.398148,0
40.3202,-33.215,0.393988,0
40.5355,-33.1781,0.388665,0
40.749,-33.1348,0.383216,0
40.9606,-33.0843,0.377513,0
41.1704,-33.0291,0.371888,0
41.3781,-32.9693,0.366351,0
41.5838,-32.905,0.360902,0
41.7874,-32.8363,0.35555,0
41.9888,-32.7631,0.350267,0
42.1878,-32.6857,0.345101,0
42.3844,-32.6041,0.340013,0
42.5785,-32.5183,0.335042,0
42.7688,-32.4246,0.329622,0
42.9537,-32.3197,0.323275,0
43.1352,-32.2112,0.317064,0
43.3138,-32.0995,0.310999,0
43.4891,-31.9844,0.305071,0
43.6612,-31.8662,0.29929,0
43.8299,-31.745,0.293655,0
43.9953,-31.6207,0.288157,0
44.1574,-31.4936,0.282816,0
44.3161,-31.3636,0.27762,0
44.4714,-31.2309,0.272562,0
44.6232,-31.0956,0.267659,0
44.7716,-30.9578,0.262894,0
44.9166,-30.8174,0.258294,0
45.058,-30.6747,0.253821,0
45.1954,-30.5291,0.249407,0
45.3264,-30.3779,0.244564,0
45.4538,-30.2248,0.239886,0
45.5777,-30.07,0.235394,0
45.6978,-29.9134,0.231058,0
45.8145,-29.7552,0.226898,0
45.9274,-29.5955,0.222904,0
46.0368,-29.4343,0.219075,0
46.1426,-29.2716,0.215423,0
46.2448,-29.1076,0.211937,0
46.3434,-28.9422,0.208626,0
46.4384,-28.7757,0.205472,0
46.5315,-28.6092,0.202757,0
46.627,-28.4454,0.201126,0
46.719,-28.2803,0.199661,0
46.8078,-28.1137,0.198362,0
46.8933,-27.946,0.19723,0
46.9755,-27.7769,0.196263,0
47.0542,-27.6066,0.195472,0
47.1297,-27.4352,0.194837,0
47.2019,-27.2627,0.194368,0
47.2707,-27.0891,0.194066,0
47.3362,-26.9145,0.193929,0
47.3983,-26.7388,0.193958,0
47.457,-26.5622,0.194144,0
47.5125,-26.3848,0.194495,0
47.5637,-26.2062,0.194886,0
47.6101,-26.0264,0.195247,0
47.6528,-25.8459,0.195745,0
47.6909,-25.6645,0.196234,0
47.7257,-25.4825,0.196878,0
47.7571,-25.3002,0.197698,0
47.7852,-25.1173,0.198685,0
47.8098,-24.9341,0.199837,0
47.8311,-24.7505,0.201146,0
47.849,-24.5666,0.20262,0
47.8635,-24.3825,0.204261,0
47.8747,-24.198,0.206068,0
47.8824,-24.0134,0.20803,0
47.8867,-23.8286,0.210159,0
47.8899,-23.6436,0.212747,0
47.8939,-23.4582,0.216077,0
35.8288,-32.3524,0.454085,0
36.0222,-32.4551,0.452864,0
36.2182,-32.5531,0.451614,0
36.4184,-32.6426,0.449788,0
36.6216,-32.7249,0.447601,0
36.8269,-32.8023,0.445413,0
37.034,-32.8747,0.443216,0
37.2429,-32.9421,0.441019,0
37.4534,-33.0045,0.438821,0
37.6655,-33.0617,0.436634,0
37.8801,-33.1087,0.433714,0
38.0966,-33.1458,0.430169,0
38.3137,-33.1777,0.426644,0
38.5313,-33.2042,0.423118,0
38.7495,-33.2253,0.419603,0
38.9678,-33.2412,0.416097,0
39.1863,-33.2517,0.412611,0
39.4048,-33.2569,0.409144,0
39.6231,-33.2568,0.405687,0
39.8412,-33.2514,0.402259,0
40.0589,-33.2407,0.398841,0
40.2759,-33.222,0.395091,0
40.4913,-33.1861,0.389749,0
40.7052,-33.1446,0.384398,0
40.9173,-33.095,0.378665,0
41.1274,-33.0408,0.37303,0
41.3355,-32.982,0.367484,0
41.5418,-32.9186,0.362015,0
41.7458,-32.8508,0.356634,0
41.9477,-32.7785,0.351351,0
42.1471,-32.702,0.346155,0
42.3442,-32.6212,0.341058,0
42.5389,-32.5363,0.336058,0
42.7305,-32.4457,0.330941,0
42.9159,-32.3415,0.324573,0
43.0983,-32.2338,0.318333,0
43.2774,-32.1227,0.31223,0
43.4534,-32.0083,0.306282,0
43.626,-31.8908,0.300472,0
43.7955,-31.7701,0.294808,0
43.9616,-31.6465,0.28928,0
44.1244,-31.5199,0.2839,0
44.2837,-31.3906,0.278665,0
44.4398,-31.2584,0.273587,0
44.5923,-31.1237,0.268655,0
44.7414,-30.9863,0.263861,0
44.887,-30.8465,0.259222,0
45.0292,-30.7042,0.25473,0
45.1678,-30.5597,0.250384,0
45.2998,-30.4091,0.24555,0
45.428,-30.2564,0.240833,0
45.5526,-30.1019,0.236302,0
45.6735,-29.9457,0.231937,0
45.7908,-29.7879,0.227738,0
45.9045,-29.6285,0.223714,0
46.0146,-29.4675,0.219857,0
46.1211,-29.3051,0.216165,0
46.2241,-29.1414,0.21264,0
46.3234,-28.9763,0.20929,0
46.4191,-28.81,0.206107,0
46.5115,-28.6426,0.203109,0
46.6076,-28.4792,0.201439,0
46.7004,-28.3143,0.199945,0
46.7898,-28.1481,0.198607,0
46.876,-27.9806,0.197454,0
46.9587,-27.8117,0.196448,0
47.0383,-27.6417,0.195618,0
47.1145,-27.4705,0.194954,0
47.1873,-27.2982,0.194456,0
47.2568,-27.1248,0.194114,0
47.323,-26.9504,0.193948,0
47.3858,-26.775,0.193939,0
47.4453,-26.5986,0.194095,0
47.5014,-26.4213,0.194407,0
47.5537,-26.243,0.194837,0
47.6009,-26.0634,0.195169,0
47.6445,-25.8831,0.195648,0
47.6834,-25.7018,0.196116,0
47.7188,-25.52,0.196732,0
47.7509,-25.3377,0.197523,0
47.7797,-25.1549,0.19847,0
47.805,-24.9718,0.199573,0
47.827,-24.7883,0.200862,0
47.8455,-24.6044,0.202308,0
47.8608,-24.4203,0.203909,0
47.8727,-24.2359,0.205677,0
47.8811,-24.0513,0.20762,0
47.8862,-23.8666,0.20971,0
47.8887,-23.6816,0.212083,0
47.8934,-23.4963,0.215384,0
39.308,-32.7797,0.412181,0
39.5154,-32.783,0.40889,0
39.7227,-32.7813,0.405618,0
39.9295,-32.7746,0.402366,0
40.1362,-32.7629,0.399134,0
40.3418,-32.7392,0.394945,0
40.5459,-32.7043,0.389896,0
40.7487,-32.6647,0.384896,0
40.9501,-32.6204,0.379935,0
41.1498,-32.5714,0.375042,0
41.3477,-32.5171,0.370081,0
41.5433,-32.4562,0.364886,0
41.7369,-32.3912,0.359798,0
41.9284,-32.322,0.354778,0
42.1178,-32.2486,0.349857,0
42.3048,-32.1713,0.345032,0
42.4897,-32.0899,0.340286,0
42.672,-32.0047,0.335628,0
42.8488,-31.9074,0.329857,0
43.0221,-31.8049,0.323919,0
43.1924,-31.6992,0.318138,0
43.3597,-31.5903,0.312474,0
43.5239,-31.4783,0.306946,0
43.6851,-31.3633,0.301566,0
43.8431,-31.2454,0.296312,0
43.9979,-31.1247,0.291204,0
44.1496,-31.0013,0.286224,0
44.298,-30.8753,0.28139,0
44.4431,-30.7467,0.276702,0
44.585,-30.6155,0.272142,0
44.7236,-30.482,0.267728,0
44.8589,-30.3462,0.26345,0
44.9908,-30.2081,0.259329,0
45.1194,-30.0679,0.255335,0
45.2429,-29.9236,0.251136,0
45.3616,-29.776,0.24681,0
45.477,-29.6267,0.24265,0
45.5888,-29.4757,0.238646,0
45.6973,-29.3232,0.234818,0
45.8022,-29.1693,0.231136,0
45.9037,-29.0139,0.22764,0
46.0019,-28.8571,0.22428,0
46.0965,-28.699,0.221087,0
46.1921,-28.5431,0.218821,0
46.2869,-28.3873,0.217093,0
46.3782,-28.2302,0.21554,0
46.4665,-28.0716,0.214134,0
46.5516,-27.9117,0.212904,0
46.6334,-27.7506,0.21182,0
46.7121,-27.5882,0.210911,0
46.7875,-27.4247,0.210159,0
46.8597,-27.26,0.209564,0
46.9287,-27.0942,0.209134,0
46.9945,-26.9273,0.208851,0
47.0569,-26.7594,0.208724,0
47.1144,-26.5899,0.208509,0
47.1685,-26.4196,0.208431,0
47.2194,-26.2484,0.208509,0
47.2669,-26.0765,0.208734,0
47.3109,-25.9038,0.209105,0
47.3516,-25.7305,0.209613,0
47.3891,-25.5565,0.210286,0
47.4231,-25.382,0.211087,0
47.4538,-25.2069,0.212044,0
47.481,-25.0314,0.213148,0
47.5049,-24.8554,0.214388,0
47.5255,-24.679,0.215775,0
47.5427,-24.5023,0.217308,0
47.5563,-24.3253,0.218987,0
47.5667,-24.148,0.220794,0
47.5736,-23.9705,0.222757,0
47.5772,-23.7929,0.224857,0
47.5789,-23.6151,0.227327,0
47.5787,-23.437,0.23015,0
35.8909,-31.8421,0.453695,0
36.0727,-31.9425,0.452532,0
36.2571,-32.0385,0.45137,0
36.4439,-32.1302,0.450189,0
36.6331,-32.2174,0.448987,0
36.8264,-32.295,0.447015,0
37.0217,-32.3674,0.444935,0
37.2189,-32.435,0.442845,0
37.4177,-32.4979,0.440765,0
37.618,-32.556,0.438675,0
37.8204,-32.6069,0.436243,0
38.0252,-32.6465,0.432884,0
38.2306,-32.6811,0.429525,0
38.4369,-32.7107,0.426175,0
38.6435,-32.7352,0.422835,0
38.8506,-32.7546,0.419495,0
39.0579,-32.7691,0.416165,0
39.2654,-32.7784,0.412855,0
39.4728,-32.7828,0.409564,0
39.6801,-32.7821,0.406292,0
39.8871,-32.7764,0.40303,0
40.0937,-32.7657,0.399798,0
40.2997,-32.7458,0.395989,0
40.5041,-32.7119,0.390931,0
40.7072,-32.6732,0.385921,0
40.9088,-32.6299,0.38096,0
41.1089,-32.5819,0.376048,0
41.3072,-32.529,0.371155,0
41.5032,-32.4691,0.36596,0
41.6973,-32.4049,0.360843,0
41.8893,-32.3365,0.355804,0
42.0791,-32.264,0.350863,0
42.2666,-32.1875,0.346009,0
42.4519,-32.1069,0.341243,0
42.6347,-32.0225,0.336575,0
42.8129,-31.9281,0.331087,0
42.9867,-31.8263,0.32513,0
43.1577,-31.7212,0.31931,0
43.3255,-31.6129,0.313626,0
43.4905,-31.5015,0.30807,0
43.6522,-31.3872,0.302659,0
43.8109,-31.2699,0.297386,0
43.9663,-31.1498,0.292239,0
44.1187,-31.0269,0.28723,0
44.2677,-30.9014,0.282376,0
44.4135,-30.7733,0.27765,0
44.5561,-30.6427,0.27307,0
44.6954,-30.5097,0.268626,0
44.8314,-30.3743,0.26432,0
44.9639,-30.2367,0.260159,0
45.0932,-30.0968,0.256146,0
45.2181,-29.9537,0.252044,0
45.3375,-29.8065,0.247689,0
45.4536,-29.6575,0.243489,0
45.5661,-29.5069,0.239466,0
45.6752,-29.3547,0.235589,0
45.7809,-29.201,0.231878,0
45.8832,-29.0459,0.228343,0
45.982,-28.8894,0.224954,0
46.0773,-28.7316,0.221732,0
46.1723,-28.5749,0.219202,0
46.2676,-28.4195,0.217445,0
46.3598,-28.2626,0.215843,0
46.4487,-28.1043,0.214407,0
46.5344,-27.9447,0.213138,0
46.6169,-27.7838,0.212034,0
46.6962,-27.6217,0.211077,0
46.7723,-27.4584,0.210296,0
46.8452,-27.2939,0.209661,0
46.9148,-27.1283,0.209202,0
46.9813,-26.9617,0.2089,0
47.0445,-26.794,0.208753,0
47.1029,-26.6248,0.208529,0
47.1577,-26.4546,0.208441,0
47.2091,-26.2836,0.20848,0
47.2573,-26.1118,0.208665,0
47.3021,-25.9393,0.209007,0
47.3436,-25.7661,0.209495,0
47.3816,-25.5923,0.21013,0
47.4163,-25.4179,0.210911,0
47.4477,-25.243,0.211839,0
47.4757,-25.0675,0.212904,0
47.5003,-24.8916,0.214114,0
47.5216,-24.7153,0.215472,0
47.5393,-24.5386,0.216976,0
47.5538,-24.3617,0.218626,0
47.5648,-24.1845,0.220413,0
47.5725,-24.007,0.222337,0
47.5767,-23.8294,0.224417,0
47.5785,-23.6516,0.226761,0
47.579,-23.4736,0.229554,0
36.0352,-31.9222,0.452777,0
36.2189,-32.0191,0.451605,0
36.4053,-32.1117,0.450433,0
36.5941,-32.1998,0.449241,0
36.7864,-32.2796,0.447445,0
36.9815,-32.3529,0.445364,0
37.1783,-32.4215,0.443275,0
37.3767,-32.4854,0.441185,0
37.5767,-32.5445,0.439105,0
37.7784,-32.5981,0.436937,0
37.983,-32.6388,0.433577,0
38.1884,-32.6744,0.430218,0
38.3945,-32.705,0.426868,0
38.6011,-32.7306,0.423519,0
38.808,-32.7511,0.420179,0
39.0153,-32.7665,0.416849,0
39.2227,-32.7769,0.413538,0
39.4302,-32.7823,0.410237,0
39.6375,-32.7826,0.406966,0
39.8446,-32.778,0.403695,0
40.0513,-32.7683,0.400462,0
40.2575,-32.7522,0.397044,0
40.4622,-32.7193,0.391976,0
40.6655,-32.6816,0.386946,0
40.8675,-32.6391,0.381976,0
41.0679,-32.5921,0.377054,0
41.2666,-32.5405,0.372181,0
41.463,-32.4818,0.367025,0
41.6576,-32.4184,0.361888,0
41.85,-32.3509,0.356829,0
42.0402,-32.2792,0.351868,0
42.2283,-32.2035,0.346995,0
42.4141,-32.1238,0.34221,0
42.5973,-32.0402,0.337523,0
42.7768,-31.9486,0.332327,0
42.9513,-31.8475,0.326351,0
43.1228,-31.743,0.320501,0
43.2913,-31.6354,0.314779,0
43.4568,-31.5247,0.309212,0
43.6192,-31.4109,0.303753,0
43.7784,-31.2942,0.29845,0
43.9346,-31.1747,0.293284,0
44.0876,-31.0524,0.288255,0
44.2373,-30.9274,0.283363,0
44.3838,-30.7998,0.278607,0
44.5271,-30.6697,0.273997,0
44.667,-30.5372,0.269525,0
44.8037,-30.4023,0.265198,0
44.937,-30.2651,0.260999,0
45.067,-30.1257,0.256956,0
45.1931,-29.9838,0.252962,0
45.3133,-29.8369,0.248568,0
45.43,-29.6882,0.244339,0
45.5433,-29.538,0.240277,0
45.6531,-29.3861,0.23637,0
45.7595,-29.2327,0.23263,0
45.8624,-29.0779,0.229056,0
45.962,-28.9217,0.225638,0
46.058,-28.7642,0.222376,0
46.1523,-28.6067,0.219583,0
46.2483,-28.4515,0.217786,0
46.341,-28.2949,0.216155,0
46.4306,-28.137,0.2147,0
46.517,-27.9776,0.213392,0
46.6002,-27.817,0.212249,0
46.6801,-27.6551,0.211263,0
46.7569,-27.492,0.210443,0
46.8305,-27.3278,0.209788,0
46.9007,-27.1624,0.20929,0
46.9678,-26.996,0.208948,0
47.0316,-26.8286,0.208763,0
47.0912,-26.6597,0.208577,0
47.1466,-26.4897,0.208441,0
47.1988,-26.3188,0.20846,0
47.2477,-26.1472,0.208626,0
47.2932,-25.9749,0.208939,0
47.3354,-25.8018,0.209398,0
47.3741,-25.6281,0.209993,0
47.4095,-25.4538,0.210745,0
47.4416,-25.279,0.211634,0
47.4702,-25.1036,0.212679,0
47.4955,-24.9278,0.213861,0
47.5174,-24.7516,0.215189,0
47.536,-24.575,0.216663,0
47.5511,-24.3981,0.218284,0
47.5628,-24.2209,0.220032,0
47.5712,-24.0435,0.221937,0
47.5761,-23.8659,0.223978,0
47.578,-23.6882,0.226204,0
47.5792,-23.5102,0.228968,0
39.3369,-32.3497,0.413079,0
39.5344,-32.3532,0.409954,0
39.7316,-32.352,0.406839,0
39.9286,-32.346,0.403743,0
40.1252,-32.3352,0.400657,0
40.321,-32.3144,0.39682,0
40.5155,-32.2822,0.391995,0
40.7087,-32.2455,0.38723,0
40.9007,-32.2043,0.382513,0
41.091,-32.1587,0.377835,0
41.2798,-32.1087,0.373216,0
41.467,-32.0544,0.368655,0
41.6523,-31.996,0.364144,0
41.8358,-31.9333,0.35971,0
42.017,-31.8655,0.35515,0
42.1959,-31.7926,0.350521,0
42.3726,-31.716,0.34598,0
42.547,-31.6357,0.341517,0
42.7188,-31.551,0.337044,0
42.8849,-31.4543,0.331341,0
43.0483,-31.3545,0.325784,0
43.2087,-31.2517,0.320335,0
43.3664,-31.1459,0.315032,0
43.5212,-31.0371,0.309847,0
43.6729,-30.9255,0.304798,0
43.8216,-30.8112,0.299876,0
43.9674,-30.6942,0.295081,0
44.1102,-30.5746,0.290413,0
44.2498,-30.4525,0.285892,0
44.3862,-30.328,0.281497,0
44.5197,-30.2011,0.277249,0
44.6499,-30.0719,0.273118,0
44.777,-29.9405,0.269134,0
44.9009,-29.807,0.265277,0
45.0215,-29.6714,0.261556,0
45.1388,-29.5338,0.257962,0
45.2512,-29.3924,0.254124,0
45.3593,-29.2483,0.250247,0
45.4641,-29.1028,0.246527,0
45.5657,-28.9557,0.242972,0
45.6639,-28.8072,0.239564,0
45.7588,-28.6574,0.236302,0
45.856,-28.5105,0.234222,0
45.9505,-28.3625,0.232376,0
46.042,-28.2131,0.230687,0
46.1303,-28.0623,0.229163,0
46.2156,-27.9101,0.227796,0
46.2978,-27.7566,0.226585,0
46.377,-27.6018,0.225521,0
46.453,-27.4458,0.224632,0
46.5258,-27.2886,0.22387,0
46.5942,-27.1297,0.22306,0
46.6595,-26.9697,0.222405,0
46.7215,-26.8087,0.221888,0
46.7803,-26.6468,0.221517,0
46.8359,-26.484,0.221292,0
46.8882,-26.3203,0.221214,0
46.9373,-26.1558,0.221273,0
46.9832,-25.9906,0.221487,0
47.0258,-25.8246,0.221829,0
47.0652,-25.658,0.222318,0
47.1012,-25.4908,0.222943,0
47.1341,-25.323,0.223724,0
47.1637,-25.1547,0.224632,0
47.19,-24.9859,0.225677,0
47.213,-24.8167,0.226878,0
47.2328,-24.6471,0.228206,0
47.2493,-24.4772,0.229671,0
47.2625,-24.307,0.231292,0
47.2724,-24.1365,0.23304,0
47.279,-23.9658,0.234925,0
47.2823,-23.795,0.236946,0
47.2837,-23.6241,0.23932,0
47.2832,-23.4529,0.242044,0
36.0847,-31.4566,0.452454,0
36.2578,-31.5518,0.45137,0
36.4335,-31.6428,0.450257,0
36.6115,-31.7296,0.449134,0
36.7917,-31.8121,0.447991,0
36.9741,-31.8903,0.446839,0
37.16,-31.9594,0.444915,0
37.3477,-32.0237,0.442923,0
37.5371,-32.0834,0.440941,0
37.7278,-32.1386,0.438958,0
37.9214,-32.1829,0.435989,0
38.1162,-32.2209,0.432796,0
38.3118,-32.2541,0.429593,0
38.508,-32.2825,0.4264,0
38.7046,-32.3062,0.423216,0
38.9016,-32.325,0.420032,0
39.0989,-32.3391,0.416878,0
39.2963,-32.3484,0.413724,0
39.4937,-32.3529,0.410589,0
39.691,-32.3526,0.407474,0
39.8881,-32.3476,0.404368,0
40.0848,-32.3378,0.401292,0
40.2809,-32.3205,0.397816,0
40.4756,-32.2892,0.392991,0
40.6692,-32.2534,0.388206,0
40.8613,-32.2131,0.38347,0
41.052,-32.1684,0.378782,0
41.2412,-32.1193,0.374154,0
41.4287,-32.0659,0.369583,0
41.6144,-32.0083,0.365071,0
41.7983,-31.9465,0.360609,0
41.98,-31.8799,0.356107,0
42.1593,-31.8079,0.351468,0
42.3364,-31.7321,0.346907,0
42.5112,-31.6525,0.342435,0
42.6839,-31.5692,0.33804,0
42.851,-31.4745,0.332513,0
43.0149,-31.3753,0.326917,0
43.1761,-31.2731,0.321458,0
43.3343,-31.1678,0.316116,0
43.4895,-31.0597,0.310902,0
43.642,-30.9487,0.305823,0
43.7914,-30.8349,0.300872,0
43.9377,-30.7184,0.296048,0
44.081,-30.5994,0.29137,0
44.2213,-30.4778,0.28682,0
44.3585,-30.3538,0.282396,0
44.4926,-30.2273,0.278099,0
44.6234,-30.0986,0.273958,0
44.7511,-29.9677,0.269935,0
44.8756,-29.8346,0.266058,0
44.997,-29.6994,0.262308,0
45.115,-29.5623,0.258695,0
45.2286,-29.4218,0.254945,0
45.3373,-29.2781,0.251038,0
45.4428,-29.1328,0.247279,0
45.5451,-28.9861,0.243695,0
45.6439,-28.8378,0.240238,0
45.7396,-28.6882,0.236956,0
45.8362,-28.5408,0.234622,0
45.9313,-28.3931,0.232747,0
46.0234,-28.2439,0.231019,0
46.1124,-28.0934,0.229466,0
46.1984,-27.9415,0.22806,0
46.2812,-27.7882,0.22682,0
46.3609,-27.6337,0.225736,0
46.4377,-27.478,0.224808,0
46.5112,-27.3211,0.224027,0
46.5804,-27.1624,0.223216,0
46.6463,-27.0026,0.222523,0
46.709,-26.8419,0.221976,0
46.7684,-26.6801,0.221585,0
46.8247,-26.5175,0.221331,0
46.8777,-26.354,0.221214,0
46.9275,-26.1897,0.221253,0
46.974,-26.0246,0.221419,0
47.0173,-25.8588,0.221741,0
47.0573,-25.6923,0.2222,0
47.0941,-25.5252,0.222796,0
47.1277,-25.3576,0.223548,0
47.1579,-25.1894,0.224437,0
47.1849,-25.0207,0.225452,0
47.2086,-24.8515,0.226614,0
47.229,-24.682,0.227923,0
47.2462,-24.5122,0.229368,0
47.2601,-24.342,0.23095,0
47.2706,-24.1716,0.232669,0
47.2779,-24.0009,0.234525,0
47.282,-23.8301,0.236527,0
47.2834,-23.6592,0.238773,0
47.2836,-23.4881,0.241468,0
36.222,-31.5326,0.451595,0
36.3972,-31.6244,0.450482,0
36.5748,-31.7121,0.449359,0
36.7545,-31.7955,0.448226,0
36.9364,-31.8746,0.447073,0
37.1216,-31.9457,0.445316,0
37.309,-32.0108,0.443333,0
37.498,-32.0715,0.441351,0
37.6885,-32.1276,0.439368,0
37.8814,-32.1745,0.436644,0
38.0761,-32.2134,0.43345,0
38.2716,-32.2477,0.430247,0
38.4676,-32.2771,0.427054,0
38.6642,-32.3017,0.42387,0
38.8611,-32.3216,0.420696,0
39.0584,-32.3366,0.417523,0
39.2558,-32.3469,0.414378,0
39.4532,-32.3524,0.411234,0
39.6505,-32.3531,0.408118,0
39.8476,-32.349,0.405003,0
40.0445,-32.3402,0.401927,0
40.2407,-32.3263,0.398812,0
40.4358,-32.296,0.393978,0
40.6295,-32.2611,0.389183,0
40.822,-32.2217,0.384437,0
41.013,-32.1779,0.379749,0
41.2024,-32.1298,0.375111,0
41.3902,-32.0773,0.370521,0
41.5764,-32.0205,0.365989,0
41.7605,-31.9596,0.361517,0
41.9429,-31.8942,0.357073,0
42.1227,-31.823,0.352415,0
42.3002,-31.748,0.347835,0
42.4755,-31.6691,0.343343,0
42.6486,-31.5866,0.338939,0
42.817,-31.4944,0.333675,0
42.9815,-31.3959,0.32805,0
43.1432,-31.2943,0.322562,0
43.302,-31.1897,0.317191,0
43.4579,-31.0821,0.311966,0
43.6109,-30.9717,0.306859,0
43.7609,-30.8585,0.301878,0
43.9079,-30.7426,0.297034,0
44.0519,-30.6241,0.292318,0
44.1928,-30.503,0.287737,0
44.3305,-30.3795,0.283294,0
44.4652,-30.2535,0.278978,0
44.5967,-30.1253,0.274798,0
44.7252,-29.9948,0.270745,0
44.8503,-29.8621,0.266839,0
44.9723,-29.7274,0.26307,0
45.091,-29.5906,0.259417,0
45.2058,-29.4511,0.255765,0
45.3153,-29.3077,0.251829,0
45.4214,-29.1628,0.24804,0
45.5244,-29.0163,0.244417,0
45.6239,-28.8684,0.240941,0
45.7202,-28.7191,0.23762,0
45.8162,-28.5709,0.235032,0
45.912,-28.4236,0.233118,0
46.0047,-28.2747,0.23137,0
46.0944,-28.1245,0.229779,0
46.181,-27.9728,0.228333,0
46.2645,-27.8198,0.227064,0
46.3448,-27.6656,0.225941,0
46.4221,-27.5101,0.224984,0
46.4963,-27.3534,0.224173,0
46.5665,-27.1951,0.223382,0
46.633,-27.0356,0.222659,0
46.6964,-26.875,0.222083,0
46.7565,-26.7135,0.221654,0
46.8134,-26.551,0.22137,0
46.8671,-26.3877,0.221224,0
46.9175,-26.2235,0.221234,0
46.9647,-26.0586,0.22138,0
47.0087,-25.8929,0.221673,0
47.0494,-25.7266,0.222093,0
47.0868,-25.5596,0.222669,0
47.121,-25.3921,0.223382,0
47.152,-25.224,0.224241,0
47.1796,-25.0554,0.225238,0
47.204,-24.8863,0.22637,0
47.2251,-24.7169,0.22764,0
47.243,-24.5471,0.229056,0
47.2575,-24.377,0.230618,0
47.2687,-24.2066,0.232308,0
47.2767,-24.036,0.234134,0
47.2813,-23.8653,0.236107,0
47.2829,-23.6944,0.238236,0
47.2838,-23.5233,0.240902,0
39.3632,-31.9584,0.413909,0
39.5516,-31.962,0.410921,0
39.7397,-31.9612,0.407943,0
39.9276,-31.9558,0.404984,0
40.1152,-31.9459,0.402044,0
40.3022,-31.9275,0.398519,0
40.4879,-31.8976,0.393919,0
40.6723,-31.8635,0.389359,0
40.8556,-31.825,0.384847,0
41.0375,-31.7824,0.380384,0
41.2179,-31.7355,0.37596,0
41.3967,-31.6846,0.371595,0
41.5739,-31.6296,0.367288,0
41.7493,-31.5707,0.36304,0
41.9229,-31.5078,0.358841,0
42.0947,-31.441,0.35471,0
42.2643,-31.3705,0.350648,0
42.432,-31.2962,0.346644,0
42.5974,-31.2182,0.342698,0
42.7591,-31.1326,0.338157,0
42.916,-31.0382,0.332806,0
43.0702,-30.9408,0.327571,0
43.2217,-30.8405,0.322454,0
43.3705,-30.7374,0.317464,0
43.5166,-30.6315,0.312581,0
43.6597,-30.5229,0.307845,0
43.8,-30.4117,0.303226,0
43.9373,-30.298,0.298734,0
44.0719,-30.1818,0.294359,0
44.2034,-30.0633,0.290111,0
44.3319,-29.9424,0.286009,0
44.4574,-29.8193,0.282025,0
44.5799,-29.694,0.278157,0
44.6995,-29.5666,0.274427,0
44.8159,-29.4372,0.270833,0
44.9291,-29.3058,0.267366,0
45.0393,-29.1725,0.264027,0
45.1465,-29.0375,0.260823,0
45.2486,-28.8989,0.257357,0
45.3469,-28.7582,0.2539,0
45.4431,-28.617,0.250814,0
45.5405,-28.4779,0.248704,0
45.6348,-28.3372,0.246751,0
45.7262,-28.195,0.244954,0
45.8147,-28.0514,0.243304,0
45.9,-27.9063,0.241771,0
45.9816,-27.7594,0.240277,0
46.0602,-27.6112,0.238919,0
46.1358,-27.4618,0.237708,0
46.2081,-27.3113,0.236634,0
46.2775,-27.1595,0.235696,0
46.3437,-27.0067,0.234915,0
46.4068,-26.8529,0.234271,0
46.4668,-26.6981,0.233753,0
46.5238,-26.5423,0.233382,0
46.5775,-26.3857,0.233157,0
46.6281,-26.2282,0.23307,0
46.6756,-26.0699,0.233118,0
46.72,-25.9109,0.233304,0
46.7612,-25.7512,0.233636,0
46.7993,-25.5908,0.234095,0
46.8342,-25.4299,0.234691,0
46.8659,-25.2683,0.235433,0
46.8945,-25.1063,0.236302,0
46.9199,-24.9438,0.237318,0
46.9422,-24.7808,0.23846,0
46.9613,-24.6176,0.239749,0
46.9771,-24.4539,0.241165,0
46.9898,-24.29,0.242708,0
46.9992,-24.1258,0.244398,0
47.0056,-23.9615,0.246224,0
47.0087,-23.797,0.248177,0
47.0098,-23.6324,0.250443,0
47.0091,-23.4676,0.253079,0
36.2608,-31.1061,0.45138,0
36.4263,-31.1963,0.450296,0
36.594,-31.2827,0.449241,0
36.7639,-31.3651,0.448157,0
36.9359,-31.4435,0.447083,0
37.11,-31.5177,0.44598,0
37.2859,-31.5878,0.444866,0
37.4651,-31.6491,0.443001,0
37.6457,-31.706,0.441107,0
37.8284,-31.7561,0.438802,0
38.0134,-31.7972,0.435755,0
38.1991,-31.8336,0.432698,0
38.3856,-31.8656,0.429661,0
38.5727,-31.893,0.426614,0
38.7602,-31.9159,0.423577,0
38.948,-31.9341,0.42054,0
39.1362,-31.9479,0.417523,0
39.3245,-31.957,0.414525,0
39.5128,-31.9616,0.411527,0
39.701,-31.9617,0.408558,0
39.889,-31.9573,0.405589,0
40.0767,-31.9483,0.40265,0
40.2639,-31.9331,0.399476,0
40.4498,-31.9041,0.394866,0
40.6346,-31.8708,0.390296,0
40.818,-31.8333,0.385765,0
41.0002,-31.7915,0.381292,0
41.1809,-31.7455,0.376868,0
41.3601,-31.6954,0.372503,0
41.5377,-31.6413,0.368167,0
41.7134,-31.5831,0.363909,0
41.8874,-31.521,0.35971,0
42.0595,-31.4551,0.35556,0
42.2296,-31.3853,0.351478,0
42.3977,-31.3118,0.347454,0
42.5635,-31.2346,0.343509,0
42.7265,-31.1516,0.339271,0
42.884,-31.0579,0.33389,0
43.0387,-30.9611,0.328636,0
43.1909,-30.8614,0.323499,0
43.3402,-30.7588,0.31848,0
43.4868,-30.6535,0.313577,0
43.6305,-30.5454,0.308802,0
43.7714,-30.4348,0.304163,0
43.9094,-30.3216,0.299642,0
44.0445,-30.2059,0.295247,0
44.1766,-30.0878,0.29098,0
44.3057,-29.9674,0.286839,0
44.4319,-29.8447,0.282835,0
44.5551,-29.7199,0.278939,0
44.6751,-29.5929,0.275189,0
44.7922,-29.464,0.271566,0
44.9061,-29.333,0.26807,0
45.017,-29.2001,0.2647,0
45.1247,-29.0654,0.261478,0
45.228,-28.9277,0.258099,0
45.327,-28.7872,0.254603,0
45.4228,-28.6454,0.251273,0
45.5207,-28.5066,0.249124,0
45.6156,-28.3662,0.247142,0
45.7077,-28.2244,0.245316,0
45.7968,-28.0811,0.243636,0
45.8829,-27.9363,0.242103,0
45.9652,-27.7897,0.240579,0
46.0443,-27.6418,0.239183,0
46.1205,-27.4926,0.237943,0
46.1935,-27.3423,0.236839,0
46.2634,-27.1908,0.235882,0
46.3303,-27.0382,0.235062,0
46.3941,-26.8846,0.234388,0
46.4548,-26.73,0.233851,0
46.5123,-26.5744,0.23345,0
46.5667,-26.418,0.233196,0
46.618,-26.2606,0.23307,0
46.6662,-26.1025,0.233099,0
46.7112,-25.9437,0.233255,0
46.753,-25.7841,0.233558,0
46.7917,-25.6238,0.233987,0
46.8273,-25.463,0.234564,0
46.8597,-25.3016,0.235267,0
46.8889,-25.1396,0.236116,0
46.915,-24.9772,0.237103,0
46.9379,-24.8144,0.238226,0
46.9576,-24.6511,0.239466,0
46.9741,-24.4876,0.240872,0
46.9874,-24.3237,0.242386,0
46.9976,-24.1596,0.244046,0
47.0045,-23.9953,0.245843,0
47.0083,-23.8308,0.247757,0
47.0095,-23.6663,0.249925,0
47.0095,-23.5015,0.252523,0
36.3921,-31.178,0.450521,0
36.5594,-31.2653,0.449466,0
36.7288,-31.3485,0.448392,0
36.9005,-31.4277,0.447298,0
37.0741,-31.5028,0.446204,0
37.2496,-31.5737,0.445091,0
37.4281,-31.6369,0.443382,0
37.6085,-31.6947,0.441497,0
37.7905,-31.7471,0.439437,0
37.9753,-31.7891,0.43638,0
38.1609,-31.8265,0.433333,0
38.3472,-31.8594,0.430277,0
38.5341,-31.8877,0.427239,0
38.7216,-31.9115,0.424193,0
38.9095,-31.9308,0.421165,0
39.0976,-31.9454,0.418148,0
39.2859,-31.9555,0.41514,0
39.4741,-31.9611,0.412142,0
39.6623,-31.9621,0.409163,0
39.8504,-31.9586,0.406204,0
40.0382,-31.9505,0.403255,0
40.2255,-31.9379,0.400325,0
40.4117,-31.9104,0.395804,0
40.5966,-31.878,0.391234,0
40.7805,-31.8413,0.386693,0
40.9629,-31.8004,0.38221,0
41.1439,-31.7553,0.377767,0
41.3234,-31.706,0.373392,0
41.5012,-31.6527,0.369056,0
41.6774,-31.5954,0.364779,0
41.8518,-31.5341,0.36057,0
42.0243,-31.4689,0.356409,0
42.1948,-31.3999,0.352308,0
42.3633,-31.3272,0.348275,0
42.5297,-31.2507,0.34431,0
42.6935,-31.1699,0.340296,0
42.8518,-31.0774,0.334993,0
43.0072,-30.9812,0.3297,0
43.1598,-30.8821,0.324534,0
43.3098,-30.7801,0.319495,0
43.4568,-30.6754,0.314573,0
43.6012,-30.5679,0.309779,0
43.7427,-30.4578,0.305111,0
43.8812,-30.3451,0.30056,0
44.0169,-30.2299,0.296136,0
44.1497,-30.1123,0.291849,0
44.2794,-29.9923,0.287679,0
44.4062,-29.8701,0.283646,0
44.5299,-29.7457,0.279739,0
44.6506,-29.6192,0.27595,0
44.7684,-29.4906,0.272298,0
44.883,-29.36,0.268773,0
44.9945,-29.2276,0.265384,0
45.1028,-29.0932,0.262122,0
45.2073,-28.9563,0.258821,0
45.3068,-28.8162,0.255306,0
45.4033,-28.6746,0.251937,0
45.5009,-28.5353,0.249564,0
45.5964,-28.3952,0.247542,0
45.689,-28.2536,0.245677,0
45.7787,-28.1106,0.243968,0
45.8655,-27.9662,0.242415,0
45.9484,-27.8199,0.240872,0
46.0283,-27.6723,0.239466,0
46.1051,-27.5234,0.238187,0
46.1787,-27.3733,0.237064,0
46.2494,-27.222,0.236058,0
46.3169,-27.0697,0.235228,0
46.3812,-26.9163,0.234515,0
46.4425,-26.7618,0.233948,0
46.5007,-26.6064,0.233519,0
46.5558,-26.4502,0.233236,0
46.6077,-26.293,0.233089,0
46.6565,-26.1351,0.233079,0
46.7021,-25.9764,0.233216,0
46.7446,-25.8169,0.23348,0
46.784,-25.6568,0.23388,0
46.8202,-25.4961,0.234427,0
46.8533,-25.3348,0.235111,0
46.8831,-25.173,0.235941,0
46.9098,-25.0106,0.236888,0
46.9334,-24.8479,0.237982,0
46.9538,-24.6847,0.239212,0
46.971,-24.5212,0.24057,0
46.9849,-24.3574,0.242054,0
46.9958,-24.1933,0.243695,0
47.0034,-24.0291,0.245452,0
47.0078,-23.8647,0.247357,0
47.0091,-23.7001,0.249398,0
47.0098,-23.5354,0.251986,0
39.3873,-31.6006,0.414652,0
39.5672,-31.6044,0.4118,0
39.7471,-31.6039,0.408948,0
39.9268,-31.599,0.406126,0
40.1062,-31.5899,0.403323,0
40.2849,-31.5736,0.400071,0
40.4626,-31.5458,0.395677,0
40.6391,-31.5139,0.391302,0
40.8145,-31.4779,0.386986,0
40.9884,-31.4379,0.382708,0
41.1612,-31.3939,0.37848,0
41.3324,-31.3459,0.3743,0
41.502,-31.2941,0.370169,0
41.6701,-31.2384,0.366097,0
41.8364,-31.179,0.362073,0
42.001,-31.1158,0.358118,0
42.164,-31.0502,0.354407,0
42.3252,-30.981,0.350775,0
42.4843,-30.9083,0.3472,0
42.6415,-30.8322,0.343704,0
42.7941,-30.7468,0.339271,0
42.9426,-30.6544,0.334222,0
43.0884,-30.5591,0.32929,0
43.2317,-30.461,0.324476,0
43.3723,-30.3603,0.319779,0
43.5102,-30.257,0.315198,0
43.6454,-30.1511,0.310736,0
43.7779,-30.0427,0.30639,0
43.9076,-29.9319,0.302171,0
44.0345,-29.8188,0.298079,0
44.1584,-29.7034,0.294095,0
44.2795,-29.5858,0.290247,0
44.3979,-29.4661,0.286517,0
44.5132,-29.3443,0.282904,0
44.6256,-29.2206,0.279427,0
44.7351,-29.0949,0.276058,0
44.8416,-28.9674,0.272835,0
44.9452,-28.838,0.26971,0
45.0456,-28.707,0.266732,0
45.1449,-28.5758,0.264241,0
45.2419,-28.4436,0.262044,0
45.3355,-28.3094,0.259876,0
45.4263,-28.1737,0.257855,0
45.5142,-28.0366,0.255989,0
45.5991,-27.898,0.254251,0
45.6812,-27.7581,0.25264,0
45.7602,-27.6168,0.251185,0
45.8363,-27.4742,0.249857,0
45.9093,-27.3305,0.248675,0
45.9795,-27.1856,0.24763,0
46.0466,-27.0395,0.246712,0
46.1108,-26.8924,0.245941,0
46.1719,-26.7443,0.245296,0
46.23,-26.5952,0.244798,0
46.2851,-26.4452,0.244427,0
46.3371,-26.2943,0.244193,0
46.3862,-26.1425,0.244095,0
46.4322,-25.99,0.244144,0
46.4752,-25.8368,0.24431,0
46.5151,-25.6829,0.244613,0
46.5519,-25.5283,0.245062,0
46.5856,-25.3731,0.245628,0
46.6164,-25.2174,0.246331,0
46.6441,-25.0612,0.247181,0
46.6686,-24.9045,0.248148,0
46.6901,-24.7474,0.249251,0
46.7084,-24.59,0.250482,0
46.7237,-24.4322,0.251849,0
46.7359,-24.2742,0.253353,0
46.7451,-24.1159,0.254984,0
46.7511,-23.9575,0.256732,0
46.754,-23.7989,0.258616,0
46.7548,-23.6402,0.260804,0
46.754,-23.4813,0.263353,0
36.4192,-30.7909,0.45138,0
36.5783,-30.8756,0.450101,0
36.7394,-30.9565,0.448821,0
36.9026,-31.0336,0.447552,0
37.0677,-31.1069,0.446282,0
37.2341,-31.1774,0.445198,0
37.4024,-31.244,0.444124,0
37.5723,-31.3065,0.44305,0
37.7451,-31.3609,0.441253,0
37.9206,-31.4053,0.43846,0
38.0973,-31.4447,0.43554,0
38.2748,-31.4799,0.43263,0
38.453,-31.5106,0.42971,0
38.6317,-31.5371,0.4268,0
38.8109,-31.5591,0.4239,0
38.9905,-31.5769,0.420999,0
39.1703,-31.5903,0.418118,0
39.3502,-31.5993,0.415247,0
39.5302,-31.604,0.412376,0
39.7102,-31.6044,0.409534,0
39.8899,-31.6004,0.406712,0
40.0694,-31.5921,0.4039,0
40.2484,-31.5788,0.400989,0
40.4261,-31.5519,0.396575,0
40.6029,-31.5208,0.3922,0
40.7784,-31.4856,0.387864,0
40.9527,-31.4464,0.383587,0
41.1258,-31.4032,0.379349,0
41.2973,-31.3561,0.37515,0
41.4673,-31.305,0.371009,0
41.6357,-31.2501,0.366927,0
41.8024,-31.1915,0.362904,0
41.9673,-31.1291,0.358919,0
42.1306,-31.064,0.355169,0
42.2922,-30.9955,0.351507,0
42.4518,-30.9235,0.347933,0
42.6094,-30.8481,0.344417,0
42.7633,-30.7655,0.340325,0
42.9123,-30.6736,0.335247,0
43.0587,-30.5789,0.330296,0
43.2024,-30.4814,0.325452,0
43.3436,-30.3812,0.320736,0
43.4821,-30.2784,0.316126,0
43.6179,-30.173,0.311634,0
43.7509,-30.0652,0.307279,0
43.8812,-29.9549,0.30303,0
44.0086,-29.8422,0.298909,0
44.1332,-29.7273,0.294905,0
44.2549,-29.6102,0.291028,0
44.3738,-29.4909,0.287269,0
44.4898,-29.3695,0.283636,0
44.6028,-29.2462,0.28013,0
44.7129,-29.1209,0.276751,0
44.82,-28.9937,0.273489,0
44.9241,-28.8648,0.270345,0
45.0252,-28.7341,0.267337,0
45.1245,-28.6026,0.264681,0
45.2223,-28.471,0.262493,0
45.3166,-28.3371,0.260316,0
45.408,-28.2018,0.258265,0
45.4964,-28.0649,0.256361,0
45.582,-27.9266,0.254593,0
45.6645,-27.7869,0.252962,0
45.7442,-27.6459,0.251468,0
45.8209,-27.5037,0.25012,0
45.8945,-27.3601,0.2489,0
45.9653,-27.2154,0.247825,0
46.033,-27.0696,0.246888,0
46.0978,-26.9227,0.246087,0
46.1595,-26.7748,0.245423,0
46.2183,-26.6259,0.244886,0
46.274,-26.4761,0.244495,0
46.3267,-26.3254,0.244232,0
46.3763,-26.1738,0.244105,0
46.423,-26.0214,0.244114,0
46.4666,-25.8683,0.244261,0
46.507,-25.7146,0.244544,0
46.5445,-25.5601,0.244954,0
46.579,-25.4051,0.245501,0
46.6103,-25.2495,0.246185,0
46.6386,-25.0933,0.246986,0
46.6638,-24.9368,0.247933,0
46.6859,-24.7798,0.249017,0
46.705,-24.6224,0.250218,0
46.7209,-24.4647,0.251566,0
46.7337,-24.3067,0.25303,0
46.7435,-24.1485,0.254632,0
46.7502,-23.9901,0.256361,0
46.7537,-23.8315,0.258226,0
46.7546,-23.6728,0.260296,0
46.7544,-23.514,0.262816,0
36.5454,-30.8585,0.450364,0
36.7062,-30.9402,0.449095,0
36.8688,-31.0181,0.447816,0
37.0336,-31.0922,0.446536,0
37.1998,-31.1632,0.445404,0
37.3677,-31.2306,0.444349,0
37.5373,-31.294,0.443275,0
37.7095,-31.3501,0.441624,0
37.8845,-31.3967,0.439066,0
38.0609,-31.437,0.436136,0
38.2383,-31.473,0.433226,0
38.4162,-31.5046,0.430306,0
38.5949,-31.532,0.427396,0
38.7741,-31.555,0.424486,0
38.9536,-31.5736,0.421605,0
39.1333,-31.5879,0.418714,0
39.3133,-31.5978,0.415833,0
39.4933,-31.6034,0.412972,0
39.6732,-31.6046,0.41012,0
39.853,-31.6016,0.407288,0
40.0325,-31.5942,0.404476,0
40.2116,-31.5825,0.401673,0
40.3896,-31.5577,0.397474,0
40.5666,-31.5275,0.393099,0
40.7425,-31.4932,0.388753,0
40.917,-31.4548,0.384466,0
41.0903,-31.4124,0.380208,0
41.2622,-31.3661,0.376009,0
41.4325,-31.3158,0.371859,0
41.6012,-31.2617,0.367767,0
41.7683,-31.2038,0.363714,0
41.9335,-31.1422,0.359739,0
42.0972,-31.0776,0.355921,0
42.2591,-31.0098,0.352249,0
42.4191,-30.9386,0.348655,0
42.5771,-30.8639,0.34513,0
42.7323,-30.784,0.34138,0
42.8819,-30.6927,0.336282,0
43.0287,-30.5986,0.331302,0
43.1731,-30.5017,0.326439,0
43.3148,-30.402,0.321693,0
43.4538,-30.2998,0.317064,0
43.5902,-30.1949,0.312552,0
43.7237,-30.0875,0.308167,0
43.8545,-29.9777,0.30389,0
43.9827,-29.8655,0.299749,0
44.1078,-29.7511,0.295716,0
44.2302,-29.6344,0.29181,0
44.3496,-29.5156,0.28804,0
44.4662,-29.3946,0.284378,0
44.5798,-29.2717,0.280843,0
44.6905,-29.1468,0.277425,0
44.7982,-29.02,0.274144,0
44.903,-28.8914,0.27098,0
45.0047,-28.761,0.267943,0
45.1039,-28.6294,0.26512,0
45.2025,-28.4983,0.262962,0
45.2974,-28.3648,0.260745,0
45.3894,-28.2297,0.258675,0
45.4784,-28.0932,0.256741,0
45.5646,-27.9552,0.254945,0
45.6478,-27.8158,0.253284,0
45.728,-27.675,0.251771,0
45.8054,-27.533,0.250384,0
45.8797,-27.3897,0.249144,0
45.951,-27.2453,0.24804,0
46.0194,-27.0997,0.247064,0
46.0848,-26.953,0.246234,0
46.1471,-26.8053,0.24554,0
46.2065,-26.6566,0.244984,0
46.2628,-26.5069,0.244554,0
46.3161,-26.3564,0.244271,0
46.3664,-26.205,0.244124,0
46.4137,-26.0528,0.244105,0
46.4578,-25.8999,0.244222,0
46.499,-25.7462,0.244466,0
46.5371,-25.5919,0.244857,0
46.5721,-25.437,0.245374,0
46.6041,-25.2815,0.246029,0
46.633,-25.1255,0.24682,0
46.6588,-24.969,0.247728,0
46.6816,-24.8121,0.248773,0
46.7013,-24.6548,0.249964,0
46.7179,-24.4971,0.251282,0
46.7314,-24.3392,0.252728,0
46.7418,-24.181,0.25429,0
46.749,-24.0226,0.255989,0
46.7532,-23.8641,0.257835,0
46.7543,-23.7054,0.259788,0
46.7547,-23.5466,0.262288,0
39.4093,-31.2724,0.415345,0
39.5817,-31.2762,0.412611,0
39.7539,-31.276,0.409886,0
39.926,-31.2716,0.407181,0
40.0978,-31.2631,0.404486,0
40.2691,-31.2486,0.401507,0
40.4392,-31.2227,0.397279,0
40.6084,-31.1928,0.393099,0
40.7765,-31.159,0.388948,0
40.9434,-31.1213,0.384847,0
41.1091,-31.0805,0.380911,0
41.2735,-31.036,0.377025,0
41.4365,-30.9878,0.373206,0
41.598,-30.9359,0.369446,0
41.7579,-30.8805,0.365755,0
41.9162,-30.8216,0.362122,0
42.0729,-30.7592,0.358548,0
42.2277,-30.6934,0.355052,0
42.3807,-30.6242,0.351624,0
42.5317,-30.5517,0.348255,0
42.6808,-30.4759,0.344964,0
42.8245,-30.3895,0.340374,0
42.9651,-30.2988,0.335618,0
43.1032,-30.2054,0.33097,0
43.2388,-30.1094,0.326429,0
43.3719,-30.0108,0.322005,0
43.5023,-29.9097,0.317689,0
43.6302,-29.8062,0.313499,0
43.7554,-29.7004,0.309417,0
43.8778,-29.5923,0.305443,0
43.9977,-29.4819,0.301605,0
44.1148,-29.3694,0.297874,0
44.2291,-29.2548,0.294261,0
44.3405,-29.1383,0.290765,0
44.4493,-29.0197,0.287386,0
44.5552,-28.8992,0.284134,0
44.6581,-28.777,0.280999,0
44.7584,-28.6529,0.277982,0
44.8583,-28.5298,0.275706,0
44.9556,-28.405,0.273587,0
45.0502,-28.2785,0.271605,0
45.142,-28.1504,0.269739,0
45.2304,-28.0201,0.267864,0
45.3155,-27.8881,0.266038,0
45.3977,-27.7547,0.264339,0
45.4773,-27.62,0.262777,0
45.5538,-27.4839,0.261351,0
45.6276,-27.3466,0.260052,0
45.6984,-27.2081,0.2589,0
45.7664,-27.0684,0.257864,0
45.8314,-26.9277,0.256976,0
45.8936,-26.7858,0.256214,0
45.9528,-26.643,0.255579,0
46.0091,-26.4992,0.255081,0
46.0625,-26.3546,0.25472,0
46.113,-26.209,0.254486,0
46.1605,-26.0626,0.254388,0
46.2051,-25.9155,0.254407,0
46.2467,-25.7677,0.254573,0
46.2854,-25.6191,0.254866,0
46.3211,-25.47,0.255286,0
46.3538,-25.3202,0.255833,0
46.3836,-25.1699,0.256507,0
46.4103,-25.0191,0.257318,0
46.4341,-24.8679,0.258255,0
46.4549,-24.7163,0.25931,0
46.4727,-24.5643,0.260501,0
46.4875,-24.412,0.26182,0
46.4992,-24.2595,0.263275,0
46.508,-24.1067,0.264837,0
46.5137,-23.9537,0.266546,0
46.5164,-23.8006,0.268362,0
46.517,-23.6475,0.270462,0
46.5159,-23.4941,0.272933,0
36.5648,-30.5013,0.45137,0
36.7173,-30.5822,0.450159,0
36.8718,-30.6595,0.448929,0
37.0282,-30.7332,0.447708,0
37.1865,-30.8032,0.446487,0
37.3465,-30.8694,0.445267,0
37.5081,-30.9319,0.444046,0
37.6714,-30.9905,0.442825,0
37.8371,-31.0416,0.440931,0
38.0053,-31.0836,0.438138,0
38.1745,-31.1215,0.435345,0
38.3443,-31.1553,0.432552,0
38.5148,-31.185,0.429759,0
38.6859,-31.2105,0.426976,0
38.8575,-31.2319,0.424202,0
39.0294,-31.2491,0.421429,0
39.2016,-31.2621,0.418665,0
39.3739,-31.271,0.415911,0
39.5462,-31.2758,0.413167,0
39.7185,-31.2764,0.410443,0
39.8906,-31.2728,0.407728,0
40.0625,-31.2652,0.405042,0
40.234,-31.2534,0.402366,0
40.4044,-31.2284,0.398148,0
40.5737,-31.1993,0.393948,0
40.7421,-31.1663,0.389798,0
40.9092,-31.1294,0.385696,0
41.0752,-31.0891,0.381702,0
41.2398,-31.0454,0.377825,0
41.4031,-30.998,0.373987,0
41.5649,-30.9469,0.370218,0
41.7252,-30.8922,0.366507,0
41.8838,-30.834,0.362864,0
42.0408,-30.7723,0.35928,0
42.1961,-30.7072,0.355775,0
42.3494,-30.6387,0.352318,0
42.5008,-30.5668,0.348939,0
42.6503,-30.4918,0.345648,0
42.7953,-30.4078,0.34137,0
42.9364,-30.3177,0.336585,0
43.075,-30.2248,0.331907,0
43.2112,-30.1293,0.327347,0
43.3447,-30.0313,0.322904,0
43.4758,-29.9307,0.318568,0
43.6041,-29.8277,0.314349,0
43.7298,-29.7223,0.310247,0
43.8529,-29.6147,0.306253,0
43.9733,-29.5048,0.302376,0
44.0909,-29.3927,0.298636,0
44.2058,-29.2786,0.294993,0
44.3179,-29.1624,0.291468,0
44.4271,-29.0442,0.28807,0
44.5336,-28.9241,0.284788,0
44.6372,-28.8022,0.281634,0
44.738,-28.6786,0.278587,0
44.838,-28.5552,0.276155,0
44.9359,-28.4308,0.274017,0
45.031,-28.3046,0.272005,0
45.1234,-28.1768,0.270111,0
45.2125,-28.0471,0.268255,0
45.2982,-27.9154,0.2664,0
45.3811,-27.7823,0.264681,0
45.4612,-27.6478,0.263089,0
45.5383,-27.512,0.261634,0
45.6127,-27.3749,0.260316,0
45.6841,-27.2367,0.259124,0
45.7526,-27.0972,0.25807,0
45.8183,-26.9567,0.257152,0
45.881,-26.8151,0.256351,0
45.9409,-26.6725,0.255696,0
45.9978,-26.5289,0.255179,0
46.0518,-26.3844,0.254788,0
46.1029,-26.239,0.254525,0
46.151,-26.0928,0.254388,0
46.1962,-25.9458,0.254388,0
46.2384,-25.7981,0.254534,0
46.2777,-25.6497,0.254798,0
46.314,-25.5007,0.255179,0
46.3473,-25.351,0.255706,0
46.3777,-25.2009,0.256361,0
46.4051,-25.0502,0.257142,0
46.4295,-24.899,0.25804,0
46.4509,-24.7475,0.259085,0
46.4692,-24.5956,0.260247,0
46.4847,-24.4433,0.261546,0
46.497,-24.2908,0.262962,0
46.5064,-24.1381,0.264505,0
46.5128,-23.9852,0.266175,0
46.5161,-23.8321,0.267982,0
46.5169,-23.679,0.269974,0
46.5165,-23.5256,0.272415,0
36.6858,-30.5659,0.450404,0
36.8399,-30.6439,0.449183,0
36.9959,-30.7184,0.447972,0
37.1538,-30.7891,0.446741,0
37.3134,-30.8561,0.445521,0
37.4748,-30.9194,0.4443,0
37.6377,-30.9788,0.443079,0
37.8027,-31.0324,0.441507,0
37.9706,-31.0753,0.438714,0
38.1396,-31.1141,0.435921,0
38.3093,-31.1487,0.433128,0
38.4797,-31.1792,0.430335,0
38.6507,-31.2056,0.427552,0
38.8222,-31.2278,0.424769,0
38.9941,-31.2459,0.421995,0
39.1662,-31.2598,0.419232,0
39.3384,-31.2695,0.416478,0
39.5108,-31.2751,0.413724,0
39.6832,-31.2766,0.410999,0
39.8553,-31.2739,0.408284,0
40.0272,-31.2671,0.405589,0
40.1988,-31.2562,0.402913,0
40.3695,-31.2338,0.399017,0
40.5391,-31.2056,0.394818,0
40.7076,-31.1734,0.390648,0
40.875,-31.1373,0.386527,0
41.0412,-31.0977,0.382513,0
41.2061,-31.0547,0.378607,0
41.3697,-31.008,0.374769,0
41.5318,-30.9577,0.370989,0
41.6924,-30.9037,0.367269,0
41.8514,-30.8463,0.363607,0
42.0087,-30.7853,0.360013,0
42.1643,-30.7208,0.356478,0
42.318,-30.653,0.353021,0
42.4699,-30.5819,0.349632,0
42.6198,-30.5075,0.346312,0
42.766,-30.426,0.342366,0
42.9076,-30.3364,0.337562,0
43.0467,-30.2441,0.332864,0
43.1834,-30.1492,0.328284,0
43.3175,-30.0516,0.323802,0
43.449,-29.9516,0.319446,0
43.5779,-29.8491,0.315198,0
43.7042,-29.7442,0.311077,0
43.8279,-29.637,0.307064,0
43.9488,-29.5275,0.303167,0
44.067,-29.4159,0.299388,0
44.1823,-29.3022,0.295726,0
44.295,-29.1864,0.292191,0
44.4049,-29.0686,0.288763,0
44.512,-28.949,0.285452,0
44.6161,-28.8274,0.282269,0
44.7175,-28.7041,0.279202,0
44.8174,-28.5805,0.276614,0
44.916,-28.4565,0.274446,0
45.0116,-28.3307,0.272405,0
45.1046,-28.2032,0.270491,0
45.1945,-28.074,0.268646,0
45.2809,-27.9426,0.266761,0
45.3643,-27.8097,0.265023,0
45.4449,-27.6755,0.263402,0
45.5227,-27.54,0.261917,0
45.5976,-27.4032,0.260579,0
45.6696,-27.2652,0.259359,0
45.7388,-27.126,0.258275,0
45.805,-26.9857,0.257327,0
45.8684,-26.8443,0.256507,0
45.9288,-26.7018,0.255823,0
45.9864,-26.5584,0.255277,0
46.0409,-26.4141,0.254857,0
46.0926,-26.2689,0.254564,0
46.1414,-26.1229,0.254417,0
46.1872,-25.9761,0.254388,0
46.23,-25.8285,0.254486,0
46.2698,-25.6803,0.25473,0
46.3068,-25.5313,0.255091,0
46.3408,-25.3818,0.255589,0
46.3716,-25.2318,0.256214,0
46.3997,-25.0812,0.256966,0
46.4247,-24.9301,0.257855,0
46.4466,-24.7787,0.258861,0
46.4657,-24.6268,0.260003,0
46.4817,-24.4746,0.261263,0
46.4947,-24.3222,0.262659,0
46.5048,-24.1695,0.264173,0
46.5117,-24.0166,0.265833,0
46.5157,-23.8636,0.267601,0
46.5166,-23.7104,0.269495,0
46.5168,-23.5571,0.271898,0
39.4296,-30.97,0.41598,0
39.5949,-30.974,0.413353,0
39.7602,-30.9739,0.410736,0
39.9252,-30.9699,0.408138,0
40.0901,-30.962,0.40556,0
40.2545,-30.9495,0.402874,0
40.418,-30.928,0.399329,0
40.5806,-30.9005,0.395413,0
40.7421,-30.8692,0.391527,0
40.9026,-30.8342,0.387689,0
41.0618,-30.7956,0.3839,0
41.2198,-30.7534,0.380169,0
41.3766,-30.7076,0.376497,0
41.5318,-30.6584,0.372874,0
41.6857,-30.6057,0.36932,0
41.8379,-30.5496,0.365823,0
41.9887,-30.4902,0.362386,0
42.1376,-30.4274,0.359017,0
42.2848,-30.3614,0.355706,0
42.4302,-30.2922,0.352474,0
42.5737,-30.2199,0.34929,0
42.715,-30.1439,0.346087,0
42.8507,-30.0574,0.341487,0
42.9841,-29.9682,0.336986,0
43.1149,-29.8765,0.332601,0
43.2434,-29.7823,0.328323,0
43.3695,-29.6856,0.324154,0
43.493,-29.5866,0.320091,0
43.6141,-29.4853,0.316136,0
43.7324,-29.3818,0.312298,0
43.8483,-29.2761,0.308568,0
43.9615,-29.1683,0.304954,0
44.072,-29.0584,0.301448,0
44.18,-28.9466,0.29807,0
44.2852,-28.8328,0.294798,0
44.3876,-28.7172,0.291644,0
44.4884,-28.6008,0.288851,0
44.588,-28.4842,0.286546,0
44.6849,-28.3658,0.284359,0
44.7791,-28.2456,0.282308,0
44.8708,-28.1239,0.280364,0
44.9597,-28.0005,0.278558,0
45.0459,-27.8755,0.276859,0
45.1294,-27.7491,0.275296,0
45.2097,-27.6209,0.273763,0
45.2868,-27.491,0.272239,0
45.361,-27.3598,0.270843,0
45.4325,-27.2273,0.269583,0
45.5012,-27.0937,0.26845,0
45.5672,-26.9589,0.267435,0
45.6303,-26.8231,0.266566,0
45.6906,-26.6862,0.265814,0
45.748,-26.5484,0.265198,0
45.8027,-26.4095,0.26471,0
45.8545,-26.2698,0.264349,0
45.9034,-26.1293,0.264114,0
45.9496,-25.9879,0.264007,0
45.9928,-25.8458,0.264027,0
46.0331,-25.703,0.264173,0
46.0707,-25.5595,0.264437,0
46.1053,-25.4154,0.264847,0
46.137,-25.2707,0.265374,0
46.1659,-25.1255,0.266029,0
46.1918,-24.9798,0.26679,0
46.2148,-24.8337,0.267698,0
46.2349,-24.6871,0.268724,0
46.2521,-24.5403,0.269866,0
46.2664,-24.3931,0.271146,0
46.2777,-24.2457,0.272542,0
46.2862,-24.098,0.274066,0
46.2916,-23.9502,0.275706,0
46.2943,-23.8023,0.277484,0
46.2947,-23.6542,0.279505,0
46.2934,-23.5061,0.281888,0
36.699,-30.2342,0.45137,0
36.8455,-30.3116,0.450198,0
36.9939,-30.3857,0.449027,0
37.1441,-30.4562,0.447855,0
37.2961,-30.5232,0.446683,0
37.4497,-30.5865,0.445501,0
37.6049,-30.6463,0.444339,0
37.7616,-30.7024,0.443167,0
37.9219,-30.7469,0.440521,0
38.0832,-30.7874,0.437845,0
