75.7362,-41.6635,-3.49834,0
74.791,-51.3164,-3.32774,0
73.7155,-50.1717,-3.23771,0
58.2374,-43.7638,-2.06857,174
58.2812,-43.5016,-2.06852,174
58.3264,-43.2419,-2.06868,174
58.4937,-43.0199,-2.078,174
72.4894,-46.547,-3.1087,0
72.3851,-45.9185,-3.09452,0
72.5075,-45.3523,-3.09728,0
72.6314,-44.7866,-3.10032,0
72.757,-44.2207,-3.10366,0
72.8844,-43.6539,-3.10731,0
73.1348,-43.1016,-3.12004,0
73.4495,-42.5484,-3.13752,0
73.768,-41.9841,-3.15535,0
74.2034,-50.7982,-3.27987,0
58.4362,-44.0142,-2.08563,174
58.2532,-43.663,-2.06847,174
58.2984,-43.4021,-2.06857,174
58.3713,-43.1517,-2.07083,174
72.5618,-46.9438,-3.1182,0
72.4455,-46.3045,-3.10294,0
72.4316,-45.7021,-3.09554,0
72.5546,-45.1362,-3.09841,0
72.6792,-44.5705,-3.10156,0
72.8054,-44.0043,-3.10503,0
72.944,-43.4386,-3.10954,0
73.2541,-42.8915,-3.12664,0
73.5716,-42.3343,-3.14435,0
73.888,-41.7653,-3.16207,0
73.8991,-50.4074,-3.25356,0
58.2653,-43.8404,-2.07147,174
58.2705,-43.5631,-2.0685,174
58.3156,-43.303,-2.06863,174
58.4435,-43.0695,-2.075,174
72.5169,-46.698,-3.1123,0
72.4023,-46.0639,-3.09729,0
72.4785,-45.4859,-3.0966,0
72.602,-44.9201,-3.09958,0
72.7271,-44.3543,-3.10285,0
72.8541,-43.7879,-3.10643,0
73.0615,-43.2308,-3.11599,0
73.3745,-42.6799,-3.13334,0
73.6945,-42.1185,-3.15125,0
74.0091,-41.5448,-3.16887,0
68.6944,-56.5938,-2.78379,174
73.8674,-52.3531,-3.06476,0
72.2673,-50.9136,-2.94848,0
71.7604,-50.0346,-2.90744,0
58.2642,-44.055,-1.98894,174
58.1554,-43.7323,-1.97887,174
58.2007,-43.4728,-1.97928,174
58.2587,-43.2193,-1.9806,174
58.4522,-43.0068,-1.99099,174
70.4866,-46.0019,-2.78784,0
70.5986,-45.475,-2.79028,0
70.7449,-44.9566,-2.79506,0
70.9067,-44.4399,-2.80093,0
71.0699,-43.9209,-2.80695,0
71.251,-43.4014,-2.8142,0
71.5377,-42.8914,-2.8284,0
71.8304,-42.3722,-2.84296,0
69.8444,-41.6457,-2.70973,174
65.5087,-59.0768,-2.61431,174
73.2416,-51.7845,-3.01922,0
72.0577,-50.5661,-2.93166,0
71.5821,-49.7155,-2.89294,0
58.1705,-43.9104,-1.98156,174
58.1727,-43.6329,-1.97902,174
58.2179,-43.3741,-1.97944,174
58.3299,-43.138,-1.98439,174
58.5514,-42.9314,-1.99664,174
70.5134,-45.7963,-2.7877,0
70.6516,-45.2764,-2.7919,0
69.8875,-44.5619,-2.73668,174
70.9688,-44.2419,-2.80321,0
71.1327,-43.7219,-2.8093,0
71.3599,-43.2076,-2.81958,0
71.6488,-42.6942,-2.83391,0
71.9438,-42.1713,-2.84863,0
72.2455,-41.6381,-2.86378,0
68.6491,-56.7417,-2.78265,174
72.6495,-51.2463,-2.97613,0
71.8726,-50.2353,-2.91659,0
58.3244,-44.1466,-1.99367,174
58.1491,-43.7955,-1.97908,174
58.19,-43.5339,-1.97918,174
58.235,-43.2758,-1.97961,174
58.4021,-43.0562,-1.98824,174
70.5131,-46.1412,-2.79081,0
70.566,-45.5978,-2.78928,0
70.7069,-45.0783,-2.7937,0
69.9701,-44.377,-2.74036,174
71.0312,-44.0437,-2.80552,0
69.1756,-43.1996,-2.67943,174
71.4695,-43.0126,-2.82501,0
71.7607,-42.4956,-2.83948,0
72.0582,-41.9689,-2.85436,0
72.3619,-41.4315,-2.86964,0
65.3234,-59.2005,-2.41369,174
68.6515,-57.341,-2.59081,174
68.6231,-56.5302,-2.58348,174
66.4428,-51.0226,-2.42014,174
72.9702,-53.3631,-2.8093,0
70.9005,-51.5937,-2.67863,0
70.0717,-50.5447,-2.62388,0
69.7202,-49.7684,-2.59831,0
69.3116,-48.9989,-2.5695,0
58.2219,-44.037,-1.90138,174
58.0917,-43.7075,-1.8916,174
58.1214,-43.4444,-1.89141,174
58.2181,-43.2054,-1.89522,174
58.411,-42.9939,-1.9047,174
68.8184,-45.5479,-2.51668,0
68.993,-45.0765,-2.52325,0
69.1684,-44.6027,-2.52984,0
69.3449,-44.126,-2.53648,0
69.5226,-43.6459,-2.54315,0
69.196,-43.0838,-2.52043,174
69.9791,-42.6862,-2.56225,0
67.6256,-41.9143,-2.42242,174
69.7695,-41.6396,-2.54268,174
46.4824,-50.7256,-1.27619,174
65.4224,-58.975,-2.41777,174
68.4933,-56.9084,-2.57873,174
68.9001,-56.4511,-2.59875,174
72.3817,-52.7766,-2.77157,0
70.4556,-51.1227,-2.64989,0
69.9541,-50.2522,-2.61509,0
69.5615,-49.4694,-2.58711,0
69.2606,-48.7569,-2.56487,0
58.087,-43.877,-1.89254,174
58.099,-43.6052,-1.89129,174
58.1386,-43.3466,-1.89169,174
58.2888,-43.1243,-1.89867,174
58.5029,-42.9168,-1.90939,174
67.8623,-45.1,-2.4589,174
69.0599,-44.8958,-2.52576,0
69.2357,-44.421,-2.53237,0
69.4127,-43.943,-2.53903,0
69.5919,-43.4617,-2.54578,0
69.8341,-42.9851,-2.55613,0
70.0677,-42.4999,-2.56595,0
70.3019,-42.0069,-2.57573,0
70.5398,-41.5059,-2.58567,0
65.6586,-58.8949,-2.43071,174
68.5602,-56.6635,-2.58083,174
73.1762,-53.6484,-2.82309,0
71.1862,-51.896,-2.69708,0
70.1547,-50.7327,-2.62995,0
69.8201,-49.9565,-2.60534,0
69.406,-49.1767,-2.57616,0
58.243,-44.1126,-1.90312,174
58.0871,-43.771,-1.89179,174
58.1108,-43.505,-1.89124,174
58.1746,-43.2552,-1.8931,174
58.3612,-43.043,-1.90222,174
66.878,-45.1329,-2.403,174
67.8712,-44.9146,-2.45808,174
69.127,-44.7148,-2.52828,0
69.3031,-44.2388,-2.53491,0
69.4805,-43.7596,-2.54157,0
69.1658,-43.1977,-2.51953,174
69.9248,-42.8009,-2.55997,0
70.1567,-42.3124,-2.56966,0
69.8036,-41.7625,-2.54552,174
70.6317,-41.3123,-2.5895,0
44.3837,-68.4367,-1.07063,174
46.3956,-50.6865,-1.19201,174
65.2153,-59.0735,-2.2173,174
68.4956,-57.2047,-2.38366,174
68.5748,-56.4849,-2.38591,174
71.0754,-55.9942,-2.51286,174
72.478,-55.3476,-2.58249,0
66.4363,-51.0145,-2.26004,174
69.337,-52.0689,-2.41131,0
68.11,-50.777,-2.34427,0
67.8795,-50.0706,-2.32988,0
67.7843,-49.4543,-2.32262,0
67.6909,-48.856,-2.31544,0
60.0583,-45.0958,-1.91403,174
58.1051,-43.9895,-1.81067,174
58.0305,-43.6838,-1.80551,174
58.0499,-43.4187,-1.80522,174
58.1778,-43.1916,-1.81053,174
58.3701,-42.981,-1.81912,174
64.3385,-44.3314,-2.12544,174
67.4977,-44.7054,-2.28575,0
67.657,-44.2635,-2.29127,0
67.8166,-43.8189,-2.29672,0
67.9883,-43.3733,-2.30267,0
66.8084,-42.715,-2.23972,174
66.9932,-42.2932,-2.24633,174
67.5257,-41.9036,-2.27041,174
68.7527,-41.5522,-2.32935,0
44.6304,-68.4367,-1.08498,174
46.4904,-50.675,-1.19751,174
65.3371,-58.8744,-2.22331,174
68.4046,-56.8289,-2.37803,174
68.8275,-56.3877,-2.39866,174
69.3853,-55.2911,-2.42422,174
70.0468,-55.007,-2.45723,174
72.0477,-54.7892,-2.55868,0
70.4093,-53.0928,-2.46946,0
68.7187,-51.4831,-2.37778,0
67.9756,-50.4799,-2.33634,0
67.8429,-49.833,-2.32711,0
67.7484,-49.2237,-2.31987,0
67.6559,-48.6319,-2.31272,0
58.2812,-44.2363,-1.82064,174
58.0184,-43.8493,-1.80566,174
58.0379,-43.5821,-1.8054,174
58.0651,-43.321,-1.80551,174
58.248,-43.1108,-1.81366,174
58.474,-42.9077,-1.82395,174
67.3964,-44.9767,-2.28215,0
67.5585,-44.5369,-2.28786,0
67.718,-44.094,-2.29336,0
67.8777,-43.6483,-2.29877,0
68.0698,-43.2048,-2.30573,0
66.8897,-42.5561,-2.2428,174
66.3002,-42.0368,-2.2101,174
68.6505,-41.8415,-2.32616,0
68.8162,-41.3723,-2.33133,0
46.5812,-50.7254,-1.20276,174
65.1697,-59.2297,-2.21518,174
65.5585,-58.7806,-2.2347,174
68.4891,-56.5995,-2.3818,174
66.3503,-52.9109,-2.26174,174
66.3722,-51.113,-2.25711,174
69.8782,-52.5292,-2.44046,0
68.2734,-51.0063,-2.35341,0
67.9023,-50.2189,-2.33162,0
67.8066,-49.5981,-2.32433,0
67.7128,-48.9957,-2.31714,0
59.9974,-45.1496,-1.9112,174
58.1693,-44.0816,-1.81431,174
58.0259,-43.7468,-1.80557,174
58.0453,-43.481,-1.80529,174
58.1346,-43.2412,-1.80861,174
58.3207,-43.03,-1.81689,174
66.7391,-45.0932,-2.2498,174
67.46,-44.8094,-2.28444,0
67.6194,-44.368,-2.28997,0
67.7789,-43.9241,-2.29544,0
67.9388,-43.4772,-2.3008,0
68.1517,-43.0354,-2.3088,0
67.1156,-42.4161,-2.25321,174
66.2861,-41.8703,-2.20833,174
68.7137,-41.6629,-2.32814,0
68.8798,-41.1916,-2.33328,0
34.1868,-63.6058,-0.266907,174
43.7547,-68.3789,-0.82712,174
44.4224,-68.1674,-0.868108,174
46.4053,-50.6191,-1.11415,174
46.6365,-50.8631,-1.12585,174
65.151,-58.9939,-2.0253,174
65.7875,-58.8068,-2.05604,174
68.3851,-57.1058,-2.18161,174
68.534,-56.4454,-2.18973,174
69.3251,-55.5255,-2.22726,174
66.4117,-52.7992,-2.09828,174
68.6747,-53.6549,-2.19976,0
67.3479,-52.1606,-2.14098,0
66.2162,-50.8805,-2.09067,0
66.1251,-50.2661,-2.08663,0
66.0242,-49.6657,-2.082,0
65.8745,-49.0592,-2.07504,0
65.7282,-48.4744,-2.06809,0
65.5851,-47.9098,-2.06115,0
59.8577,-45.0097,-1.8055,174
58.0389,-43.962,-1.72406,174
58.0007,-43.6716,-1.7218,174
58.0193,-43.4072,-1.722,174
58.1378,-43.1778,-1.72653,174
58.3296,-42.9682,-1.73423,174
64.291,-44.3175,-1.99648,174
65.8862,-44.3058,-2.06531,0
66.0324,-43.8991,-2.07002,0
66.1777,-43.4897,-2.07454,0
66.3373,-43.0801,-2.07953,0
64.0732,-42.2924,-1.97855,174
66.657,-42.2489,-2.08904,0
66.8168,-41.8265,-2.09354,0
65.0458,-41.2322,-2.01431,174
32.9362,-62.6081,-0.191158,174
34.3253,-63.8385,-0.274522,174
37.0136,-62.3321,-0.455434,174
44.0177,-68.2411,-0.84369,174
44.6658,-68.178,-0.882354,174
46.4984,-50.6249,-1.11955,174
64.9884,-59.3554,-2.0163,174
65.3109,-58.8366,-2.03342,174
68.3387,-56.768,-2.18016,174
68.775,-56.3399,-2.20095,174
65.4456,-53.1281,-2.054,174
69.3302,-55.2459,-2.22784,174
69.99,-54.9627,-2.25804,0
68.1517,-53.0618,-2.17662,0
66.7415,-51.5557,-2.11402,0
66.1813,-50.6434,-2.08914,0
66.0905,-50.0367,-2.08506,0
65.9666,-49.4314,-2.07934,0
65.8182,-48.8334,-2.07238,0
65.6731,-48.2564,-2.06544,0
65.5409,-47.7034,-2.05894,0
58.1804,-44.1935,-1.73066,174
57.9897,-43.837,-1.72167,174
58.0079,-43.5702,-1.72189,174
58.0362,-43.3103,-1.72248,174
58.2076,-43.0974,-1.72933,174
58.4453,-42.8988,-1.73901,174
64.2514,-44.1514,-1.99419,174
65.9421,-44.1507,-2.06714,0
66.088,-43.743,-2.07177,0
66.2382,-43.3336,-2.07645,0
66.3984,-42.9227,-2.08139,0
66.5584,-42.5076,-2.08618,0
66.2296,-42.0281,-2.06951,174
66.8778,-41.6639,-2.09522,0
67.043,-41.2348,-2.0997,0
37.1132,-62.6298,-0.459928,174
44.2692,-68.1858,-0.858945,174
46.3455,-50.6445,-1.11046,174
46.5882,-50.6848,-1.12435,174
65.0639,-59.104,-2.02078,174
65.5236,-58.7344,-2.04382,174
68.5436,-57.4254,-2.18824,174
68.447,-56.5585,-2.18553,174
66.2648,-52.8464,-2.09157,174
68.9009,-53.9653,-2.20972,0
67.6245,-52.4813,-2.15324,0
66.4109,-51.1319,-2.09934,0
66.1465,-50.4093,-2.08759,0
66.0563,-49.8101,-2.08347,0
65.9095,-49.2004,-2.07668,0
65.7624,-48.6106,-2.06973,0
65.6185,-48.0413,-2.06279,0
59.937,-45.122,-1.80915,174
58.1668,-44.0793,-1.72987,174
57.9963,-43.7345,-1.72175,174
58.015,-43.4693,-1.72196,174
58.0948,-43.2273,-1.72481,174
58.2804,-43.0171,-1.73225,174
65.7041,-44.8053,-2.05924,0
65.8515,-44.4014,-2.06418,0
65.998,-43.9953,-2.06893,0
66.0111,-43.5594,-2.06765,174
66.2995,-43.1771,-2.07836,0
64.0228,-42.3753,-1.9768,174
66.6194,-42.348,-2.08796,0
66.2728,-41.8689,-2.07048,174
65.1958,-41.3406,-2.02137,174
67.108,-41.0695,-2.10147,0
32.8318,-62.3624,0.00696682,174
32.7311,-63.6861,0.0288508,0
33.1059,-64.2884,0.0100959,0
34.2635,-63.4871,-0.0782585,174
33.8937,-65.5181,-0.0287811,0
34.2965,-66.1694,-0.0479119,0
34.7198,-66.8195,-0.0681268,0
37.2828,-62.5955,-0.291931,174
43.8014,-68.0929,-0.627142,174
45.0865,-61.5533,-0.798674,174
46.4141,-50.5643,-1.03701,174
46.6458,-50.7751,-1.04759,174
55.4228,-65.8979,-1.30405,174
64.8076,-59.4808,-1.81789,174
65.1487,-58.9812,-1.83691,174
65.8099,-58.82,-1.86629,174
67.0371,-58.3433,-1.92146,174
66.739,-57.2586,-1.91731,174
66.5388,-56.3138,-1.91588,174
68.3596,-57.0769,-1.98475,174
68.5544,-56.4541,-1.99661,174
67.2327,-54.7054,-1.95424,0
66.303,-53.3532,-1.92491,0
65.235,-51.9898,-1.8899,0
54.2417,-44.2517,-1.49633,174
64.4309,-50.3479,-1.86611,0
64.3424,-49.772,-1.86501,0
64.2548,-49.2155,-1.86364,0
64.1274,-48.6555,-1.86056,0
64.0374,-48.1329,-1.85857,0
63.9822,-47.6425,-1.85762,0
63.9263,-47.1644,-1.85641,0
58.2462,-44.3292,-1.64831,174
57.9856,-43.9397,-1.63901,174
57.9733,-43.6603,-1.6387,174
57.992,-43.3967,-1.6394,174
58.0981,-43.1643,-1.6432,174
58.2953,-42.9573,-1.65022,174
64.367,-44.337,-1.87285,0
64.4773,-43.9564,-1.87617,0
64.5187,-43.5596,-1.87676,0
64.651,-43.1831,-1.88049,0
64.8111,-42.8091,-1.88504,0
64.0391,-42.287,-1.85541,174
65.1169,-42.0462,-1.89297,0
65.2644,-41.6575,-1.89641,0
65.0255,-41.2308,-1.88567,174
32.157,-62.7169,0.0576887,0
33.0703,-62.4123,-0.00896435,174
32.8717,-63.9171,0.0218391,0
33.2527,-64.5198,0.00277657,0
34.4368,-63.6524,-0.0880453,174
34.0485,-65.7604,-0.0362713,0
34.4523,-66.425,-0.0551873,0
37.104,-62.1555,-0.285664,174
44.7932,-61.4561,-0.782553,174
46.2575,-50.6297,-1.02678,174
46.5063,-50.5752,-1.0423,174
64.9192,-59.2681,-1.82458,174
65.3056,-58.8209,-1.84496,174
65.4807,-56.5861,-1.87041,174
67.2864,-57.4447,-1.93845,174
66.7223,-56.1849,-1.92425,174
68.3597,-56.7774,-1.98672,174
67.887,-55.6465,-1.97481,0
66.9239,-54.2129,-1.94478,0
65.7466,-52.7173,-1.90631,0
64.9555,-51.5786,-1.88096,0
54.2507,-44.1729,-1.49704,174
64.397,-50.1256,-1.86572,0
64.3089,-49.5573,-1.86451,0
64.2116,-49.0023,-1.86269,0
64.0759,-48.4451,-1.8592,0
64.0164,-47.9441,-1.85824,0
63.9609,-47.4585,-1.85719,0
63.9047,-46.9849,-1.8559,0
58.1073,-44.162,-1.64333,174
57.9638,-43.8258,-1.63828,174
57.9805,-43.5593,-1.63898,174
58.0144,-43.302,-1.6402,174
58.1675,-43.0841,-1.64568,174
58.4167,-42.8898,-1.65456,174
64.3018,-44.1636,-1.87018,174
64.497,-43.8055,-1.87656,0
64.5517,-43.4123,-1.87757,0
64.7123,-43.0408,-1.88225,0
64.107,-42.5362,-1.85879,174
64.2925,-42.1775,-1.86404,174
65.1733,-41.8983,-1.8943,0
65.3206,-41.5078,-1.89767,0
65.0248,-41.0781,-1.88481,174
32.29,-62.9432,0.0509504,0
32.6457,-63.543,0.0331086,0
33.0159,-64.1461,0.0146027,0
34.0985,-63.4908,-0.0669901,174
33.7983,-65.3706,-0.0241228,0
34.2011,-66.0125,-0.0434539,0
34.6161,-66.6703,-0.0630779,0
37.2335,-62.3817,-0.291392,174
43.6345,-68.214,-0.615352,174
44.9743,-61.515,-0.792539,174
46.3558,-50.5732,-1.03344,174
46.5947,-50.6508,-1.0464,174
55.279,-65.9215,-1.29641,174
65.0603,-59.0898,-1.83219,174
65.5261,-58.7271,-1.8551,174
67.4402,-57.2762,-1.94596,174
68.7187,-57.5631,-1.99608,174
68.466,-56.5662,-1.99235,174
67.4298,-55.0204,-1.96027,0
66.5584,-53.6907,-1.93319,0
65.4135,-52.2527,-1.89559,0
54.3161,-44.3533,-1.49877,174
54.3503,-44.1517,-1.50101,174
64.3633,-49.9062,-1.86529,0
64.2755,-49.3452,-1.86398,0
64.1595,-48.787,-1.86138,0
64.0503,-48.2506,-1.85876,0
63.9953,-47.7571,-1.85787,0
63.9395,-47.2762,-1.85673,0
58.1976,-44.3768,-1.64644,174
58.0379,-44.0262,-1.64088,174
57.9688,-43.723,-1.63851,174
57.9876,-43.4587,-1.63925,174
58.0554,-43.2135,-1.64167,174
58.2405,-43.0042,-1.64827,174
64.3407,-44.4268,-1.87204,0
64.4514,-44.0463,-1.87541,0
64.5105,-43.6534,-1.8767,0
64.613,-43.2709,-1.87939,0
64.7734,-42.8978,-1.88398,0
64.0114,-42.3733,-1.85475,174
65.082,-42.1373,-1.89212,0
65.2296,-41.7497,-1.89561,0
65.3768,-41.3574,-1.89889,0
65.1688,-40.9356,-1.88912,174
33.6955,-61.0212,0.113416,0
34.0424,-61.5366,0.0971174,0
34.3989,-62.0586,0.0806135,0
34.7655,-62.5877,0.0638801,0
35.1425,-63.1244,0.0469172,0
35.5351,-63.6601,0.0292023,0
36.8464,-62.2364,-0.0894968,174
37.4594,-62.2139,-0.132458,174
36.8096,-65.2539,-0.0285809,0
37.2678,-65.7781,-0.0494891,0
37.7319,-66.3293,-0.0698504,0
38.2166,-66.8692,-0.0914178,0
38.7134,-67.4245,-0.113063,0
39.2134,-68.0304,-0.133478,0
40.2601,-66.609,-0.231086,174
41.6184,-63.5472,-0.382676,174
44.641,-61.2377,-0.621144,174
46.1697,-50.6148,-0.943177,174
46.4227,-50.51,-0.960627,174
46.6539,-50.7099,-0.970013,174
55.3732,-65.705,-1.10913,174
55.9349,-65.4714,-1.14111,174
62.9694,-57.4004,-1.5885,174
65.1556,-58.9784,-1.64893,174
65.3358,-58.322,-1.66471,174
61.8747,-54.1016,-1.59297,174
66.7047,-58.0213,-1.7189,174
63.2573,-54.1151,-1.64294,174
65.7996,-55.6698,-1.71504,0
64.9327,-54.2496,-1.70072,0
64.1304,-52.9693,-1.68677,0
63.5204,-51.9126,-1.67678,0
63.1731,-51.1056,-1.67294,0
54.4428,-44.6128,-1.44008,174
54.1796,-44.2095,-1.43489,174
62.8565,-49.3683,-1.67774,0
62.7601,-48.8361,-1.67871,0
62.6764,-48.329,-1.67965,0
62.6798,-47.8843,-1.68269,0
62.6912,-47.4539,-1.68565,0
62.7002,-47.0313,-1.68823,0
62.7067,-46.6161,-1.69045,0
58.1777,-44.2989,-1.56091,174
57.9579,-43.9275,-1.55557,174
57.946,-43.6491,-1.55606,174
57.969,-43.3878,-1.5574,174
58.0587,-43.1508,-1.56051,174
58.2675,-42.9483,-1.56696,174
63.0325,-43.9742,-1.70681,0
63.0721,-43.6081,-1.70797,0
59.2035,-42.3698,-1.59438,174
63.319,-42.9157,-1.71449,0
63.4606,-42.5693,-1.71792,0
63.597,-42.2185,-1.72095,0
63.7287,-41.8635,-1.7236,0
63.859,-41.5045,-1.72595,0
63.9881,-41.1414,-1.72801,0
33.4871,-60.7038,0.12326,0
33.8269,-61.2173,0.10722,0
34.1774,-61.7352,0.090843,0
34.5377,-62.2598,0.0742512,0
34.9082,-62.7918,0.057425,0
35.2895,-63.3314,0.0403693,0
35.6891,-63.8645,0.022259,0
37.1444,-62.0896,-0.113037,174
37.5474,-62.5417,-0.132172,174
36.9836,-65.4522,-0.0365887,0
37.4434,-65.9876,-0.0572283,0
37.9151,-66.5355,-0.0780047,0
38.4056,-67.0769,-0.099782,0
38.9023,-67.6545,-0.120812,0
39.4078,-68.2696,-0.141218,0
41.2912,-63.4645,-0.363352,174
41.821,-63.5968,-0.394608,174
44.3232,-61.3589,-0.599101,174
44.8222,-61.2779,-0.631306,174
46.2696,-50.545,-0.950705,174
46.5141,-50.526,-0.965723,174
46.7282,-51.1479,-0.964873,174
55.0801,-66.0351,-1.08802,174
55.5844,-65.6043,-1.12146,174
64.9227,-59.2615,-1.63613,174
65.3181,-58.8241,-1.65718,174
67.41,-60.1067,-1.71766,174
63.6416,-55.5688,-1.63865,174
63.0606,-54.3376,-1.63314,174
65.5256,-55.1648,-1.7112,0
64.5897,-53.7213,-1.69459,0
63.8477,-52.5197,-1.68175,0
63.3852,-51.5975,-1.67532,0
63.0717,-50.8302,-1.67214,0
54.2226,-44.3757,-1.43487,174
54.2193,-44.1511,-1.43669,174
62.8195,-49.1627,-1.67816,0
62.7234,-48.6377,-1.67898,0
62.6715,-48.1544,-1.68067,0
62.6845,-47.719,-1.68386,0
62.695,-47.2916,-1.68667,0
62.703,-46.8719,-1.68912,0
58.1909,-44.4832,-1.56055,174
58.0692,-44.145,-1.55818,174
57.9381,-43.8147,-1.55533,174
57.9532,-43.5484,-1.55655,174
57.9927,-43.2938,-1.5583,174
58.1277,-43.0709,-1.56268,174
58.3883,-42.881,-1.57058,174
63.048,-43.8342,-1.70729,0
63.087,-43.4688,-1.70835,0
59.3349,-42.2912,-1.59811,174
63.3732,-42.7838,-1.71584,0
63.5145,-42.436,-1.71917,0
63.6473,-42.0833,-1.722,0
63.7787,-41.7268,-1.72454,0
63.9085,-41.3663,-1.72678,0
64.037,-41.0015,-1.72873,0
33.6151,-60.9004,0.117235,0
33.9597,-61.4143,0.100985,0
34.3138,-61.9347,0.0845295,0
34.678,-62.4621,0.0678449,0
35.0525,-62.997,0.0509406,0
35.4407,-63.5343,0.0334895,0
35.8448,-64.07,0.0152619,0
37.3406,-62.1632,-0.12522,174
36.703,-65.1317,-0.023659,0
37.1595,-65.6515,-0.0446209,0
37.6211,-66.1984,-0.0650115,0
38.1008,-66.7414,-0.0862762,0
38.5969,-67.2858,-0.1082,0
39.0939,-67.8863,-0.12862,0
40.1419,-66.484,-0.22602,174
41.4939,-63.5134,-0.37539,174
41.5317,-69.0318,-0.261368,174
44.5227,-61.2634,-0.613372,174
46.1071,-50.6584,-0.938458,174
46.3648,-50.5188,-0.956975,174
46.6013,-50.6169,-0.968919,174
55.2399,-65.759,-1.10152,174
55.7459,-65.3556,-1.13434,174
64.6901,-59.547,-1.62316,174
65.0667,-59.0864,-1.64407,174
65.5578,-58.7501,-1.66716,174
67.6434,-59.9943,-1.72777,174
67.7446,-59.2051,-1.7417,174
63.2487,-54.2606,-1.64086,174
65.1533,-54.5898,-1.70464,0
64.3113,-53.2574,-1.68996,0
63.6057,-52.1118,-1.67767,0
63.2531,-51.2909,-1.67386,0
63.0515,-50.6158,-1.67345,0
54.1849,-44.2651,-1.43458,174
54.2835,-44.1081,-1.43915,174
62.7827,-48.96,-1.67851,0
62.687,-48.442,-1.6792,0
62.6767,-47.9871,-1.68194,0
62.6888,-47.5548,-1.68498,0
62.6984,-47.1304,-1.68765,0
62.7055,-46.7135,-1.68995,0
58.1601,-44.3593,-1.56013,174
57.9768,-44.0005,-1.55589,174
57.9415,-43.7116,-1.55575,174
57.9604,-43.4481,-1.557,174
58.0293,-43.2041,-1.55955,174
58.2009,-42.9915,-1.56495,174
58.6339,-42.8464,-1.57784,174
63.063,-43.6944,-1.70773,0
59.2177,-42.4393,-1.59485,174
63.2853,-42.9969,-1.71364,0
63.4273,-42.6514,-1.71715,0
63.5655,-42.3018,-1.72028,0
63.6977,-41.9477,-1.723,0
63.8284,-41.5896,-1.72543,0
63.9578,-41.2275,-1.72757,0
64.1252,-40.8637,-1.73052,0
34.8409,-59.2341,0.165081,0
35.1598,-59.7046,0.151693,0
35.4955,-60.1671,0.137259,0
35.8458,-60.6245,0.122025,0
36.2113,-61.075,0.105921,0
37.3551,-59.9542,-0.00656124,174
36.9691,-61.9933,0.0734602,0
37.5332,-62.0682,0.0346033,174
37.8577,-62.7125,0.0281795,174
38.1808,-63.4194,0.023924,0
38.6315,-63.8406,0.00357735,0
39.0928,-64.2642,-0.0169939,0
39.5555,-64.7226,-0.036242,0
40.0294,-65.1904,-0.0555291,0
40.5206,-65.6486,-0.0757586,0
41.6873,-63.2984,-0.21848,174
42.1907,-63.5284,-0.244966,174
42.0957,-66.9577,-0.142064,174
42.6175,-67.5886,-0.157502,0
43.18,-68.1045,-0.178249,0
44.663,-61.1299,-0.470096,174
46.1825,-50.5302,-0.867765,174
46.4312,-50.4562,-0.884977,174
46.6619,-50.6453,-0.893319,174
46.4124,-66.7517,-0.413247,174
50.3774,-64.6007,-0.696747,174
55.326,-65.5197,-0.916944,174
55.8628,-65.2261,-0.949745,174
62.6202,-57.7943,-1.39946,174
62.8823,-57.2927,-1.41834,174
64.8899,-58.6822,-1.45766,174
59.9607,-52.7814,-1.40929,174
60.4173,-52.6603,-1.42609,174
63.5499,-55.043,-1.48188,0
62.9267,-53.8108,-1.4839,0
62.4773,-52.8036,-1.48704,0
61.9798,-51.8145,-1.48808,0
61.7405,-51.0857,-1.4923,0
61.6558,-50.5084,-1.49838,0
61.5922,-49.9689,-1.50419,0
54.2121,-44.4533,-1.37346,174
54.144,-44.1845,-1.37504,174
54.3078,-44.0701,-1.38082,174
61.4816,-48.0798,-1.52474,0
61.5112,-47.6742,-1.52987,0
61.5375,-47.2756,-1.53453,0
61.5605,-46.8835,-1.53876,0
58.2326,-44.909,-1.47283,174
58.2102,-44.6019,-1.47469,174
58.0729,-44.2534,-1.47385,174
57.9304,-43.9154,-1.47259,174
57.9189,-43.6379,-1.47388,174
57.9469,-43.3792,-1.47579,174
58.0301,-43.1407,-1.47869,174
58.2399,-42.9394,-1.48415,174
61.8548,-43.6541,-1.56403,0
61.9304,-43.325,-1.56631,0
59.1892,-42.3662,-1.50641,174
62.162,-42.6834,-1.57181,0
62.2749,-42.3588,-1.57411,0
62.386,-42.0314,-1.57606,0
62.4969,-41.7014,-1.57775,0
62.6116,-41.3687,-1.57923,0
62.7244,-41.0324,-1.58037,0
34.6482,-58.9459,0.173289,0
34.9616,-59.4132,0.159988,0
35.284,-59.8857,0.146546,0
35.6282,-60.3413,0.131458,0
35.9827,-60.7991,0.116082,0
37.0692,-59.8313,0.0114112,174
37.4922,-60.1127,-0.0125953,174
37.1759,-62.0434,0.0597588,174
37.7071,-62.1901,0.02528,174
37.9097,-63.1541,0.0360676,0
38.3516,-63.58,0.0161799,0
38.8064,-64.0021,-0.00425957,0
39.269,-64.4359,-0.0244598,0
39.735,-64.9007,-0.043576,0
40.214,-65.3704,-0.0629705,0
41.3479,-63.2795,-0.196583,174
41.8841,-63.3636,-0.229578,174
41.8781,-66.11,-0.151973,174
42.277,-67.2829,-0.144489,0
42.8322,-67.7726,-0.165851,0
44.3478,-61.2436,-0.447277,174
46.0191,-50.6433,-0.8545,174
46.28,-50.479,-0.875177,174
46.5214,-50.4844,-0.88958,174
46.7377,-51.0399,-0.886421,174
50.5769,-64.4827,-0.710662,174
55.0463,-65.8852,-0.89384,174
55.484,-65.2599,-0.931365,174
64.7305,-61.8493,-1.38825,174
62.7349,-57.6179,-1.4069,174
64.9357,-59.2652,-1.44787,174
65.3339,-58.8308,-1.46933,174
60.0373,-52.638,-1.41441,174
62.0054,-53.9777,-1.45245,174
62.9923,-54.2674,-1.47808,174
62.7118,-53.3807,-1.48459,0
62.2852,-52.417,-1.48756,0
61.8218,-51.478,-1.48869,0
61.6945,-50.8518,-1.49447,0
61.6316,-50.3,-1.50068,0
61.5677,-49.768,-1.50626,0
54.132,-44.3131,-1.37309,174
54.1882,-44.1296,-1.37691,174
61.4616,-48.3341,-1.52134,0
61.4933,-47.924,-1.52675,0
61.5216,-47.5212,-1.5317,0
61.5467,-47.1251,-1.53619,0
61.5577,-46.73,-1.54004,0
61.5394,-46.3295,-1.54292,0
58.1391,-44.4591,-1.47401,174
58.0769,-44.1468,-1.47464,174
57.9126,-43.8036,-1.47282,174
57.9261,-43.5375,-1.47456,174
57.9712,-43.2856,-1.47676,174
58.0882,-43.0578,-1.48032,174
58.3601,-42.8721,-1.48707,174
61.87,-43.5248,-1.56464,0
59.2485,-42.5537,-1.50757,174
59.3083,-42.2851,-1.50908,174
62.2053,-42.5597,-1.57273,0
62.3175,-42.2341,-1.5749,0
62.428,-41.9056,-1.57673,0
62.5409,-41.5747,-1.57836,0
62.6548,-41.2407,-1.5797,0
62.7924,-40.9049,-1.58128,0
34.7669,-59.1238,0.168226,0
35.0837,-59.5931,0.154871,0
35.4141,-60.0596,0.140828,0
35.7623,-60.5161,0.125638,0
36.1237,-60.9694,0.109803,0
37.2704,-59.8579,-0.00276249,174
36.8801,-61.8785,0.0770002,0
37.4211,-62.0044,0.0410316,174
37.8429,-62.4061,0.0212043,174
38.0758,-63.3203,0.0286945,0
38.5241,-63.741,0.0083918,0
38.9829,-64.1639,-0.0121209,0
39.4455,-64.6129,-0.0317303,0
39.9163,-65.0795,-0.0509441,0
40.4043,-65.5367,-0.0711102,0
41.561,-63.2781,-0.210718,174
42.0758,-63.4536,-0.239585,174
42.1033,-66.1534,-0.165289,174
42.4867,-67.4716,-0.152516,0
43.048,-67.9658,-0.173928,0
44.5454,-61.1551,-0.462092,174
46.1205,-50.5731,-0.862744,174
46.3736,-50.4649,-0.88125,174
46.6078,-50.5833,-0.891887,174
46.271,-66.7237,-0.405754,174
50.784,-64.428,-0.723098,174
55.2206,-65.6611,-0.90816,174
55.6798,-65.1245,-0.944084,174
63.938,-59.5561,-1.4085,174
62.8061,-57.3936,-1.41379,174
64.7973,-58.783,-1.45268,174
65.6685,-58.8554,-1.47972,174
60.3348,-52.7153,-1.42247,174
63.7363,-55.383,-1.4817,0
63.0638,-54.0855,-1.48343,0
62.5486,-53.0058,-1.48588,0
62.0945,-52.0403,-1.4879,0
61.7714,-51.2341,-1.49095,0
61.6706,-50.6386,-1.49692,0
61.6073,-50.0945,-1.50288,0
54.2795,-44.5538,-1.374,174
54.1238,-44.2231,-1.37401,174
54.2509,-44.086,-1.37911,174
61.4741,-48.1765,-1.52347,0
61.5045,-47.7693,-1.52869,0
61.5316,-47.3691,-1.53347,0
61.5555,-46.9755,-1.5378,0
61.5509,-46.576,-1.54119,0
61.5317,-46.1786,-1.5439,0
58.1517,-44.3543,-1.47506,174
57.9491,-43.9881,-1.4726,174
57.9144,-43.7002,-1.47344,174
57.9351,-43.4382,-1.47525,174
58.0076,-43.1961,-1.47796,174
58.1666,-42.9803,-1.48236,174
58.5052,-42.8101,-1.4905,174
61.9026,-43.4001,-1.56558,0
59.1566,-42.4248,-1.50565,174
62.135,-42.7596,-1.57123,0
62.2484,-42.4357,-1.57359,0
62.36,-42.109,-1.57563,0
62.4697,-41.7794,-1.57735,0
62.5847,-41.4475,-1.5789,0
62.6979,-41.1121,-1.58012,0
62.8691,-40.7771,-1.58231,0
35.832,-57.6874,0.205926,0
36.1469,-58.0856,0.192381,0
36.4684,-58.4881,0.17889,0
36.7983,-58.8928,0.165291,0
37.1366,-59.3,0.151556,0
37.501,-59.6752,0.135323,174
37.842,-60.1199,0.123519,0
38.2169,-60.5153,0.108065,0
38.6077,-60.8971,0.0914728,0
39.0042,-61.2893,0.0752961,0
39.4108,-61.6832,0.0589436,0
39.8277,-62.0789,0.0424006,0
40.2556,-62.4758,0.025633,0
40.6995,-62.8578,0.00774727,0
41.1545,-63.2406,-0.0103631,0
41.7276,-63.1706,-0.0517156,174
43.7117,-56.3855,-0.422454,174
42.733,-63.6359,-0.102256,174
43.4046,-62.9011,-0.17201,174
44.1624,-61.2976,-0.277677,174
45.931,-50.6282,-0.770552,174
46.1951,-50.4469,-0.793481,174
46.4397,-50.4029,-0.810046,174
46.6682,-50.6115,-0.816313,174
46.427,-66.6358,-0.224285,174
47.017,-67.9077,-0.212844,0
47.6555,-68.6234,-0.223664,0
48.3338,-69.544,-0.228718,0
50.3808,-64.5477,-0.519027,174
50.9193,-64.3777,-0.552878,174
55.2833,-65.3495,-0.727143,174
55.8174,-65.0607,-0.760479,174
55.9607,-62.1377,-0.864468,174
62.4985,-59.3518,-1.18486,174
63.7655,-59.1313,-1.22881,174
64.8178,-59.4597,-1.25097,174
61.9605,-55.522,-1.2678,0
59.9428,-52.7562,-1.27889,174
60.4827,-52.718,-1.29429,174
60.5653,-52.2278,-1.30764,0
60.4845,-51.607,-1.31927,0
60.4035,-51.014,-1.32991,0
60.3678,-50.4839,-1.33996,0
60.3718,-50.0057,-1.34956,0
60.3723,-49.5412,-1.35844,0
60.3696,-49.0896,-1.36666,0
54.1042,-44.3777,-1.31208,174
54.1134,-44.1628,-1.31587,174
54.2648,-44.0418,-1.32096,174
60.423,-47.4534,-1.39455,0
56.2676,-44.7398,-1.35088,174
60.4323,-46.6869,-1.40536,0
60.432,-46.3146,-1.41004,0
58.2019,-44.8927,-1.38548,174
58.1433,-44.5703,-1.38792,174
57.9742,-44.2104,-1.38852,174
57.903,-43.9033,-1.39007,174
57.8919,-43.6269,-1.39215,174
57.9248,-43.3706,-1.39455,174
58.0084,-43.1329,-1.39743,174
58.2124,-42.9304,-1.40179,174
60.8744,-43.3876,-1.44159,0
59.2889,-42.6714,-1.41961,174
59.1879,-42.3654,-1.41888,174
61.1948,-42.4891,-1.44884,0
61.2973,-42.1852,-1.45059,0
61.3978,-41.8787,-1.45201,0
61.4962,-41.5696,-1.45307,0
61.5925,-41.2578,-1.4538,0
61.6934,-40.9435,-1.45428,0
35.6337,-57.4538,0.215189,0
35.9521,-57.838,0.200662,0
36.2687,-58.2391,0.187244,0
36.5934,-58.6424,0.173709,0
36.9265,-59.0481,0.160057,0
37.2683,-59.4562,0.146278,0
37.6192,-59.8671,0.132366,0
37.9828,-60.2734,0.117821,0
38.3658,-60.6592,0.101634,0
38.7579,-61.0467,0.0853156,0
39.2215,-61.2698,0.0588395,174
39.5688,-61.8341,0.0526447,0
39.9898,-62.2306,0.0360334,0
40.4239,-62.6216,0.0188166,0
40.872,-63.0039,0.000862503,0
41.3854,-63.1701,-0.028546,174
41.9332,-63.1916,-0.0648239,174
43.8728,-56.3213,-0.435402,174
42.8996,-63.881,-0.104483,174
43.3759,-64.3768,-0.117726,174
44.3722,-61.1295,-0.296998,174
46.0331,-50.5582,-0.779441,174
46.2893,-50.4255,-0.800049,174
46.528,-50.4515,-0.813649,174
46.7469,-50.938,-0.809242,174
46.6369,-67.5279,-0.204435,0
47.2571,-68.1452,-0.218127,0
47.9096,-68.9701,-0.225558,0
50.5799,-64.43,-0.533563,174
55.0232,-65.7717,-0.70106,174
55.4231,-65.0385,-0.743931,174
56.1385,-65.2907,-0.766654,174
62.6966,-60.1831,-1.16845,174
64.6844,-61.7777,-1.18688,174
64.5855,-59.7478,-1.23698,174
64.2884,-58.5392,-1.2589,0
61.6377,-54.9132,-1.27365,0
60.0047,-52.5984,-1.28431,174
60.6151,-52.6263,-1.29992,0
60.5345,-51.9873,-1.3122,0
60.4536,-51.3773,-1.32344,0
60.3812,-50.8017,-1.33379,0
60.3698,-50.2996,-1.34372,0
60.3724,-49.8267,-1.35303,0
60.3716,-49.3672,-1.36166,0
54.2635,-44.6295,-1.31117,174
54.0712,-44.2704,-1.31319,174
54.1574,-44.1082,-1.31768,174
60.4174,-47.6965,-1.3908,0
60.4258,-47.3047,-1.39677,0
60.4308,-46.9206,-1.40222,0
60.4326,-46.5439,-1.40719,0
60.431,-46.1741,-1.41171,0
58.1886,-44.7727,-1.38657,174
58.1163,-44.4476,-1.3887,174
57.952,-44.0941,-1.38922,174
57.8871,-43.7926,-1.39074,174
57.8992,-43.5268,-1.39302,174
57.9497,-43.2775,-1.39558,174
58.049,-43.0447,-1.39858,174
58.332,-42.8633,-1.404,174
60.9162,-43.2742,-1.44268,0
59.1836,-42.5377,-1.41839,174
59.2929,-42.2813,-1.42063,174
61.2341,-42.3733,-1.44955,0
61.3359,-42.0684,-1.45117,0
61.4356,-41.761,-1.45246,0
61.5332,-41.4508,-1.4534,0
61.6288,-41.1379,-1.45399,0
61.7429,-40.8235,-1.45454,0
35.7559,-57.5981,0.209461,0
36.0721,-57.9909,0.19555,0
36.3917,-58.3928,0.182083,0
36.7196,-58.7971,0.168509,0
37.056,-59.2037,0.154813,0
37.4032,-59.6091,0.140737,174
37.7556,-60.0249,0.127015,0
38.1255,-60.4265,0.112039,0
38.5155,-60.8047,0.0952717,0
38.9097,-61.1965,0.079134,0
39.3734,-61.4257,0.0530276,174
39.7284,-61.9853,0.0463264,0
40.1534,-62.3825,0.0296467,0
40.5938,-62.7675,0.0119855,0
41.0459,-63.1502,-0.00605644,0
41.6016,-63.1518,-0.043857,174
43.6049,-56.4544,-0.412916,174
42.6182,-63.5545,-0.0975924,174
42.9748,-64.6822,-0.0809978,0
43.5832,-64.428,-0.129188,174
44.5644,-61.0756,-0.311051,174
46.1337,-50.4891,-0.788167,174
46.3824,-50.4115,-0.806245,174
46.6142,-50.5499,-0.815297,174
46.8246,-51.447,-0.795496,174
46.8706,-67.762,-0.209611,0
47.5016,-68.412,-0.222507,0
48.1698,-69.3228,-0.227502,0
50.0452,-68.1748,-0.37143,174
50.555,-67.0846,-0.437406,174
50.7848,-64.3636,-0.546489,174
55.2121,-65.5988,-0.715462,174
55.6416,-64.9777,-0.755601,174
55.8301,-62.1506,-0.858573,174
64.8657,-62.6501,-1.16898,174
64.576,-61.2608,-1.19734,174
63.9452,-59.5533,-1.22321,174
64.7317,-59.5725,-1.24566,174
62.1693,-55.9168,-1.26396,0
61.3445,-54.3514,-1.2791,0
60.1944,-52.5692,-1.29008,174
60.5843,-52.3786,-1.30474,0
60.5037,-51.751,-1.31662,0
60.4227,-51.1515,-1.32749,0
60.3718,-50.6034,-1.33763,0
60.3712,-50.1173,-1.34736,0
60.3725,-49.6497,-1.3564,0
60.3705,-49.195,-1.36478,0
54.1639,-44.472,-1.31175,174
54.0863,-44.1966,-1.31475,174
54.2187,-44.0642,-1.31966,174
60.421,-47.5459,-1.39315,0
60.4281,-47.1571,-1.39891,0
60.4319,-46.7759,-1.40418,0
60.4323,-46.4018,-1.40898,0
58.2314,-44.9777,-1.38505,174
58.2608,-44.6927,-1.38874,174
58.099,-44.3303,-1.38955,174
57.9216,-43.9757,-1.38976,174
57.8886,-43.6894,-1.3916,174
57.913,-43.4294,-1.39395,174
57.986,-43.1882,-1.39673,174
58.1394,-42.9714,-1.40042,174
58.4536,-42.7951,-1.40621,174
60.9577,-43.1606,-1.44372,0
59.1507,-42.423,-1.41818,174
59.456,-42.2078,-1.4232,174
61.2733,-42.2572,-1.4502,0
61.3742,-41.9513,-1.4517,0
61.4731,-41.6429,-1.45286,0
61.5699,-41.3316,-1.45367,0
61.6648,-41.0175,-1.45413,0
61.7923,-40.7028,-1.45474,0
36.6844,-56.3571,0.239905,0
36.9904,-56.7019,0.226419,0
37.2941,-57.0629,0.214232,0
37.6055,-57.4251,0.201951,0
37.9325,-57.7733,0.188382,0
38.2645,-58.1275,0.175159,0
38.5996,-58.4932,0.162635,0
38.9481,-58.8491,0.149193,0
39.3054,-59.2061,0.135643,0
39.6804,-59.5407,0.120379,0
40.0641,-59.8746,0.104969,0
40.4643,-60.185,0.0879133,0
40.8702,-60.5021,0.071258,0
41.2781,-60.8423,0.0559553,0
41.6985,-61.1726,0.0399152,0
42.1288,-61.5026,0.0237141,0
43.7541,-56.2187,-0.309918,174
43.0226,-62.1494,-0.00982109,0
43.4871,-62.4598,-0.0274725,0
44.2102,-61.0255,-0.13584,174
45.9458,-50.5432,-0.696136,174
46.2055,-50.3862,-0.719246,174
46.4477,-50.3553,-0.735568,174
46.6745,-50.5779,-0.739742,174
46.5362,-63.3493,-0.179551,174
47.0536,-64.6079,-0.155407,0
47.5999,-64.0261,-0.211903,174
48.1874,-65.2552,-0.191823,0
48.6389,-63.2487,-0.303376,174
49.4127,-66.27,-0.21485,0
50.0773,-66.9211,-0.221965,0
50.3935,-64.5678,-0.339322,174
50.9246,-64.3458,-0.375709,174
52.3249,-69.208,-0.237844,0
52.6482,-67.3849,-0.330819,174
54.8879,-66.0993,-0.486853,174
55.2507,-65.212,-0.53889,174
55.8115,-65.0121,-0.5705,174
55.9482,-62.0814,-0.693865,174
60.8783,-64.3932,-0.782284,174
62.4058,-64.4839,-0.827973,174
62.2445,-59.9271,-0.9811,0
60.4145,-56.6564,-1.03963,0
59.8572,-55.2127,-1.07169,0
59.4555,-54.0533,-1.09817,0
59.0891,-53.01,-1.12143,0
59.0496,-52.385,-1.13929,0
59.0219,-51.8029,-1.15572,0
59.0841,-51.3366,-1.17038,0
59.1405,-50.882,-1.18417,0
59.1779,-50.4264,-1.19718,0
59.2101,-49.9828,-1.20937,0
59.2375,-49.5504,-1.22079,0
59.2569,-49.126,-1.23147,0
59.2139,-48.6686,-1.24145,0
54.2527,-44.7096,-1.24789,174
54.0191,-44.3177,-1.25262,174
54.0831,-44.1414,-1.25725,174
54.2325,-44.0201,-1.26186,174
59.3286,-46.8065,-1.28183,0
56.2312,-44.7176,-1.27686,174
59.4352,-46.156,-1.29454,0
59.5002,-45.8447,-1.3003,0
58.1868,-44.8838,-1.29872,174
58.1234,-44.5599,-1.30247,174
57.9804,-44.2116,-1.30534,174
57.8758,-43.8913,-1.308,174
57.8651,-43.6158,-1.31084,174
57.9028,-43.362,-1.31367,174
57.9869,-43.1252,-1.31651,174
58.1909,-42.9233,-1.3199,174
60.0506,-43.1635,-1.33481,0
59.2973,-42.6729,-1.33098,174
59.2202,-42.3721,-1.33163,174
60.3455,-42.3186,-1.34087,0
55.6212,-41.1789,-1.30631,174
60.5308,-41.7448,-1.34316,0
60.6201,-41.4543,-1.34379,0
60.7071,-41.1614,-1.34405,0
60.8064,-40.867,-1.34406,0
36.4973,-56.1458,0.248362,0
36.8012,-56.4876,0.234666,0
37.1056,-56.8396,0.221771,0
37.4122,-57.2011,0.209554,0
37.7265,-57.5638,0.197239,0
38.0624,-57.9004,0.182708,0
38.389,-58.2722,0.170779,0
38.7316,-58.629,0.157508,0
39.0835,-58.9854,0.144031,0
39.4475,-59.3343,0.129857,0
39.8259,-59.6682,0.114505,0
40.2129,-60.0021,0.0990461,0
40.6216,-60.2961,0.0809211,0
41.0245,-60.6332,0.0655061,0
41.4376,-60.9685,0.049842,0
41.8616,-61.2987,0.0337385,0
43.4939,-56.3156,-0.288044,174
43.9074,-56.1859,-0.321697,174
43.1987,-62.268,-0.0165447,0
43.6673,-62.578,-0.0342596,0
45.7743,-50.691,-0.678838,174
46.047,-50.4743,-0.705503,174
46.2985,-50.3724,-0.725626,174
46.5346,-50.4188,-0.738141,174
46.7545,-50.8707,-0.731895,174
46.715,-64.4043,-0.144474,0
47.2656,-64.7336,-0.162214,0
47.8306,-65.0529,-0.180583,0
48.4142,-65.4531,-0.195851,0
49.0241,-65.9613,-0.207262,0
49.6615,-66.504,-0.218014,0
50.3393,-67.167,-0.225055,0
50.583,-64.3786,-0.357085,174
51.1937,-64.6906,-0.37441,174
52.3044,-67.6647,-0.302394,174
55.011,-65.695,-0.508834,174
55.4053,-64.951,-0.556075,174
56.0841,-65.1039,-0.577982,174
55.6715,-62.2852,-0.674797,174
56.3008,-62.4144,-0.694382,174
59.1302,-66.0377,-0.658992,174
62.6739,-64.4467,-0.837588,174
62.1783,-61.4327,-0.928281,174
62.0289,-59.2859,-0.996506,0
60.1625,-56.0429,-1.05292,0
59.6993,-54.755,-1.08222,0
59.1806,-53.4905,-1.10889,0
59.0746,-52.768,-1.12841,0
59.0335,-52.1534,-1.14577,0
59.0464,-51.6233,-1.16143,0
59.1064,-51.1616,-1.17576,0
59.1554,-50.7066,-1.18924,0
59.1908,-50.2556,-1.20193,0
59.2212,-49.8163,-1.21382,0
59.2468,-49.3881,-1.22495,0
59.2409,-48.9495,-1.23537,0
59.1967,-48.4979,-1.24505,0
54.153,-44.5498,-1.24977,174
54.0132,-44.2298,-1.25437,174
54.1269,-44.087,-1.259,174
59.3142,-47.0237,-1.27759,0
59.3366,-46.6734,-1.28436,0
56.1756,-44.5872,-1.27836,174
59.4595,-46.0363,-1.29679,0
59.5262,-45.7275,-1.30239,0
55.7456,-43.6379,-1.28776,174
58.0969,-44.4376,-1.30378,174
57.9243,-44.0814,-1.30631,174
57.8618,-43.7817,-1.30906,174
57.8724,-43.516,-1.31191,174
57.9283,-43.2693,-1.31474,174
58.0231,-43.0359,-1.31754,174
58.3114,-42.8567,-1.32142,174
60.0893,-43.0569,-1.33576,0
59.189,-42.5385,-1.33069,174
59.2941,-42.2811,-1.33255,174
60.3816,-42.2097,-1.34141,0
60.4745,-41.9231,-1.3426,0
60.5652,-41.6341,-1.34344,0
60.6535,-41.3427,-1.34393,0
60.7397,-41.0488,-1.34405,0
60.8505,-40.7542,-1.34402,0
36.6127,-56.2764,0.243133,0
36.9189,-56.6182,0.229422,0
37.2218,-56.9776,0.217112,0
37.5312,-57.3395,0.204857,0
37.8527,-57.6947,0.191888,0
38.188,-58.0383,0.17786,0
38.5185,-58.4092,0.165784,0
38.8651,-58.765,0.152371,0
39.2202,-59.1217,0.138846,0
39.591,-59.4618,0.124002,0
39.9727,-59.7957,0.108616,0
40.3676,-60.1161,0.0922346,0
40.7755,-60.4211,0.0748029,0
41.1802,-60.7642,0.0597248,0
41.5984,-61.0947,0.0437092,0
42.0262,-61.4248,0.027552,0
43.6567,-56.2487,-0.302015,174
44.031,-56.3005,-0.325186,174
43.3765,-62.3866,-0.0232928,0
44.0566,-61.2897,-0.114595,174
45.8825,-50.5862,-0.690259,174
46.1467,-50.4064,-0.714696,174
46.391,-50.3586,-0.731942,174
46.6206,-50.5166,-0.739137,174
46.8335,-51.3332,-0.71661,174
46.9237,-64.5302,-0.151222,0
47.472,-64.0305,-0.204429,174
48.0152,-64.0665,-0.233577,174
48.5193,-63.3332,-0.293185,174
48.9747,-62.3744,-0.359262,174
49.917,-66.7608,-0.220451,0
50.5491,-66.9437,-0.245453,174
50.7889,-64.3222,-0.369904,174
52.1274,-68.9801,-0.237844,0
52.4984,-67.3904,-0.323401,174
55.1748,-65.443,-0.5262,174
55.6548,-64.9861,-0.565067,174
55.8202,-62.1001,-0.688091,174
60.7246,-64.421,-0.776155,174
62.3669,-61.3111,-0.937854,174
62.382,-60.3384,-0.971159,0
60.5771,-57.0534,-1.03096,0
59.9577,-55.5054,-1.06491,0
59.547,-54.3158,-1.09222,0
59.0978,-53.1616,-1.11701,0
59.0594,-52.53,-1.1352,0
59.0168,-51.9256,-1.15206,0
59.07,-51.4456,-1.167,0
59.1277,-50.9883,-1.18099,0
59.1695,-50.5329,-1.19418,0
59.2029,-50.0864,-1.20657,0
59.2315,-49.6515,-1.21816,0
59.2554,-49.2273,-1.22901,0
59.2243,-48.7752,-1.23916,0
54.3164,-44.8116,-1.24667,174
54.0571,-44.3963,-1.25154,174
54.0561,-44.175,-1.25616,174
54.1868,-44.0425,-1.26076,174
59.3233,-46.8892,-1.28024,0
56.2912,-44.8138,-1.27599,174
56.2847,-44.5474,-1.28045,174
59.4839,-45.9174,-1.29897,0
58.2466,-44.9832,-1.29799,174
58.1675,-44.6487,-1.30178,174
58.0349,-44.3015,-1.30482,174
57.8942,-43.9634,-1.30737,174
57.8634,-43.6788,-1.31018,174
57.8911,-43.4207,-1.31301,174
57.9645,-43.1803,-1.31584,174
58.1175,-42.964,-1.31894,174
58.4339,-42.7889,-1.32294,174
59.3801,-42.7612,-1.33124,174
59.1784,-42.4288,-1.33107,174
59.4113,-42.1981,-1.33374,174
60.4173,-42.1005,-1.34191,0
60.5094,-41.813,-1.34296,0
60.5991,-41.5231,-1.34367,0
60.6867,-41.2308,-1.34402,0
60.7789,-40.9364,-1.34406,0
60.8945,-40.6408,-1.34393,0
37.4522,-55.158,0.264222,0
37.7262,-55.4947,0.254168,0
38.0156,-55.8175,0.242718,0
38.3236,-56.119,0.229285,0
38.6381,-56.419,0.215765,0
38.9592,-56.7179,0.202191,0
39.2801,-57.0308,0.189808,0
39.5977,-57.368,0.17932,0
39.9239,-57.706,0.168753,0
40.2598,-58.0422,0.157889,0
40.6226,-58.3281,0.143128,0
41.0009,-58.5881,0.126531,0
41.386,-58.8455,0.109866,0
41.778,-59.1002,0.093133,0
42.1673,-59.39,0.078885,0
43.3657,-56.2576,-0.159441,174
44.5455,-52.4954,-0.426783,174
44.1274,-56.3071,-0.209978,174
43.8157,-60.5212,0.019925,0
45.6907,-50.6413,-0.596185,174
45.9603,-50.4594,-0.622825,174
46.214,-50.3442,-0.644783,174
46.4527,-50.3479,-0.659523,174
46.6807,-50.5445,-0.663594,174
46.5859,-61.9892,-0.0812762,0
47.0809,-62.228,-0.0982684,0
47.5565,-60.503,-0.212536,174
48.0992,-62.6176,-0.136388,0
48.6251,-62.8569,-0.153146,0
49.1655,-63.1263,-0.168522,0
49.7172,-63.3701,-0.185095,0
50.289,-63.6662,-0.199391,0
50.8684,-63.904,-0.216301,0
51.4613,-64.1353,-0.233498,0
52.1377,-64.7175,-0.236559,0
52.8361,-65.2544,-0.242155,0
53.5795,-65.8496,-0.246164,0
54.3012,-66.2331,-0.258786,0
54.1547,-63.5333,-0.383049,174
54.3595,-62.3425,-0.448527,174
55.8249,-65.0205,-0.379192,174
55.9387,-62.0331,-0.523765,174
56.6733,-62.4113,-0.532716,174
57.5916,-60.5688,-0.646981,174
59.0752,-61.1104,-0.668854,0
58.7981,-59.5516,-0.727682,0
58.1831,-57.5676,-0.794343,0
58.2473,-56.8053,-0.827761,0
58.3017,-56.0766,-0.858952,0
58.1051,-55.0376,-0.895832,0
57.478,-53.4902,-0.942018,0
57.5413,-52.9485,-0.964387,0
57.6479,-52.4874,-0.984147,0
57.747,-52.0376,-1.00285,0
57.839,-51.5984,-1.02056,0
57.9244,-51.1693,-1.03733,0
57.9996,-50.7463,-1.05325,0
58.0573,-50.3218,-1.06848,0
58.0628,-49.8637,-1.08354,0
58.0634,-49.4197,-1.09763,0
58.0595,-48.9892,-1.11083,0
58.0511,-48.5715,-1.12317,0
58.0833,-48.201,-1.13425,0
55.481,-45.8676,-1.16867,174
54.1418,-44.6282,-1.18723,174
53.9599,-44.2755,-1.19445,174
54.0531,-44.1201,-1.19916,174
54.2006,-43.9987,-1.20332,174
58.543,-46.3417,-1.1857,0
56.2071,-44.7024,-1.2034,174
56.2097,-44.4449,-1.20864,174
57.0615,-44.6194,-1.21058,174
58.1973,-44.8871,-1.21215,174
58.145,-44.568,-1.21725,174
57.988,-44.2134,-1.22209,174
57.8487,-43.8793,-1.22635,174
57.8393,-43.6052,-1.22996,174
57.881,-43.3535,-1.23313,174
57.9859,-43.1239,-1.23591,174
58.2257,-42.9328,-1.2383,174
55.546,-41.9428,-1.24136,174
59.3222,-42.6784,-1.24224,174
59.2775,-42.3845,-1.24391,174
55.4752,-41.3428,-1.24482,174
55.5532,-41.1667,-1.24548,174
59.7698,-41.6272,-1.24689,0
59.8493,-41.3529,-1.24716,0
59.9265,-41.0764,-1.24707,0
60.0123,-40.7986,-1.2466,0
37.2864,-54.9502,0.270399,0
37.556,-55.2866,0.260389,0
37.8339,-55.6214,0.250125,0
38.1325,-55.9329,0.237606,0
38.443,-56.2337,0.224134,0
38.7599,-56.5333,0.210589,0
39.0837,-56.8317,0.196976,0
39.4005,-57.1596,0.185814,0
39.7213,-57.497,0.175296,0
40.0508,-57.8352,0.164686,0
40.3954,-58.1573,0.152694,0
40.7663,-58.4278,0.1368,0
41.1472,-58.6868,0.120179,0
41.5349,-58.9431,0.103489,0
41.9271,-59.2057,0.0873469,0
42.3173,-59.5037,0.0736408,0
43.5351,-56.1646,-0.175939,174
43.9414,-56.0527,-0.209761,174
43.5523,-60.3433,0.0288557,0
43.9804,-60.6307,0.0143732,0
45.7949,-50.571,-0.60652,174
46.0606,-50.3917,-0.632653,174
46.3055,-50.3425,-0.650629,174
46.5405,-50.3979,-0.662418,174
46.762,-50.8041,-0.655421,174
46.7738,-62.0808,-0.0877508,0
47.2727,-62.3182,-0.104797,0
47.7318,-60.4268,-0.226275,174
48.2978,-62.6885,-0.143771,0
48.788,-62.3455,-0.187636,174
49.3214,-62.6318,-0.201533,174
49.9315,-63.4642,-0.191379,0
50.5087,-63.7578,-0.205817,0
51.0933,-63.9931,-0.222848,0
51.7008,-64.2739,-0.23801,0
52.4159,-64.9965,-0.235676,0
53.1099,-65.455,-0.244631,0
53.4474,-64.3853,-0.311746,174
53.8418,-63.6829,-0.362735,174
55.0067,-65.6448,-0.316684,174
55.4262,-64.9831,-0.365261,174
56.0811,-65.0651,-0.38702,174
55.6468,-62.1938,-0.505481,174
56.2584,-62.2844,-0.523731,174
57.1923,-63.0974,-0.519465,174
59.0319,-65.7954,-0.459738,174
59.0066,-60.5649,-0.690344,0
58.5952,-58.8268,-0.752712,0
58.2089,-57.2723,-0.807385,0
58.2692,-56.5231,-0.839924,0
58.3121,-55.7951,-0.870583,0
57.854,-54.4159,-0.914469,0
57.4769,-53.2463,-0.951476,0
57.583,-52.771,-0.972062,0
57.6866,-52.3143,-0.991413,0
57.783,-51.8685,-1.00974,0
57.8724,-51.4333,-1.02707,0
57.9552,-51.0081,-1.04349,0
58.0238,-50.5843,-1.05915,0
58.0601,-50.1451,-1.07435,0
58.0636,-49.6925,-1.08903,0
58.0624,-49.2537,-1.10278,0
58.0567,-48.8282,-1.11565,0
58.0469,-48.4152,-1.12767,0
58.1052,-48.0699,-1.1382,0
55.5174,-45.7857,-1.17129,174
54.0459,-44.4726,-1.19028,174
53.9828,-44.2076,-1.19637,174
54.0966,-44.066,-1.20085,174
54.2746,-43.9622,-1.20477,174
58.5704,-46.2288,-1.18837,0
56.1599,-44.5769,-1.20566,174
58.7122,-45.6463,-1.20122,0
58.781,-45.3596,-1.20699,0
55.6182,-43.5776,-1.22113,174
58.1149,-44.444,-1.2191,174
57.8984,-44.0694,-1.22384,174
57.8366,-43.7708,-1.22779,174
57.8502,-43.507,-1.23122,174
57.907,-43.2612,-1.23424,174
58.0766,-43.0516,-1.23685,174
58.3194,-42.8582,-1.23915,174
55.491,-41.8528,-1.24195,174
59.2187,-42.545,-1.24293,174
59.3345,-42.2894,-1.24446,174
55.4844,-41.2718,-1.2451,174
59.7195,-41.7956,-1.24655,0
59.8005,-41.5226,-1.24704,0
59.8791,-41.2475,-1.24716,0
59.9534,-40.97,-1.24693,0
60.0484,-40.692,-1.24633,0
37.3886,-55.0786,0.266585,0
37.6609,-55.4152,0.256551,0
37.9451,-55.7441,0.245682,0
38.2503,-56.0479,0.232469,0
38.5632,-56.3483,0.218963,0
38.8828,-56.6474,0.205404,0
39.2063,-56.9513,0.192264,0
39.522,-57.2884,0.181805,0
39.8462,-57.6261,0.171258,0
40.179,-57.9646,0.160599,0
40.535,-58.2644,0.146893,0
40.911,-58.527,0.130452,0
41.2945,-58.785,0.113812,0
41.6848,-59.0403,0.0970979,0
42.0751,-59.3196,0.0821223,0
42.4688,-59.6172,0.0683674,0
44.486,-52.445,-0.425112,174
44.0628,-56.1727,-0.212196,174
43.7146,-60.4533,0.0233479,0
44.1466,-60.74,0.00880196,0
45.8976,-50.5017,-0.616657,174
46.1574,-50.3453,-0.641143,174
46.3969,-50.3407,-0.65642,174
46.6268,-50.486,-0.663262,174
46.8422,-51.2215,-0.639188,174
46.963,-62.1719,-0.0942498,0
47.4659,-62.4079,-0.11134,0
47.9775,-62.5842,-0.131305,0
48.4995,-62.7927,-0.149557,0
48.9756,-62.2667,-0.20162,174
49.5862,-63.3164,-0.181008,0
50.1541,-63.6092,-0.195441,0
50.7305,-63.8485,-0.212292,0
51.3202,-64.0813,-0.229416,0
51.9688,-64.5471,-0.237116,0
52.6843,-65.2018,-0.237858,0
53.4127,-65.7589,-0.243239,0
54.1286,-66.1427,-0.255768,0
54.0197,-63.5354,-0.377333,174
55.1428,-65.3046,-0.338536,174
55.6681,-64.9944,-0.374289,174
55.8147,-62.0614,-0.51789,174
56.5354,-62.4154,-0.527626,174
59.2775,-65.7465,-0.470188,174
57.482,-60.6236,-0.641039,174
60.0863,-64.5307,-0.550363,174
59.1001,-61.4243,-0.656012,0
58.8766,-59.9304,-0.713771,0
58.3322,-58.0268,-0.779152,0
58.2331,-56.9821,-0.82007,0
58.2897,-56.2457,-0.851784,0
58.2057,-55.3536,-0.885671,0
57.6176,-53.8329,-0.931847,0
57.5164,-53.0608,-0.959523,0
57.6234,-52.5952,-0.979577,0
57.7242,-52.1428,-0.998532,0
57.818,-51.7011,-1.01648,0
57.9048,-51.2697,-1.03345,0
57.9842,-50.8472,-1.04954,0
58.047,-50.4238,-1.06493,0
58.062,-49.9705,-1.08008,0
58.0637,-49.5233,-1.09439,0
58.0607,-49.0897,-1.1078,0
58.0534,-48.669,-1.12033,0
58.0694,-48.2824,-1.13177,0
55.5412,-45.9811,-1.16624,174
54.2031,-44.7275,-1.18526,174
53.9643,-44.3305,-1.1931,174
54.0263,-44.1536,-1.19811,174
54.1552,-44.021,-1.20242,174
58.5259,-46.4117,-1.18403,0
56.2684,-44.799,-1.20181,174
56.1673,-44.4827,-1.20761,174
58.7388,-45.5366,-1.20348,0
58.8064,-45.2504,-1.20909,0
55.732,-43.5429,-1.22228,174
57.9951,-44.2831,-1.22106,174
57.867,-43.9512,-1.22542,174
57.8383,-43.6682,-1.22915,174
57.8692,-43.412,-1.23241,174
57.9431,-43.1724,-1.23529,174
58.1684,-42.9785,-1.23776,174
58.4347,-42.7884,-1.23996,174
59.3997,-42.7655,-1.24177,174
59.2454,-42.4436,-1.24355,174
59.4021,-42.1959,-1.24495,174
55.5264,-41.2069,-1.24535,174
59.7506,-41.6916,-1.24677,0
59.8307,-41.4178,-1.24714,0
59.9084,-41.1418,-1.24713,0
59.9899,-40.8642,-1.24674,0
60.0842,-40.5849,-1.246,0
38.1463,-54.0735,0.280433,0
38.4101,-54.3717,0.270501,0
38.6803,-54.6693,0.260496,0
38.9622,-54.9569,0.24951,0
39.254,-55.2367,0.237825,0
39.5521,-55.515,0.226072,0
39.8568,-55.7918,0.214246,0
40.1668,-56.0704,0.202645,0
40.4829,-56.3493,0.191126,0
40.8088,-56.62,0.178958,0
41.1418,-56.8888,0.166688,0
41.4832,-57.1521,0.154046,0
41.837,-57.3968,0.140023,0
42.1974,-57.6386,0.125926,0
42.5649,-57.8774,0.111751,0
43.432,-56.0046,-0.0560675,174
44.5665,-52.4218,-0.338353,174
44.1466,-56.2429,-0.0934399,174
44.1066,-58.8022,0.0542365,0
45.7074,-50.5557,-0.522726,174
