51.083,-45.2359,-0.299826,0
51.2884,-44.7582,-0.317624,0
50.4506,-42.5294,-0.403606,174
51.6615,-43.8217,-0.351237,0
51.8418,-43.381,-0.366393,0
52.0382,-42.9856,-0.379391,0
52.2274,-42.5966,-0.391794,0
52.4096,-42.2137,-0.403591,0
52.5852,-41.8366,-0.41485,0
52.7401,-41.4474,-0.426276,0
52.8887,-41.0648,-0.437136,0
53.0567,-40.7168,-0.446296,0
53.225,-40.3785,-0.454743,0
53.3762,-40.0314,-0.463268,0
53.5212,-39.687,-0.471423,0
53.6614,-39.3463,-0.479128,0
53.7969,-39.0092,-0.486442,0
53.9277,-38.6754,-0.493346,0
54.0714,-38.359,-0.499186,0
54.2252,-38.0552,-0.504186,0
54.3752,-37.7524,-0.508835,0
54.5219,-37.4504,-0.513171,0
54.6649,-37.1491,-0.517175,0
54.8049,-36.8484,-0.520876,0
54.9415,-36.548,-0.524245,0
55.075,-36.2479,-0.527321,0
55.2122,-35.9517,-0.52987,0
55.3489,-35.6564,-0.532057,0
55.4783,-35.3584,-0.534089,0
55.6047,-35.0597,-0.535837,0
55.7281,-34.7604,-0.537302,0
55.8486,-34.4603,-0.538483,0
55.9663,-34.1593,-0.539382,0
56.0812,-33.8572,-0.539997,0
56.1957,-33.5549,-0.54028,0
56.3273,-33.2574,-0.539694,0
56.4566,-32.9577,-0.538825,0
56.584,-32.6556,-0.537673,0
56.7091,-32.3509,-0.536218,0
56.8321,-32.0435,-0.534479,0
56.953,-31.7333,-0.532429,0
57.054,-31.4169,-0.530602,0
28.2912,-46.3706,0.399993,0
28.6042,-46.7851,0.397049,0
28.9261,-47.1978,0.394154,0
29.2255,-47.6535,0.394476,0
29.5257,-48.1238,0.395838,0
29.8533,-48.5698,0.39553,0
30.2163,-48.9746,0.392576,0
30.5987,-49.36,0.388563,0
30.9955,-49.7318,0.383939,0
31.3953,-50.1112,0.380062,0
31.7937,-50.5088,0.377557,0
32.203,-50.9019,0.374984,0
32.6407,-51.2506,0.370032,0
33.0998,-51.5639,0.363372,0
33.575,-51.8497,0.355555,0
34.0568,-52.1299,0.347855,0
34.5343,-52.4367,0.342034,0
35.0199,-52.7382,0.336312,0
35.5223,-53.0043,0.3291,0
38.8501,-42.5167,-0.233468,174
39.2218,-42.3124,-0.254987,174
39.5342,-42.3233,-0.264942,174
39.8071,-42.5274,-0.264938,174
38.1852,-53.9778,0.282064,0
38.7366,-54.1238,0.271859,0
41.2971,-38.0409,-0.505207,174
41.5199,-37.8836,-0.518302,174
41.729,-37.7988,-0.527615,174
41.9326,-37.7321,-0.535762,174
42.1264,-37.8505,-0.535281,174
42.2476,-44.5389,-0.242812,174
42.6229,-47.0758,-0.139114,174
43.1957,-52.1952,0.0748356,174
43.7342,-52.5313,0.0789104,174
44.2367,-52.1912,0.0544549,174
44.4214,-48.7983,-0.0979949,174
45.1026,-50.6982,-0.02599,174
45.5709,-50.5182,-0.0411167,174
45.3899,-46.4947,-0.213769,174
46.5555,-50.4862,-0.0561253,174
47.1496,-50.9233,-0.044494,174
47.5739,-50.5381,-0.0657268,174
48.3295,-51.4728,-0.0334148,0
48.5876,-50.481,-0.0777235,174
47.6007,-45.5908,-0.275778,174
47.862,-45.1432,-0.296226,174
49.6307,-48.949,-0.148766,0
49.9035,-48.335,-0.175207,0
50.1648,-47.7489,-0.199943,0
50.383,-47.1132,-0.226042,0
50.588,-46.5015,-0.250651,0
50.7827,-45.9161,-0.273737,0
51.0021,-45.4212,-0.292814,0
51.2113,-44.9391,-0.310934,0
50.3185,-42.5692,-0.402542,174
51.5931,-43.9966,-0.345095,0
51.7698,-43.5411,-0.360973,0
51.9642,-43.1356,-0.374509,0
52.1562,-42.7442,-0.387136,0
52.3409,-42.359,-0.399167,0
52.5191,-41.9797,-0.410622,0
52.6819,-41.595,-0.421989,0
52.8327,-41.2099,-0.433063,0
52.9913,-40.8467,-0.442956,0
53.1614,-40.507,-0.451569,0
53.3197,-40.1637,-0.460046,0
53.4666,-39.8178,-0.468366,0
53.6086,-39.4758,-0.476247,0
53.7457,-39.1373,-0.483708,0
53.8783,-38.8023,-0.490759,0
54.0119,-38.475,-0.497204,0
54.167,-38.1709,-0.502321,0
54.3184,-37.8677,-0.507106,0
54.4663,-37.5655,-0.51155,0
54.6109,-37.2639,-0.51569,0
54.7519,-36.9629,-0.519499,0
54.8898,-36.6624,-0.522995,0
55.0245,-36.3623,-0.526188,0
55.1561,-36.0623,-0.529069,0
55.2987,-35.7699,-0.531208,0
55.4293,-35.472,-0.533346,0
55.5568,-35.1736,-0.535212,0
55.6814,-34.8746,-0.536784,0
55.803,-34.5748,-0.538063,0
55.9218,-34.2741,-0.539079,0
56.0377,-33.9725,-0.539792,0
56.1509,-33.6698,-0.540241,0
56.2774,-33.3711,-0.539948,0
56.4076,-33.0722,-0.539186,0
56.5357,-32.771,-0.538151,0
56.6616,-32.4673,-0.536803,0
56.7854,-32.161,-0.535182,0
56.9072,-31.8518,-0.533249,0
57.0176,-31.538,-0.531286,0
28.4839,-46.6273,0.398177,0
28.8024,-47.0407,0.395262,0
29.1138,-47.4747,0.393992,0
29.41,-47.9444,0.395306,0
29.7173,-48.4152,0.396693,0
30.077,-48.8205,0.393695,0
30.4495,-49.2174,0.39034,0
30.8434,-49.5904,0.385687,0
31.2454,-49.9603,0.381116,0
31.6407,-50.3575,0.378499,0
35.4029,-43.6751,-0.0492175,174
32.4729,-51.118,0.371903,0
32.9203,-51.4535,0.366385,0
33.393,-51.7415,0.358524,0
33.8724,-52.0236,0.350765,0
34.3513,-52.3204,0.344241,0
34.8339,-52.624,0.338485,0
35.3258,-52.9181,0.332596,0
38.6704,-42.7219,-0.218425,174
39.0906,-42.3544,-0.248713,174
39.4242,-42.2801,-0.263164,174
39.7049,-42.4366,-0.265603,174
39.9388,-42.8809,-0.25376,174
38.526,-54.0692,0.275736,0
41.2085,-38.112,-0.499563,174
41.436,-37.9428,-0.513397,174
41.6498,-37.8308,-0.524118,174
41.856,-37.7472,-0.533162,174
42.0542,-37.7511,-0.537926,174
42.118,-44.3699,-0.247294,174
42.4687,-47.189,-0.13074,174
43.0182,-53.0438,0.115976,174
43.6216,-54.4383,0.165198,0
44.035,-52.15,0.0563726,174
44.2452,-48.7365,-0.0976483,174
44.9331,-50.8589,-0.0161939,174
45.3929,-50.586,-0.0354609,174
45.2349,-46.4852,-0.212008,174
46.3404,-50.3466,-0.059391,174
46.9243,-50.7764,-0.0481542,174
47.5093,-51.104,-0.0407858,174
48.1754,-51.6718,-0.0234539,0
48.4417,-50.6687,-0.0685368,174
47.493,-45.7484,-0.268356,174
47.7563,-45.2891,-0.289473,174
48.1393,-45.2211,-0.294627,174
49.8,-48.5631,-0.165436,0
50.0716,-47.982,-0.190207,0
50.3015,-47.3526,-0.216271,0
50.5115,-46.7319,-0.241437,0
50.7087,-46.1343,-0.265187,0
50.9197,-45.6083,-0.285661,0
51.1328,-45.1214,-0.304133,0
51.3346,-44.6444,-0.321794,0
51.5235,-44.1731,-0.338825,0
51.7034,-43.7134,-0.355012,0
51.8891,-43.2865,-0.369533,0
52.0838,-42.8926,-0.382389,0
52.2713,-42.5051,-0.394645,0
52.452,-42.1236,-0.406315,0
52.6227,-41.7437,-0.417604,0
52.776,-41.3559,-0.428913,0
52.9252,-40.9772,-0.439548,0
53.0972,-40.6361,-0.448337,0
53.2623,-40.2966,-0.456774,0
53.4112,-39.9492,-0.465251,0
53.5551,-39.6057,-0.473288,0
53.694,-39.2659,-0.480915,0
53.8283,-38.9296,-0.488112,0
53.958,-38.5965,-0.494929,0
54.1083,-38.2867,-0.500417,0
54.2612,-37.9832,-0.505319,0
54.4104,-37.6806,-0.509899,0
54.5562,-37.3787,-0.514147,0
54.6985,-37.0776,-0.518073,0
54.8376,-36.7769,-0.521696,0
54.9735,-36.4767,-0.525007,0
55.1063,-36.1767,-0.527995,0
55.247,-35.8827,-0.530348,0
55.3798,-35.5856,-0.532565,0
55.5086,-35.2874,-0.534538,0
55.6342,-34.9886,-0.536208,0
55.757,-34.6892,-0.537604,0
55.8769,-34.3888,-0.538718,0
55.9939,-34.0876,-0.539557,0
56.108,-33.7853,-0.540104,0
56.2272,-33.4844,-0.540153,0
56.3582,-33.1864,-0.539509,0
56.4871,-32.8861,-0.538571,0
56.6138,-32.5834,-0.53735,0
56.7384,-32.2781,-0.535827,0
56.861,-31.97,-0.53403,0
56.9808,-31.6589,-0.53193,0
57.0764,-31.3412,-0.530143,0
32.5782,-48.2411,0.410355,0
35.359,-43.5723,0.0657931,174
35.593,-43.9359,0.0715741,174
33.7584,-49.1708,0.398035,0
34.1732,-49.4569,0.393104,0
34.5953,-49.7373,0.388221,0
35.0248,-50.0121,0.383382,0
35.4666,-50.2659,0.377684,0
35.9227,-50.4886,0.370545,0
36.3845,-50.7036,0.363445,0
39.0211,-42.3388,-0.14728,174
39.3616,-42.238,-0.16446,174
39.6469,-42.3666,-0.167865,174
39.9048,-42.6618,-0.161593,174
38.8049,-51.5012,0.319901,0
41.17,-38.0411,-0.435091,174
41.3976,-37.8663,-0.450681,174
41.608,-37.7821,-0.460898,174
41.8136,-37.6995,-0.470647,174
42.0126,-37.6654,-0.477489,174
42.2038,-37.8643,-0.471935,174
42.3817,-44.965,-0.111604,174
42.7792,-47.0209,-0.0147243,174
43.3774,-51.711,0.213636,0
43.5567,-46.5191,-0.0558694,174
44.3695,-51.3769,0.178133,0
44.5871,-48.7221,0.0389858,174
45.2141,-50.0877,0.0989017,174
45.1386,-46.4624,-0.0840337,174
45.5474,-46.4995,-0.0873878,174
46.6077,-49.7776,0.0653547,0
47,-49.3575,0.0402863,0
47.3777,-48.9384,0.0159992,0
47.7316,-48.485,-0.00920097,0
47.5122,-46.1355,-0.123256,174
47.6779,-45.3359,-0.163158,174
48.0029,-45.0983,-0.175991,174
48.9472,-46.5592,-0.108615,0
49.2205,-46.1082,-0.130524,0
49.482,-45.6662,-0.151462,0
49.7325,-45.2329,-0.171481,0
49.9724,-44.8077,-0.190612,0
50.1968,-44.3796,-0.209426,0
50.4024,-43.9428,-0.228205,0
50.5987,-43.5158,-0.2461,0
50.4382,-42.5046,-0.291315,174
51.0145,-42.769,-0.275612,0
51.2125,-42.4063,-0.289284,0
51.401,-42.0453,-0.302507,0
51.5822,-41.6886,-0.315182,0
51.7566,-41.3367,-0.327272,0
51.925,-40.99,-0.338796,0
52.099,-40.6619,-0.349079,0
52.2673,-40.3371,-0.358893,0
52.4302,-40.0153,-0.368239,0
52.5878,-39.6964,-0.377126,0
52.7348,-39.3745,-0.385895,0
52.8768,-39.0558,-0.394225,0
53.0141,-38.74,-0.402126,0
53.1557,-38.4349,-0.409167,0
53.3114,-38.1477,-0.414938,0
53.4634,-37.8612,-0.420348,0
53.6117,-37.5755,-0.425427,0
53.7522,-37.2872,-0.430348,0
53.8847,-36.9964,-0.435143,0
54.0133,-36.7064,-0.439606,0
54.1383,-36.4169,-0.443747,0
54.2598,-36.128,-0.447575,0
54.3869,-35.8448,-0.45071,0
54.5137,-35.5632,-0.453434,0
54.6373,-35.2812,-0.455856,0
54.7578,-34.9988,-0.457975,0
54.8754,-34.7158,-0.459811,0
54.99,-34.4322,-0.461345,0
55.1027,-34.1483,-0.462565,0
55.214,-33.8642,-0.463434,0
55.323,-33.5792,-0.464001,0
55.4482,-33.2995,-0.463581,0
55.565,-33.0158,-0.463093,0
55.6682,-32.727,-0.462712,0
55.7684,-32.4366,-0.462057,0
55.8657,-32.1445,-0.46112,0
55.96,-31.8505,-0.459909,0
56.0512,-31.5547,-0.458415,0
56.1394,-31.2569,-0.456637,0
29.6605,-44.6795,0.41638,0
29.9405,-45.0575,0.414876,0
30.2289,-45.4338,0.413402,0
30.5258,-45.8083,0.411971,0
30.825,-46.1899,0.411292,0
31.1301,-46.5751,0.411043,0
31.4444,-46.9585,0.410819,0
31.7682,-47.3402,0.410648,0
32.1016,-47.72,0.410491,0
32.4448,-48.0977,0.410389,0
35.1993,-43.5834,0.0738683,174
35.517,-43.7661,0.0672701,174
33.6023,-49.0603,0.399915,0
34.0142,-49.3485,0.394974,0
34.4335,-49.6311,0.390067,0
34.8603,-49.9081,0.385223,0
35.2944,-50.1791,0.380418,0
35.748,-50.4046,0.373265,0
36.2078,-50.6226,0.366146,0
38.8786,-42.4173,-0.138178,174
39.2341,-42.2709,-0.158309,174
39.5407,-42.3043,-0.167364,174
39.815,-42.4984,-0.166868,174
39.9122,-43.778,-0.105513,174
39.1141,-51.5684,0.313743,0
41.3129,-37.9251,-0.44523,174
41.5284,-37.814,-0.457061,174
41.7358,-37.7308,-0.466986,174
41.9381,-37.6582,-0.475981,174
42.1307,-37.7647,-0.475297,174
42.2514,-44.4313,-0.136044,174
42.6255,-47.0431,-0.0103023,174
43.1854,-51.7712,0.220574,0
43.3951,-46.3122,-0.0634285,174
44.1823,-51.4429,0.184774,0
44.4027,-48.5797,0.034714,174
45.1063,-50.7013,0.131725,174
45.0039,-46.5854,-0.0759541,174
45.3785,-46.4104,-0.0897887,174
46.4542,-49.938,0.0751301,0
46.8523,-49.5175,0.0497443,0
47.2355,-49.0981,0.0251594,0
47.6044,-48.6798,0.00136055,0
47.93,-48.1601,-0.0265447,0
47.6073,-45.6037,-0.149774,174
47.8508,-45.1022,-0.175239,174
48.8398,-46.7335,-0.100007,0
49.1177,-46.279,-0.122292,0
49.3837,-45.8337,-0.143586,0
49.6383,-45.3971,-0.163952,0
49.8822,-44.9688,-0.18342,0
50.1158,-44.5486,-0.202033,0
50.3252,-44.1081,-0.221144,0
50.525,-43.6774,-0.239372,0
50.3059,-42.5436,-0.290512,174
50.6995,-42.516,-0.288911,174
51.1378,-42.5439,-0.284147,0
51.3302,-42.1826,-0.297526,0
51.5139,-41.824,-0.310407,0
51.6909,-41.4703,-0.322731,0
51.8613,-41.1213,-0.334479,0
52.0334,-40.7866,-0.345221,0
52.2038,-40.4605,-0.355202,0
52.3687,-40.1376,-0.364733,0
52.5284,-39.8176,-0.373796,0
52.6793,-39.4968,-0.382604,0
52.8232,-39.1769,-0.3911,0
52.9623,-38.86,-0.399167,0
53.0967,-38.5459,-0.406813,0
53.2525,-38.257,-0.41278,0
53.4059,-37.9703,-0.418327,0
53.5556,-37.6843,-0.423542,0
53.7007,-37.3983,-0.428444,0
53.8346,-37.1072,-0.433356,0
53.9648,-36.8169,-0.437946,0
54.0911,-36.5272,-0.442214,0
54.2138,-36.2381,-0.446149,0
54.3377,-35.9521,-0.449596,0
54.4657,-35.6706,-0.452428,0
54.5905,-35.3887,-0.454958,0
54.7123,-35.1065,-0.457194,0
54.831,-34.8237,-0.459147,0
54.9466,-34.5404,-0.460798,0
55.0595,-34.2564,-0.462165,0
55.1719,-33.9726,-0.463141,0
55.2814,-33.6878,-0.463835,0
55.4008,-33.4063,-0.463776,0
55.5245,-33.1254,-0.463171,0
55.6292,-32.8373,-0.462897,0
55.7306,-32.5475,-0.462341,0
55.829,-32.256,-0.461511,0
55.9244,-31.9628,-0.460407,0
56.0167,-31.6676,-0.45902,0
56.1062,-31.3706,-0.45735,0
29.8328,-44.9136,0.415443,0
30.118,-45.2906,0.413953,0
30.4116,-45.6658,0.412513,0
30.7112,-46.0428,0.411404,0
31.0127,-46.4285,0.411136,0
31.3234,-46.8126,0.410906,0
31.6437,-47.195,0.410706,0
31.9734,-47.5755,0.41055,0
32.3129,-47.954,0.410418,0
32.662,-48.3303,0.41034,0
35.4224,-43.6401,0.0659047,174
33.4471,-48.949,0.401815,0
33.8563,-49.2393,0.396849,0
34.2728,-49.5241,0.391937,0
34.6967,-49.8032,0.387073,0
35.128,-50.0765,0.382239,0
35.5745,-50.3196,0.375985,0
36.0319,-50.5404,0.368851,0
38.7127,-42.5749,-0.12425,174
39.1033,-42.3126,-0.151554,174
39.4304,-42.2626,-0.165638,174
39.7122,-42.4116,-0.167808,174
39.9538,-42.8098,-0.155725,174
38.9235,-51.5274,0.317523,0
41.2268,-37.9849,-0.439647,174
41.448,-37.8462,-0.453153,174
41.6573,-37.7624,-0.463257,174
41.8618,-37.6801,-0.472897,174
42.059,-37.672,-0.4783,174
42.2478,-38.0446,-0.463717,174
42.4715,-47.1477,-0.00157021,174
42.8763,-47.0641,-0.0145423,174
43.2567,-46.5249,-0.0498612,174
43.9944,-51.5078,0.191483,0
44.2366,-48.609,0.0389859,174
44.936,-50.8545,0.142158,174
45.3986,-50.6029,0.122399,174
45.2253,-46.4083,-0.0879226,174
45.6741,-46.6669,-0.0804726,174
46.7023,-49.6777,0.0593293,0
47.0912,-49.2578,0.0344367,0
47.4655,-48.8391,0.0103449,0
47.808,-48.3574,-0.0160271,0
47.4928,-45.7391,-0.142541,174
47.7316,-45.2051,-0.169754,174
48.1106,-45.1317,-0.174743,174
49.0132,-46.4511,-0.113913,0
49.2836,-46.0024,-0.135588,0
49.5425,-45.5625,-0.156301,0
49.7905,-45.1311,-0.176105,0
50.028,-44.7078,-0.195036,0
50.2466,-44.2748,-0.213962,0
50.4499,-43.8404,-0.232531,0
50.2416,-42.702,-0.283988,174
50.531,-42.4972,-0.290974,174
51.0622,-42.6823,-0.278913,0
51.2584,-42.3206,-0.292458,0
51.4447,-41.96,-0.305573,0
51.6242,-41.6045,-0.318102,0
51.7971,-41.2538,-0.330075,0
51.9669,-40.9117,-0.341286,0
52.1395,-40.5844,-0.351462,0
52.3066,-40.2603,-0.361159,0
52.4681,-39.9392,-0.370387,0
52.6232,-39.6196,-0.379264,0
52.769,-39.2985,-0.387907,0
52.9098,-38.9805,-0.396139,0
53.0459,-38.6653,-0.403932,0
53.193,-38.3666,-0.410563,0
53.3479,-38.0795,-0.416257,0
53.4991,-37.7933,-0.421589,0
53.6465,-37.5077,-0.426589,0
53.7841,-37.218,-0.43152,0
53.9156,-36.9274,-0.436237,0
54.0434,-36.6375,-0.440622,0
54.1675,-36.3482,-0.444684,0
54.2881,-36.0594,-0.448444,0
54.4173,-35.7779,-0.451384,0
54.5433,-35.4962,-0.45403,0
54.6662,-35.2141,-0.456384,0
54.786,-34.9316,-0.458434,0
54.9029,-34.6484,-0.460202,0
55.0168,-34.3647,-0.461677,0
55.1294,-34.0809,-0.4628,0
55.24,-33.7965,-0.4636,0
55.353,-33.5129,-0.463923,0
55.4776,-33.2327,-0.463434,0
55.5898,-32.9473,-0.463034,0
55.6923,-32.6582,-0.462575,0
55.7918,-32.3673,-0.461862,0
55.8884,-32.0747,-0.460856,0
55.9819,-31.7804,-0.459577,0
56.0724,-31.4841,-0.458014,0
56.16,-31.1858,-0.456179,0
33.5572,-46.322,0.4172,0
35.3758,-43.5435,0.180667,174
35.6192,-43.8847,0.186457,174
34.5961,-47.2172,0.412532,0
34.9661,-47.4881,0.409656,0
35.3449,-47.7493,0.406487,0
35.7413,-47.9759,0.401292,0
36.1438,-48.1953,0.396082,0
37.9739,-43.6809,0.0692663,174
38.619,-42.6406,-0.0148794,174
39.034,-42.297,-0.0503481,174
39.3682,-42.2193,-0.0672596,174
39.6532,-42.3474,-0.0702157,174
39.9177,-42.6041,-0.0646567,174
40.0534,-43.7233,-0.00473705,174
41.1899,-37.9071,-0.376965,174
41.407,-37.7971,-0.389931,174
41.6157,-37.7143,-0.400773,174
41.8197,-37.6331,-0.411108,174
42.0175,-37.5926,-0.418619,174
42.2074,-37.7781,-0.412438,174
42.3851,-44.6926,-0.0121085,174
42.7727,-46.5324,0.0871062,174
43.1438,-45.9928,0.048042,174
43.5315,-46.081,0.0458992,174
44.1678,-48.9961,0.204832,0
44.5598,-48.4426,0.166392,174
45.0314,-48.67,0.172733,0
45.1283,-46.3776,0.038872,174
45.4532,-45.9513,0.0105228,174
46.1862,-47.6514,0.10055,0
46.5427,-47.292,0.0768977,0
46.8871,-46.9348,0.0540559,0
47.22,-46.5797,0.0320246,0
47.5382,-46.2151,0.0101366,174
47.6668,-45.2933,-0.0415813,174
48.0015,-45.0872,-0.0535793,174
48.3888,-45.0351,-0.0566521,0
48.6458,-44.6416,-0.0777752,0
48.8923,-44.2543,-0.0980389,0
49.1287,-43.873,-0.117472,0
49.3554,-43.4975,-0.136115,0
49.5928,-43.1675,-0.151808,0
49.824,-42.8435,-0.166706,0
50.0475,-42.5223,-0.181022,0
50.255,-42.1889,-0.195612,0
50.4512,-41.8525,-0.209958,0
50.6404,-41.5203,-0.223718,0
50.8228,-41.1921,-0.236862,0
51.003,-40.8735,-0.249128,0
51.1829,-40.5664,-0.260378,0
51.3573,-40.2619,-0.27113,0
51.526,-39.9599,-0.281413,0
51.6895,-39.6603,-0.291227,0
51.8477,-39.363,-0.300593,0
51.9989,-39.0659,-0.309655,0
52.1416,-38.7673,-0.318503,0
52.2836,-38.4749,-0.326677,0
52.438,-38.2005,-0.333415,0
52.5883,-37.9267,-0.339792,0
52.7317,-37.6512,-0.345983,0
52.8711,-37.3765,-0.351823,0
53.0066,-37.1024,-0.357311,0
53.1383,-36.8289,-0.362458,0
53.2661,-36.5558,-0.367282,0
53.3904,-36.2832,-0.371774,0
53.5128,-36.0121,-0.375846,0
53.6407,-35.7466,-0.379177,0
53.7652,-35.4807,-0.382194,0
53.8866,-35.2145,-0.384909,0
54.005,-34.9477,-0.387331,0
54.1202,-34.6805,-0.38944,0
54.2323,-34.4125,-0.391266,0
54.3306,-34.139,-0.393298,0
54.4255,-33.8652,-0.395046,0
54.5173,-33.5909,-0.396511,0
54.6181,-33.3207,-0.397126,0
54.7162,-33.0494,-0.397458,0
54.8112,-32.7769,-0.397516,0
54.9031,-32.5032,-0.397292,0
54.9922,-32.2281,-0.396794,0
55.0792,-31.9519,-0.395954,0
55.1666,-31.6749,-0.394704,0
55.2509,-31.3962,-0.393171,0
55.3323,-31.1156,-0.391354,0
30.7981,-43.2744,0.428861,0
31.0594,-43.611,0.427557,0
31.3282,-43.9454,0.426297,0
31.6045,-44.2775,0.425067,0
31.8884,-44.6072,0.423875,0
32.1801,-44.9344,0.422733,0
32.4796,-45.2589,0.421629,0
32.7869,-45.5807,0.420565,0
33.1077,-45.8894,0.418729,0
33.4319,-46.2027,0.417576,0
35.2399,-43.5067,0.185625,174
35.5336,-43.7367,0.182892,174
34.4571,-47.1126,0.413636,0
34.8241,-47.3854,0.410755,0
35.1987,-47.653,0.407869,0
35.5895,-47.8904,0.40327,0
35.9897,-48.1126,0.39807,0
36.3959,-48.3274,0.392855,0
36.8112,-48.5248,0.386956,0
38.9015,-42.339,-0.0428922,174
39.2462,-42.2297,-0.0621561,174
39.5468,-42.2865,-0.06991,174
39.8228,-42.4695,-0.0691419,174
39.9379,-43.6404,-0.00573128,174
41.0963,-38.0118,-0.367976,174
41.3262,-37.829,-0.385659,174
41.5367,-37.7456,-0.396701,174
41.7425,-37.6638,-0.407227,174
41.9436,-37.5855,-0.417145,174
42.135,-37.6804,-0.416405,174
42.2544,-44.3788,-0.0275013,174
42.6148,-45.791,0.0470958,174
43.0118,-46.4026,0.0746082,174
43.377,-45.9368,0.0403195,174
43.6219,-44.1762,-0.06681,174
44.3882,-48.404,0.166806,174
44.8691,-48.7383,0.178968,0
45.005,-46.5739,0.0517747,174
45.3015,-45.936,0.0113427,174
46.0472,-47.7889,0.109803,0
46.4083,-47.4287,0.0858186,0
46.7573,-47.0707,0.0626691,0
47.0945,-46.7148,0.0403303,0
47.4204,-46.3611,0.0187775,0
47.6229,-45.6462,-0.0218625,174
47.8447,-45.0767,-0.0539351,174
48.288,-45.1868,-0.0483562,0
48.5491,-44.7908,-0.069826,0
48.7995,-44.4011,-0.0904168,0
49.0397,-44.0176,-0.110158,0
49.2701,-43.64,-0.129103,0
49.5027,-43.2917,-0.145964,0
49.7367,-42.9667,-0.1611,0
49.9632,-42.6444,-0.175632,0
50.1784,-42.3183,-0.189968,0
50.3773,-41.9802,-0.204567,0
50.5691,-41.6464,-0.218542,0
50.7541,-41.3167,-0.231921,0
50.9327,-40.9913,-0.244694,0
51.115,-40.6831,-0.256149,0
51.2915,-40.3776,-0.267087,0
51.4623,-40.0747,-0.277546,0
51.6277,-39.7742,-0.287536,0
51.7879,-39.4761,-0.297077,0
51.943,-39.1801,-0.306169,0
52.0878,-38.8808,-0.315182,0
52.2275,-38.5835,-0.323776,0
52.3797,-38.305,-0.330895,0
52.5316,-38.031,-0.337409,0
52.6775,-37.7562,-0.343669,0
52.8185,-37.4812,-0.349626,0
52.9554,-37.2068,-0.355251,0
53.0885,-36.9331,-0.360534,0
53.2178,-36.6599,-0.365475,0
53.3434,-36.3871,-0.370104,0
53.4654,-36.1147,-0.374391,0
53.5923,-35.8478,-0.377936,0
53.7181,-35.5821,-0.381071,0
53.8407,-35.316,-0.383903,0
53.9602,-35.0495,-0.386442,0
54.0766,-34.7824,-0.388669,0
54.19,-34.5148,-0.390602,0
54.2936,-34.2433,-0.392565,0
54.3898,-33.9696,-0.394411,0
54.4827,-33.6955,-0.395993,0
54.58,-33.4238,-0.396921,0
54.6791,-33.1529,-0.39737,0
54.7752,-32.8809,-0.397536,0
54.8684,-32.6077,-0.397419,0
54.9585,-32.3331,-0.397018,0
55.0458,-32.0572,-0.396335,0
55.1336,-31.7807,-0.395212,0
55.2191,-31.5026,-0.393796,0
55.3016,-31.2228,-0.392077,0
30.9589,-43.483,0.428055,0
31.2248,-43.8182,0.426771,0
31.4983,-44.1512,0.425535,0
31.7793,-44.4818,0.424324,0
32.068,-44.8099,0.423167,0
32.3645,-45.1355,0.422044,0
32.6688,-45.4584,0.420965,0
32.9842,-45.7727,0.419471,0
33.3078,-46.083,0.417957,0
33.636,-46.3961,0.416961,0
35.4367,-43.6162,0.181406,174
34.319,-47.0072,0.414749,0
34.6834,-47.282,0.411849,0
35.0551,-47.5517,0.408973,0
35.4386,-47.8038,0.405247,0
35.8365,-48.0287,0.400057,0
36.2404,-48.2464,0.394847,0
38.0553,-43.6943,0.0666992,174
38.7532,-42.4344,-0.0317442,174
39.1159,-42.271,-0.054925,174
39.4367,-42.2451,-0.0682958,174
39.7196,-42.3867,-0.0703016,174
39.9667,-42.7509,-0.0578719,174
40.1183,-43.8246,-0.000986214,174
41.2435,-37.8704,-0.380746,174
41.4571,-37.7772,-0.392555,174
41.6646,-37.6948,-0.403274,174
41.8675,-37.614,-0.413492,174
42.0635,-37.5989,-0.419402,174
42.2533,-37.8401,-0.409902,174
42.4691,-44.8288,-0.0060112,174
42.8682,-46.6165,0.0900334,174
43.2307,-45.9106,0.041553,174
43.6293,-46.1721,0.0494618,174
44.2256,-48.4549,0.172378,174
44.6698,-48.4883,0.167394,174
45.132,-48.6269,0.168865,0
45.2178,-46.3443,0.0358583,174
45.6489,-46.5137,0.0407384,174
46.2721,-47.5658,0.0948566,0
46.6257,-47.2069,0.0713898,0
46.9673,-46.8502,0.0487531,0
47.2974,-46.4957,0.0269074,0
47.5032,-45.7655,-0.0148254,174
47.7338,-45.2045,-0.0466553,174
48.1575,-45.2588,-0.0443095,174
48.4509,-44.941,-0.0617449,0
48.7053,-44.5489,-0.0826726,0
48.9493,-44.1631,-0.102736,0
49.1834,-43.7832,-0.121974,0
49.4114,-43.4164,-0.140036,0
49.6484,-43.0902,-0.155402,0
49.8777,-42.767,-0.170163,0
50.0995,-42.4464,-0.184343,0
50.3023,-42.1086,-0.199079,0
50.4968,-41.7732,-0.213278,0
50.6843,-41.4419,-0.226882,0
50.8652,-41.1146,-0.239909,0
51.0462,-40.8003,-0.251833,0
51.2249,-40.4937,-0.262975,0
51.3979,-40.1899,-0.27362,0
51.5653,-39.8885,-0.283786,0
51.7274,-39.5895,-0.293493,0
51.8845,-39.2927,-0.302761,0
52.0334,-38.9947,-0.311794,0
52.1748,-38.6966,-0.320554,0
52.3206,-38.4096,-0.328317,0
52.4741,-38.1354,-0.334968,0
52.6227,-37.8612,-0.341296,0
52.7652,-37.5859,-0.347399,0
52.9037,-37.3113,-0.353151,0
53.0382,-37.0374,-0.358552,0
53.169,-36.7639,-0.36363,0
53.296,-36.491,-0.368376,0
53.4193,-36.2185,-0.37279,0
53.5435,-35.949,-0.376677,0
53.6705,-35.6834,-0.379928,0
53.7944,-35.4175,-0.382868,0
53.9151,-35.1511,-0.385505,0
54.0326,-34.8843,-0.387858,0
54.1472,-34.6169,-0.389899,0
54.256,-34.3475,-0.391784,0
54.3535,-34.074,-0.393737,0
54.4477,-33.8,-0.395417,0
54.5414,-33.5267,-0.396677,0
54.6416,-33.2563,-0.397243,0
54.739,-32.9847,-0.397507,0
54.8332,-32.712,-0.397487,0
54.9245,-32.4379,-0.397204,0
55.0129,-32.1625,-0.396628,0
55.1003,-31.8862,-0.39568,0
55.187,-31.6089,-0.394362,0
55.2705,-31.3297,-0.392761,0
55.3546,-31.0493,-0.390729,0
34.3432,-44.7815,0.42574,0
35.3702,-43.5612,0.299092,174
35.6426,-43.8395,0.301128,174
35.3073,-45.5583,0.420696,0
36.721,-43.1153,0.203268,174
36.0134,-45.9761,0.411356,0
36.3747,-46.1752,0.406668,0
36.7413,-46.3675,0.401981,0
38.0092,-43.5722,0.17213,174
38.6609,-42.4976,0.077086,174
39.0469,-42.2554,0.046064,174
39.3745,-42.2018,0.0298376,174
39.6594,-42.3283,0.0272385,174
39.9291,-42.5543,0.0320782,174
40.962,-38.0549,-0.294303,174
41.2045,-37.8117,-0.318038,174
41.4163,-37.7288,-0.330058,174
41.6233,-37.6474,-0.341505,174
41.8257,-37.5675,-0.352408,174
42.0223,-37.5209,-0.360666,174
42.2109,-37.6936,-0.35402,174
42.3881,-44.5085,0.0893784,174
42.7752,-46.517,0.212903,174
43.1403,-45.8457,0.161523,174
43.4097,-44.1346,0.0443453,174
43.7466,-44.0786,0.0350109,174
44.3616,-46.5928,0.189876,0
44.7368,-46.4029,0.172381,0
45.1095,-46.2384,0.157196,0
45.4549,-45.9461,0.134685,174
45.7981,-45.695,0.115423,0
46.1286,-45.4231,0.0955744,0
46.4498,-45.1495,0.0762727,0
46.7619,-44.8745,0.0575275,0
47.065,-44.5981,0.0393098,0
47.3595,-44.3205,0.0216242,0
47.6452,-44.0418,0.00445137,0
47.8983,-43.6964,-0.0163201,0
48.1469,-43.3684,-0.0354656,0
48.3974,-43.0695,-0.052282,0
48.6401,-42.7725,-0.0684734,0
48.8752,-42.4774,-0.0840691,0
49.1029,-42.1842,-0.0990887,0
49.3235,-41.8927,-0.113542,0
49.5373,-41.603,-0.127438,0
49.7424,-41.3117,-0.141022,0
49.94,-41.0208,-0.154186,0
50.1384,-40.7428,-0.16612,0
50.3206,-40.4509,-0.178561,0
50.4968,-40.1613,-0.190505,0
50.6672,-39.8738,-0.20195,0
50.832,-39.5883,-0.212927,0
50.9912,-39.3048,-0.223434,0
51.1451,-39.0231,-0.233503,0
51.2938,-38.7432,-0.243132,0
51.4418,-38.4696,-0.252009,0
51.5992,-38.2119,-0.25943,0
51.7523,-37.9547,-0.266491,0
51.9014,-37.6978,-0.27318,0
52.0463,-37.4413,-0.279528,0
52.1873,-37.1851,-0.285524,0
52.3244,-36.9291,-0.291188,0
52.4577,-36.6732,-0.296511,0
52.5872,-36.4175,-0.301511,0
52.7108,-36.1602,-0.306335,0
52.8364,-35.9069,-0.310485,0
52.9606,-35.6547,-0.314216,0
53.0755,-35.3984,-0.317985,0
53.1867,-35.1419,-0.321452,0
53.2945,-34.8852,-0.324626,0
53.3988,-34.6281,-0.327507,0
53.4997,-34.3707,-0.330114,0
53.5972,-34.113,-0.332419,0
53.6912,-33.8548,-0.33444,0
53.7821,-33.5961,-0.336188,0
53.8806,-33.3411,-0.337077,0
53.9763,-33.0853,-0.337663,0
54.0691,-32.8283,-0.337975,0
54.1588,-32.5702,-0.338005,0
54.2455,-32.3108,-0.337751,0
54.3293,-32.0501,-0.337223,0
54.4102,-31.7882,-0.336413,0
54.4841,-31.5239,-0.335505,0
54.5546,-31.2583,-0.334362,0
54.6248,-30.9919,-0.33278,0
31.7509,-42.0977,0.43931,0
31.9955,-42.4007,0.438177,0
32.247,-42.7012,0.437073,0
32.5052,-42.9992,0.435999,0
32.7704,-43.2945,0.434969,0
33.0469,-43.5802,0.433333,0
33.3312,-43.8606,0.431561,0
33.6224,-44.1375,0.429803,0
33.9204,-44.4106,0.428079,0
34.2252,-44.6799,0.42638,0
35.2438,-43.5047,0.302583,174
35.5491,-43.7095,0.298333,174
35.1809,-45.463,0.421424,0
36.6145,-43.0318,0.20348,174
35.8771,-45.8985,0.413143,0
36.2363,-46.1001,0.40846,0
36.6009,-46.295,0.403763,0
37.8807,-43.5468,0.176107,174
37.3461,-46.6642,0.394363,0
38.9148,-42.297,0.0540084,174
39.2583,-42.1887,0.0334872,174
39.5529,-42.2689,0.0273792,174
39.8307,-42.4407,0.0282527,174
39.9632,-43.5052,0.0923084,174
41.1166,-37.8832,-0.31056,174
41.3362,-37.7602,-0.325546,174
41.545,-37.6782,-0.337208,174
41.7491,-37.5978,-0.348315,174
41.9488,-37.5188,-0.358895,174
42.1392,-37.5977,-0.358568,174
42.3296,-37.9559,-0.339589,174
42.6167,-45.7129,0.163458,174
43.0022,-46.0282,0.176197,174
43.3625,-45.6264,0.142976,174
43.6055,-43.9347,0.0279018,174
44.217,-46.6653,0.196746,0
44.5944,-46.4737,0.178861,0
44.9681,-46.302,0.162957,0
45.3046,-45.9391,0.135736,174
45.6697,-45.7981,0.123138,0
46.0037,-45.5269,0.103074,0
46.3284,-45.254,0.0835627,0
46.644,-44.9795,0.0646027,0
46.9505,-44.7035,0.0461848,0
47.2482,-44.4264,0.0283039,0
47.5373,-44.1482,0.0109309,0
47.803,-43.8277,-0.00848808,0
48.0499,-43.4844,-0.0287859,0
48.3029,-43.1831,-0.0459393,0
48.5485,-42.8855,-0.0623797,0
48.7865,-42.5897,-0.0781902,0
49.017,-42.2957,-0.0934344,0
49.2402,-42.0036,-0.108093,0
49.4566,-41.7132,-0.122214,0
49.6652,-41.423,-0.135886,0
49.8655,-41.1315,-0.149235,0
50.0641,-40.8495,-0.161569,0
50.2519,-40.5619,-0.173884,0
50.4303,-40.2715,-0.186003,0
50.603,-39.9831,-0.197643,0
50.7698,-39.6969,-0.208796,0
50.9311,-39.4126,-0.219479,0
51.087,-39.1302,-0.229723,0
51.2377,-38.8497,-0.239509,0
51.3834,-38.5709,-0.248884,0
51.5397,-38.3101,-0.256647,0
51.6945,-38.0527,-0.263845,0
51.8451,-37.7957,-0.270671,0
51.9916,-37.539,-0.277155,0
52.134,-37.2827,-0.283278,0
52.2726,-37.0266,-0.289069,0
52.4073,-36.7707,-0.294518,0
52.5383,-36.5149,-0.299645,0
52.6641,-36.2582,-0.304538,0
52.7875,-36.0025,-0.30902,0
52.9148,-35.7516,-0.312761,0
53.0322,-35.4961,-0.316579,0
53.1448,-35.2397,-0.320163,0
53.2538,-34.9831,-0.323444,0
53.3595,-34.7261,-0.326452,0
53.4616,-34.4689,-0.329157,0
53.5604,-34.2113,-0.331579,0
53.6559,-33.9533,-0.333708,0
53.7479,-33.6948,-0.335563,0
53.8433,-33.4384,-0.336774,0
53.9402,-33.1829,-0.337468,0
54.0341,-32.9264,-0.337887,0
54.125,-32.6687,-0.338024,0
54.2128,-32.4098,-0.337878,0
54.2977,-32.1497,-0.337458,0
54.3797,-31.8882,-0.336755,0
54.4565,-31.6248,-0.335886,0
54.5281,-31.3597,-0.334831,0
54.5972,-31.0933,-0.333483,0
31.9015,-42.2855,0.438607,0
32.1503,-42.587,0.437484,0
32.406,-42.886,0.4364,0
32.6684,-43.1823,0.43535,0
32.9402,-43.4723,0.434017,0
33.2221,-43.7542,0.432239,0
33.5106,-44.0324,0.430477,0
33.806,-44.307,0.428734,0
34.1083,-44.5778,0.427025,0
35.0031,-43.676,0.325607,174
35.4437,-43.6075,0.297895,174
37.192,-40.5847,0.0277689,174
36.4975,-42.9747,0.205879,174
35.7416,-45.8199,0.41492,0
36.0988,-46.024,0.410237,0
36.4613,-46.2215,0.405555,0
37.734,-43.5776,0.184462,174
38.0781,-43.6258,0.172546,174
38.7814,-42.3391,0.0621095,174
39.1285,-42.2297,0.0411887,174
39.4429,-42.2276,0.0288729,174
39.7258,-42.3672,0.0273055,174
39.9794,-42.6926,0.0392408,174
41.0222,-37.9881,-0.300642,174
41.2553,-37.7919,-0.320949,174
41.466,-37.7093,-0.33283,174
41.6718,-37.6283,-0.344145,174
41.8731,-37.5488,-0.354922,174
42.0679,-37.527,-0.361424,174
42.2565,-37.7544,-0.351113,174
42.4714,-44.7426,0.102899,174
42.8699,-46.5684,0.214321,174
43.2275,-45.7857,0.155927,174
43.4844,-44.0416,0.0369594,174
43.8286,-44.0892,0.0344043,174
44.4513,-46.5473,0.185628,0
44.8259,-46.3645,0.168758,0
45.1812,-46.0977,0.147311,174
45.5399,-45.9009,0.130946,0
45.8776,-45.6305,0.110653,0
46.2058,-45.3582,0.0909309,0
46.5248,-45.0843,0.0717658,0
46.8348,-44.8089,0.0531428,0
47.1358,-44.5322,0.035052,0
47.4281,-44.2543,0.0174934,0
47.7063,-43.9597,-0.000533981,0
47.957,-43.6148,-0.0211395,0
48.2072,-43.2971,-0.0395184,0
48.4559,-42.9987,-0.0561883,0
48.6966,-42.7022,-0.0722332,0
48.9299,-42.4075,-0.0877019,0
49.1559,-42.1147,-0.102575,0
49.3749,-41.8237,-0.116891,0
49.587,-41.5344,-0.130671,0
49.79,-41.2424,-0.144206,0
49.9875,-40.9543,-0.157087,0
50.1823,-40.6732,-0.169118,0
50.363,-40.3819,-0.181452,0
50.5378,-40.0928,-0.193259,0
50.7069,-39.8058,-0.204596,0
50.8702,-39.5208,-0.215466,0
51.0282,-39.2377,-0.225866,0
51.1809,-38.9564,-0.235827,0
51.3284,-38.677,-0.245358,0
51.4795,-38.4083,-0.253815,0
51.636,-38.1507,-0.261139,0
51.7881,-37.8936,-0.268112,0
51.9362,-37.6368,-0.274723,0
52.0802,-37.3804,-0.280983,0
52.2202,-37.1242,-0.286901,0
52.3563,-36.8682,-0.292487,0
52.4888,-36.6124,-0.297731,0
52.6169,-36.3563,-0.302682,0
52.7395,-36.099,-0.307438,0
52.8666,-35.8472,-0.311374,0
52.9883,-35.5938,-0.315124,0
53.1022,-35.3375,-0.318835,0
53.2127,-35.0809,-0.322243,0
53.3197,-34.8241,-0.325348,0
53.4231,-34.567,-0.328151,0
53.5231,-34.3095,-0.33068,0
53.6199,-34.0517,-0.332927,0
53.7132,-33.7934,-0.33488,0
53.8056,-33.5355,-0.336432,0
53.9036,-33.2804,-0.337243,0
53.9986,-33.0243,-0.337761,0
54.0906,-32.7671,-0.338005,0
54.1797,-32.5086,-0.337966,0
54.2657,-32.2489,-0.337663,0
54.3488,-31.988,-0.337057,0
54.4284,-31.7255,-0.336208,0
54.5012,-31.4609,-0.335261,0
54.5709,-31.195,-0.33405,0
54.6419,-30.9285,-0.332321,0
34.9973,-43.4997,0.433846,0
35.3591,-43.5906,0.41899,174
37.165,-40.4848,0.115081,174
36.4053,-42.9909,0.322016,174
36.7354,-43.0862,0.311045,174
36.5676,-44.5059,0.415399,0
36.8995,-44.6831,0.411126,0
37.6608,-43.5466,0.296845,174
39.0603,-40.0818,-0.00733475,174
38.6836,-42.4245,0.17274,174
39.0565,-42.2267,0.142993,174
39.3808,-42.1844,0.126772,174
39.6656,-42.3092,0.124508,174
39.9368,-42.5252,0.129797,174
40.9761,-37.9764,-0.233484,174
41.2127,-37.7622,-0.256919,174
41.4255,-37.6615,-0.271038,174
41.6308,-37.5815,-0.283071,174
41.8316,-37.5029,-0.294525,174
42.027,-37.4503,-0.303603,174
42.2144,-37.6105,-0.296645,174
42.3908,-44.4457,0.197175,174
42.7608,-45.6371,0.27596,0
43.127,-45.4636,0.256083,174
43.4092,-44.0884,0.150944,174
43.7404,-43.9797,0.13765,174
44.1918,-45.0075,0.20555,0
44.5336,-44.8363,0.188797,0
44.8689,-44.66,0.172391,0
45.1973,-44.4757,0.156092,0
45.3636,-43.5092,0.0857611,174
45.815,-44.007,0.118504,0
46.1119,-43.7696,0.100482,0
46.4009,-43.5305,0.0829572,0
46.6841,-43.2957,0.0663459,0
46.9604,-43.0613,0.0503449,0
47.2298,-42.8252,0.0348176,0
47.492,-42.5877,0.0197199,0
47.7428,-42.3368,0.00424141,0
47.9791,-42.0678,-0.0119988,0
48.2081,-41.7996,-0.0276727,0
48.4301,-41.5321,-0.0428191,0
48.645,-41.2654,-0.0574578,0
48.8534,-40.9995,-0.0715789,0
49.0624,-40.7476,-0.0842547,0
49.2655,-40.496,-0.096491,0
49.4627,-40.2446,-0.108278,0
49.6545,-39.9934,-0.119645,0
49.8404,-39.7425,-0.130593,0
50.021,-39.4919,-0.14113,0
50.1916,-39.2351,-0.151755,0
50.3509,-38.9715,-0.162536,0
50.5051,-38.7094,-0.172878,0
50.6591,-38.4542,-0.182341,0
50.8195,-38.2122,-0.190407,0
50.9755,-37.9705,-0.198102,0
51.1274,-37.7289,-0.205446,0
51.2752,-37.4874,-0.212419,0
51.419,-37.2461,-0.21905,0
51.556,-37.0022,-0.225573,0
51.6881,-36.7578,-0.231794,0
51.8164,-36.5134,-0.237712,0
51.9407,-36.2691,-0.243288,0
52.0618,-36.0253,-0.248512,0
52.183,-35.7843,-0.253151,0
52.3007,-35.543,-0.257468,0
52.4147,-35.3014,-0.261511,0
52.5252,-35.0595,-0.265231,0
52.6323,-34.8172,-0.268669,0
52.7359,-34.5745,-0.271823,0
52.8362,-34.3314,-0.274684,0
52.933,-34.0879,-0.277253,0
53.0265,-33.8439,-0.279548,0
53.1169,-33.5993,-0.281559,0
53.2134,-33.3582,-0.282702,0
53.3073,-33.1163,-0.283542,0
53.3984,-32.8733,-0.284108,0
53.4851,-32.6288,-0.284479,0
53.5666,-32.3825,-0.284694,0
53.6451,-32.1351,-0.284636,0
53.7204,-31.8866,-0.284313,0
53.7927,-31.637,-0.283698,0
53.8618,-31.3862,-0.282819,0
53.9278,-31.1342,-0.281677,0
53.9961,-30.8819,-0.279938,0
32.5641,-41.0934,0.447718,0
32.7905,-41.373,0.447181,0
33.7507,-40.661,0.339535,174
33.2867,-41.8902,0.442562,0
33.5444,-42.1423,0.44015,0
33.808,-42.3906,0.437737,0
34.0698,-42.6478,0.436624,0
34.3363,-42.9045,0.435814,0
34.6091,-43.1575,0.435018,0
34.8886,-43.4067,0.434227,0
35.227,-43.545,0.423541,174
36.9688,-40.6508,0.136815,174
35.7969,-44.0591,0.425535,0
36.6263,-43.0096,0.311586,174
36.4423,-44.4366,0.41702,0
37.1231,-43.6396,0.328976,174
37.1073,-44.7897,0.408485,0
38.9688,-40.0412,-0.00599915,174
38.4557,-42.7879,0.208099,174
38.9238,-42.272,0.151755,174
39.2689,-42.1541,0.129134,174
39.5589,-42.2514,0.124505,174
39.838,-42.4146,0.125528,174
40.0276,-43.1375,0.170411,174
41.129,-37.8085,-0.250796,174
41.346,-37.6923,-0.266293,174
41.5531,-37.6118,-0.278554,174
41.7556,-37.5327,-0.290226,174
41.9537,-37.4549,-0.301336,174
42.1433,-37.5164,-0.301752,174
42.3332,-37.7676,-0.288019,174
42.6102,-44.8855,0.224404,174
42.9888,-45.5458,0.26471,0
43.2815,-44.1232,0.155713,174
43.6058,-43.908,0.134571,174
44.0598,-45.0713,0.212029,0
44.4041,-44.9022,0.19514,0
44.7418,-44.7278,0.178602,0
45.0733,-44.5485,0.162405,0
45.3919,-44.3316,0.144241,0
45.6998,-44.097,0.125516,0
45.9997,-43.8603,0.107298,0
46.2916,-43.6218,0.0895783,0
46.5767,-43.3846,0.0725715,0
46.8559,-43.1508,0.0563996,0
47.1279,-42.9154,0.0406867,0
47.3929,-42.6784,0.025423,0
47.6508,-42.4395,0.0105695,0
47.8899,-42.1703,-0.00586601,0
48.1217,-41.9017,-0.0217644,0
48.3463,-41.634,-0.037116,0
48.5639,-41.3669,-0.0519402,0
48.7747,-41.1007,-0.0662566,0
48.9834,-40.8436,-0.0794793,0
49.1887,-40.5919,-0.0918816,0
49.3883,-40.3404,-0.103835,0
49.582,-40.0891,-0.115368,0
49.7702,-39.8382,-0.126462,0
49.9528,-39.5874,-0.137165,0
50.1294,-39.3359,-0.147526,0
50.2908,-39.0718,-0.158473,0
50.447,-38.8091,-0.168991,0
50.598,-38.5478,-0.17905,0
50.7589,-38.3044,-0.18738,0
50.9166,-38.0626,-0.195212,0
51.07,-37.821,-0.202692,0
51.2194,-37.5795,-0.209802,0
51.3647,-37.3381,-0.216569,0
51.5045,-37.0954,-0.223102,0
51.6383,-36.8509,-0.22947,0
51.768,-36.6066,-0.235495,0
51.8937,-36.3622,-0.241198,0
52.0157,-36.1179,-0.246589,0
52.1372,-35.8762,-0.251423,0
52.2562,-35.635,-0.255856,0
52.3716,-35.3935,-0.260007,0
52.4835,-35.1517,-0.263845,0
52.5919,-34.9096,-0.267399,0
52.6968,-34.6671,-0.270651,0
52.7983,-34.4241,-0.27362,0
52.8965,-34.1808,-0.276315,0
52.9913,-33.937,-0.278708,0
53.0827,-33.6926,-0.280827,0
53.1768,-33.4502,-0.282311,0
53.272,-33.2087,-0.283259,0
53.3641,-32.9661,-0.283932,0
53.4532,-32.7224,-0.284333,0
53.5359,-32.4765,-0.284645,0
53.6155,-32.2295,-0.284694,0
53.692,-31.9814,-0.28447,0
53.7654,-31.7323,-0.283962,0
53.8358,-31.4819,-0.2832,0
53.903,-31.2304,-0.282145,0
53.9703,-30.9782,-0.280651,0
32.7021,-41.2684,0.447571,0
32.9405,-41.5358,0.445892,0
33.19,-41.7931,0.44348,0
33.4455,-42.0467,0.441068,0
33.7069,-42.2964,0.438655,0
33.97,-42.5491,0.436937,0
34.234,-42.8071,0.436126,0
34.5045,-43.0614,0.435316,0
34.7813,-43.3122,0.434529,0
35.0661,-43.5562,0.433485,0
35.4352,-43.6317,0.417374,174
37.2257,-40.5145,0.11371,174
36.5051,-42.9632,0.314869,174
36.7812,-43.1912,0.315748,174
36.9794,-43.6443,0.336393,174
36.9791,-44.7243,0.410111,0
37.7633,-43.4942,0.288454,174
39.1057,-40.1471,-0.00483051,174
38.7767,-42.3653,0.164571,174
39.1385,-42.1987,0.137619,174
39.4491,-42.2101,0.125879,174
39.7319,-42.348,0.12475,174
39.992,-42.6346,0.13563,174
41.0359,-37.9091,-0.240387,174
41.2644,-37.7337,-0.260675,174
41.4747,-37.6423,-0.273952,174
41.6789,-37.5627,-0.285845,174
41.8787,-37.4844,-0.297165,174
42.0723,-37.4562,-0.304339,174
42.2595,-37.6702,-0.293382,174
42.4737,-44.667,0.211449,174
42.8486,-45.6023,0.271624,0
43.2107,-45.3736,0.247969,174
43.4792,-43.9319,0.138389,174
43.8277,-44.0536,0.141683,174
44.2735,-44.9673,0.201531,0
44.6138,-44.7949,0.184866,0
44.9477,-44.6174,0.168543,0
45.2723,-44.4205,0.151517,0
45.5834,-44.1866,0.132591,0
45.8863,-43.9507,0.114178,0
46.1812,-43.7129,0.0962775,0
46.4684,-43.4734,0.0788703,0
46.7504,-43.2401,0.062508,0
47.0251,-43.0053,0.0466242,0
47.2927,-42.7689,0.0311848,0
47.5534,-42.531,0.0162043,0
47.7997,-42.2728,0.000335159,0
48.0342,-42.004,-0.0157684,0
48.2616,-41.7359,-0.031325,0
48.4818,-41.4686,-0.0463445,0
48.6952,-41.2021,-0.0608562,0
48.9035,-40.9396,-0.0746355,0
49.1112,-40.6878,-0.0872039,0
49.3129,-40.4362,-0.0993328,0
49.5088,-40.1849,-0.111022,0
49.6991,-39.9338,-0.122282,0
49.8838,-39.6829,-0.133132,0
50.0631,-39.4324,-0.143571,0
50.2298,-39.1723,-0.154352,0
50.388,-38.9091,-0.165036,0
50.541,-38.6473,-0.175261,0
50.6977,-38.3967,-0.184294,0
50.857,-38.1548,-0.192272,0
51.012,-37.913,-0.19988,0
51.163,-37.6715,-0.207136,0
51.3098,-37.4301,-0.21403,0
51.4524,-37.1886,-0.220583,0
51.5877,-36.9441,-0.227077,0
51.719,-36.6997,-0.233229,0
51.8463,-36.4554,-0.239059,0
51.9697,-36.2111,-0.244577,0
52.0909,-35.9681,-0.249636,0
52.2113,-35.7269,-0.254206,0
52.328,-35.4856,-0.258454,0
52.4413,-35.2439,-0.262419,0
52.551,-35.0019,-0.266071,0
52.6573,-34.7596,-0.26944,0
52.76,-34.5168,-0.272526,0
52.8595,-34.2736,-0.275329,0
52.9555,-34.0299,-0.277829,0
53.0483,-33.7858,-0.280055,0
53.1397,-33.542,-0.281872,0
53.236,-33.3008,-0.282936,0
53.3293,-33.0587,-0.283708,0
53.4195,-32.8154,-0.284206,0
53.5048,-32.5703,-0.284557,0
53.5855,-32.3238,-0.284704,0
53.6632,-32.0761,-0.284587,0
53.7378,-31.8274,-0.284186,0
53.8094,-31.5775,-0.283522,0
53.8777,-31.3264,-0.282575,0
53.9441,-31.0743,-0.281305,0
54.012,-30.8217,-0.279489,0
35.5794,-42.3587,0.435736,0
35.8561,-42.5607,0.433353,0
37.1963,-40.4207,0.200564,174
36.4338,-42.9305,0.426624,0
36.7483,-43.0608,0.418838,174
37.0345,-43.267,0.418807,0
37.3414,-43.4266,0.414886,0
37.6874,-43.4731,0.401161,174
39.081,-40.0198,0.0713298,174
39.3199,-40.1287,0.0686315,174
39.0538,-42.2467,0.243907,174
39.3862,-42.171,0.223903,174
39.6719,-42.2902,0.221603,174
39.9444,-42.4961,0.227204,174
40.9893,-37.9031,-0.173292,174
41.2206,-37.716,-0.196174,174
41.4341,-37.5987,-0.212547,174
41.6382,-37.5165,-0.225447,174
41.8374,-37.4392,-0.237435,174
42.0317,-37.3808,-0.247404,174
42.2178,-37.529,-0.240279,174
42.3938,-44.2318,0.292064,0
42.735,-44.1957,0.28182,0
43.0712,-44.0705,0.265213,0
43.402,-43.9396,0.24889,0
43.7274,-43.803,0.23285,0
44.0474,-43.6611,0.217103,0
44.362,-43.5139,0.201658,0
44.671,-43.3618,0.186502,0
44.9745,-43.2048,0.171649,0
45.2705,-43.0333,0.156321,0
45.5562,-42.8377,0.139779,0
45.8352,-42.6392,0.123646,0
46.1076,-42.4379,0.107913,0
46.3734,-42.234,0.0925812,0
46.6329,-42.0273,0.0776008,0
46.8856,-41.8173,0.0629523,0
47.1321,-41.6054,0.0487043,0
47.3725,-41.3917,0.0348566,0
47.6067,-41.1763,0.0213898,0
47.8275,-40.9423,0.00699532,0
48.0443,-40.713,-0.00655937,0
48.2553,-40.4832,-0.0196551,0
48.4605,-40.2532,-0.0323211,0
48.6601,-40.0229,-0.0445574,0
48.8541,-39.7924,-0.0563738,0
49.0423,-39.5607,-0.0678582,0
49.225,-39.3287,-0.0789519,0
49.4024,-39.0964,-0.0896551,0
49.5747,-38.8641,-0.0999773,0
49.7419,-38.6315,-0.109929,0
49.9101,-38.4064,-0.118854,0
50.0784,-38.1867,-0.12693,0
50.2367,-37.9596,-0.135261,0
50.3889,-37.7302,-0.143425,0
50.5368,-37.5009,-0.151237,0
50.6805,-37.2714,-0.158698,0
50.8202,-37.0419,-0.165817,0
50.9557,-36.8122,-0.172604,0
51.0873,-36.5825,-0.179069,0
51.2149,-36.3526,-0.185202,0
51.3387,-36.1226,-0.191012,0
51.4616,-35.8947,-0.196276,0
51.5821,-35.6673,-0.201149,0
51.6989,-35.4395,-0.20572,0
51.8123,-35.2113,-0.209987,0
51.9222,-34.9827,-0.213962,0
52.0287,-34.7536,-0.217643,0
52.1318,-34.5241,-0.221042,0
52.2316,-34.294,-0.224147,0
52.328,-34.0635,-0.22697,0
52.4211,-33.8324,-0.229518,0
52.5069,-33.5988,-0.232067,0
52.6023,-33.3706,-0.233454,0
52.6921,-33.1403,-0.234733,0
52.7789,-32.909,-0.235739,0
52.8625,-32.6768,-0.236481,0
52.9431,-32.4436,-0.23696,0
53.0206,-32.2094,-0.237155,0
53.0951,-31.9742,-0.237087,0
53.1665,-31.7379,-0.236755,0
53.2348,-31.5004,-0.236149,0
53.3001,-31.2619,-0.23528,0
53.3643,-31.0226,-0.234001,0
53.4286,-30.7826,-0.232253,0
33.298,-40.1867,0.449652,0
33.5105,-40.4419,0.449241,0
33.7711,-40.6371,0.442143,174
33.9667,-40.925,0.446273,0
34.2063,-41.157,0.44429,0
34.4528,-41.3832,0.442073,0
34.7043,-41.606,0.439915,0
35.0396,-41.6889,0.423368,174
35.2087,-42.0665,0.43846,0
35.693,-41.8603,0.393607,174
35.7501,-42.4843,0.434251,0
37.0923,-40.3892,0.204357,174
37.3311,-40.549,0.202147,174
36.6259,-43.0173,0.42233,174
36.9187,-43.2046,0.420296,0
37.224,-43.3664,0.416375,0
37.5334,-43.5223,0.412454,0
38.9806,-40.0098,0.0753312,174
39.205,-40.1698,0.077038,174
38.9085,-42.3395,0.257449,174
39.274,-42.1422,0.226362,174
39.565,-42.2339,0.221478,174
39.8448,-42.3912,0.222756,174
40.0419,-43.0671,0.268533,174
41.1373,-37.7617,-0.189695,174
41.3535,-37.643,-0.20641,174
41.5611,-37.5463,-0.220718,174
41.762,-37.4685,-0.232936,174
41.9586,-37.392,-0.24456,174
42.1473,-37.4365,-0.245925,174
42.3351,-37.7207,-0.227732,174
42.6052,-44.2152,0.286097,0
42.9436,-44.1189,0.271502,0
43.2765,-43.9902,0.255071,0
43.604,-43.8557,0.238929,0
43.9261,-43.7158,0.223074,0
44.2427,-43.5706,0.207513,0
44.5538,-43.4204,0.192244,0
44.8595,-43.2652,0.177274,0
45.1596,-43.1053,0.162601,0
45.448,-42.9126,0.146038,0
45.7296,-42.7152,0.129749,0
46.0045,-42.515,0.11387,0
46.2729,-42.312,0.0983723,0
46.5348,-42.1066,0.0832844,0
46.79,-41.8975,0.0684895,0
47.0388,-41.6863,0.0540852,0
47.2816,-41.4733,0.040091,0
47.5181,-41.2586,0.0264777,0
47.744,-41.0313,0.0124152,0
47.9623,-40.8004,-0.00144218,0
48.1756,-40.5708,-0.0147234,0
48.383,-40.3409,-0.0275457,0
48.5847,-40.1107,-0.039948,0
48.7809,-39.8803,-0.0519207,0
48.9712,-39.649,-0.063532,0
49.1559,-39.4171,-0.0747625,0
49.3354,-39.185,-0.0856121,0
49.5097,-38.9527,-0.0960809,0
49.6787,-38.7201,-0.106169,0
49.8447,-38.4899,-0.11569,0
50.0148,-38.2705,-0.123893,0
50.1776,-38.0469,-0.132067,0
50.3314,-37.8177,-0.140358,0
50.4809,-37.5883,-0.148298,0
50.6262,-37.3589,-0.155895,0
50.7674,-37.1294,-0.163141,0
50.9045,-36.8998,-0.170055,0
51.0376,-36.6701,-0.176647,0
51.1667,-36.4402,-0.182907,0
51.292,-36.2103,-0.188835,0
51.4148,-35.9813,-0.194352,0
51.5366,-35.754,-0.199333,0
51.6548,-35.5264,-0.204011,0
51.7695,-35.2983,-0.208395,0
51.8807,-35.0699,-0.212477,0
51.9885,-34.841,-0.216276,0
52.0929,-34.6116,-0.219782,0
52.1939,-34.3818,-0.222985,0
52.2916,-34.1514,-0.225925,0
52.3859,-33.9205,-0.228581,0
52.4765,-33.6888,-0.231003,0
52.5663,-33.4577,-0.232956,0
52.6583,-33.2282,-0.234284,0
52.7462,-32.9973,-0.235387,0
52.831,-32.7654,-0.236237,0
52.9128,-32.5327,-0.236804,0
52.9915,-32.2988,-0.237106,0
53.0671,-32.064,-0.237145,0
53.1396,-31.8281,-0.236911,0
53.2091,-31.5911,-0.236403,0
53.2755,-31.353,-0.235632,0
53.3391,-31.1137,-0.234596,0
53.4045,-30.8742,-0.232946,0
33.4272,-40.3471,0.449652,0
33.6491,-40.5929,0.448323,0
33.878,-40.834,0.446839,0
34.1138,-41.0698,0.44513,0
34.3581,-41.2975,0.442913,0
34.608,-41.5213,0.440706,0
34.8579,-41.75,0.439466,0
35.1108,-41.9799,0.438734,0
35.5729,-41.8216,0.398377,174
35.6446,-42.4071,0.435169,0
36.8187,-40.7151,0.243911,174
37.2567,-40.4501,0.199214,174
36.5042,-42.9716,0.425696,0
36.8035,-43.1414,0.42179,0
37.1071,-43.3054,0.417874,0
37.415,-43.4636,0.413948,0
38.8584,-40.0672,0.0855849,174
39.134,-40.0578,0.0717465,174
39.3699,-40.1807,0.0703847,174
39.143,-42.1897,0.235634,174
39.4549,-42.1947,0.222909,174
39.7381,-42.3289,0.222019,174
40.0045,-42.5771,0.231316,174
41.0494,-37.8313,-0.181105,174
41.272,-37.6878,-0.200146,174
41.4834,-37.5763,-0.215898,174
41.6859,-37.498,-0.22835,174
41.8841,-37.421,-0.240196,174
42.0766,-37.3865,-0.24812,174
42.2626,-37.5875,-0.236674,174
42.475,-44.2258,0.289774,0
42.8154,-44.1665,0.277845,0
43.1502,-44.0399,0.261297,0
43.4798,-43.9076,0.245052,0
43.804,-43.7698,0.22909,0
44.1227,-43.6266,0.213416,0
44.4359,-43.4782,0.19803,0
44.7437,-43.3249,0.182952,0
45.0459,-43.1668,0.168157,0
45.3391,-42.9871,0.152347,0
45.623,-42.7908,0.135911,0
45.9005,-42.5916,0.119866,0
46.1713,-42.3897,0.104232,0
46.4358,-42.1852,0.0889973,0
46.6935,-41.9775,0.0740852,0
46.9448,-41.7671,0.0595246,0
47.1898,-41.5547,0.045384,0
47.4287,-41.3406,0.0316242,0
47.6609,-41.1233,0.0181379,0
47.8796,-40.8878,0.0037336,0
48.095,-40.6584,-0.00971367,0
48.3046,-40.4286,-0.0227117,0
48.5084,-40.1985,-0.0352703,0
48.7067,-39.9681,-0.0473992,0
48.8994,-39.7373,-0.0591375,0
49.0863,-39.5055,-0.070534,0
49.2677,-39.2735,-0.0815203,0
49.4438,-39.0412,-0.0921355,0
49.6149,-38.8088,-0.10237,0
49.7809,-38.5762,-0.112233,0
49.9504,-38.3542,-0.120798,0
50.1178,-38.1343,-0.128805,0
50.2733,-37.9051,-0.137233,0
50.4245,-37.6757,-0.145309,0
50.5713,-37.4463,-0.153044,0
50.7141,-37.2169,-0.160417,0
50.8527,-36.9873,-0.167458,0
50.9873,-36.7576,-0.174167,0
51.118,-36.5279,-0.180554,0
51.2447,-36.298,-0.186608,0
51.3676,-36.0679,-0.19236,0
51.4906,-35.8407,-0.197468,0
51.6102,-35.6132,-0.202262,0
51.7262,-35.3853,-0.206755,0
51.8387,-35.157,-0.210964,0
51.9478,-34.9283,-0.21486,0
52.0534,-34.6991,-0.218473,0
52.1558,-34.4695,-0.221804,0
52.2548,-34.2393,-0.224841,0
52.3504,-34.0086,-0.227595,0
52.4428,-33.7774,-0.230075,0
52.5294,-33.5444,-0.232458,0
52.6239,-33.3159,-0.233776,0
52.713,-33.0854,-0.234997,0
52.7991,-32.8539,-0.235944,0
52.882,-32.6215,-0.236618,0
52.9618,-32.3881,-0.237028,0
53.0386,-32.1536,-0.237165,0
53.1123,-31.9181,-0.237028,0
53.183,-31.6815,-0.236628,0
53.2506,-31.4438,-0.235973,0
53.3152,-31.205,-0.235026,0
53.3799,-30.9657,-0.23361,0
53.4434,-30.7253,-0.231794,0
36.0856,-41.3662,0.435677,0
36.8712,-40.4503,0.314553,174
37.2178,-40.3783,0.287451,174
36.8745,-41.9024,0.428948,0
37.1519,-42.0583,0.425335,0
