87.2897,-62.2445,-3.68129,0
87.3862,-62.173,-3.70666,0
87.4814,-62.0995,-3.73204,0
87.5752,-62.024,-3.75744,0
87.6677,-61.9464,-3.78285,0
87.7588,-61.8668,-3.80825,0
87.8484,-61.7852,-3.83365,0
87.9366,-61.7016,-3.85904,0
88.0232,-61.616,-3.88438,0
88.1082,-61.5284,-3.90968,0
88.1917,-61.4389,-3.93496,0
88.2735,-61.3475,-3.96017,0
88.3537,-61.2542,-3.98533,0
88.4321,-61.159,-4.01041,0
88.5088,-61.0619,-4.03541,0
88.5837,-60.963,-4.06032,0
88.6568,-60.8623,-4.08514,0
88.7274,-60.7595,-4.10995,0
88.7855,-60.6501,-4.13663,0
88.841,-60.5394,-4.16311,0
88.8941,-60.4273,-4.18935,0
88.9449,-60.3141,-4.21536,0
88.993,-60.1996,-4.24114,0
89.0388,-60.0839,-4.26665,0
89.0821,-59.9672,-4.29189,0
89.1228,-59.8494,-4.31685,0
89.1609,-59.7306,-4.34152,0
89.1965,-59.6108,-4.36587,0
89.2295,-59.4902,-4.38991,0
89.2598,-59.3687,-4.41363,0
89.2874,-59.2464,-4.437,0
89.3123,-59.1233,-4.46003,0
89.3348,-58.9996,-4.4827,0
89.3544,-58.8752,-4.50499,0
89.3712,-58.7502,-4.5269,0
89.3855,-58.6248,-4.54841,0
89.3913,-58.4987,-4.57002,0
89.3855,-58.3724,-4.59194,0
89.3773,-58.2465,-4.61329,0
89.367,-58.1208,-4.63406,0
89.3537,-57.9955,-4.65431,0
89.3373,-57.8706,-4.67404,0
89.3179,-57.7463,-4.69323,0
89.2955,-57.6225,-4.71188,0
89.2701,-57.4995,-4.72998,0
89.2418,-57.3772,-4.74751,0
89.2105,-57.2557,-4.76448,0
89.1764,-57.1352,-4.78086,0
89.1395,-57.0156,-4.79667,0
89.0997,-56.897,-4.81188,0
89.0572,-56.7796,-4.82649,0
89.0119,-56.6633,-4.8405,0
88.964,-56.5483,-4.85389,0
88.9164,-56.4334,-4.86655,0
88.8673,-56.3194,-4.87856,0
88.8155,-56.2066,-4.88996,0
88.7611,-56.0951,-4.90075,0
88.7042,-55.9849,-4.91093,0
88.6448,-55.8762,-4.92049,0
88.58,-55.7705,-4.92951,0
83.828,-62.8549,-3.16717,0
83.9361,-62.8658,-3.18071,0
84.0447,-62.8746,-3.19453,0
84.1536,-62.8814,-3.20862,0
84.263,-62.8861,-3.22297,0
84.3726,-62.8888,-3.23758,0
84.4825,-62.8894,-3.25246,0
84.5927,-62.8879,-3.26761,0
84.7032,-62.8843,-3.28302,0
84.8141,-62.8797,-3.29826,0
84.9253,-62.8729,-3.31376,0
85.0366,-62.864,-3.32951,0
85.1491,-62.8553,-3.34457,0
85.2623,-62.8461,-3.35929,0
85.3759,-62.8345,-3.37433,0
85.4896,-62.8206,-3.38966,0
88.8917,-60.037,-4.24818,0
88.9338,-59.9236,-4.27272,0
88.9734,-59.8091,-4.29698,0
89.0106,-59.6937,-4.32097,0
89.0452,-59.5774,-4.34465,0
89.0773,-59.4601,-4.36803,0
89.1069,-59.3421,-4.39109,0
89.1338,-59.2233,-4.41381,0
89.1582,-59.1037,-4.43618,0
89.18,-58.9835,-4.45821,0
89.1991,-58.8627,-4.47988,0
89.2155,-58.7413,-4.50118,0
89.2184,-58.6189,-4.5232,0
89.2162,-58.4964,-4.54497,0
89.2111,-58.3742,-4.56626,0
89.2036,-58.2522,-4.58701,0
89.1941,-58.1305,-4.60718,0
89.1816,-58.0091,-4.62686,0
89.1662,-57.8882,-4.64604,0
89.1479,-57.7677,-4.6647,0
89.1266,-57.6478,-4.68284,0
89.1025,-57.5286,-4.70045,0
89.0755,-57.4101,-4.71751,0
89.0457,-57.2923,-4.73403,0
89.0131,-57.1754,-4.74999,0
88.9777,-57.0594,-4.76538,0
88.9397,-56.9445,-4.7802,0
88.8989,-56.8305,-4.79446,0
88.8555,-56.7177,-4.80811,0
88.8109,-56.6057,-4.82112,0
88.7661,-56.4938,-4.83342,0
88.7187,-56.3831,-4.84512,0
88.6689,-56.2736,-4.85626,0
88.6165,-56.1654,-4.86679,0
88.5616,-56.0584,-4.87674,0
88.5044,-55.9528,-4.88608,0
88.4448,-55.8486,-4.89483,0
83.8227,-62.7385,-3.17898,0
83.9282,-62.749,-3.19219,0
84.0341,-62.7576,-3.20567,0
84.1402,-62.7641,-3.21941,0
84.2468,-62.7686,-3.23341,0
84.3537,-62.7711,-3.24767,0
84.4609,-62.7716,-3.2622,0
84.5683,-62.77,-3.27697,0
84.6759,-62.7663,-3.292,0
84.7839,-62.7613,-3.30698,0
84.8923,-62.7546,-3.3221,0
85.0008,-62.7456,-3.33747,0
85.1094,-62.7346,-3.35309,0
85.2182,-62.7214,-3.36896,0
85.3285,-62.7097,-3.38363,0
85.4391,-62.6958,-3.39859,0
85.5498,-62.6796,-3.41384,0
85.6607,-62.6611,-3.4294,0
85.7718,-62.6401,-3.44525,0
85.8828,-62.6169,-3.46139,0
85.9939,-62.5912,-3.47783,0
86.1049,-62.5631,-3.49456,0
86.2159,-62.5325,-3.51156,0
86.3268,-62.4995,-3.52885,0
86.4375,-62.464,-3.54642,0
86.548,-62.426,-3.56426,0
86.6582,-62.3854,-3.58237,0
86.768,-62.3423,-3.60076,0
86.8775,-62.2967,-3.6194,0
86.9866,-62.2485,-3.63829,0
87.0952,-62.1977,-3.65744,0
87.1998,-62.1408,-3.67813,0
87.2938,-62.0711,-3.70283,0
87.3865,-61.9995,-3.72756,0
87.4778,-61.9258,-3.7523,0
87.5678,-61.8501,-3.77704,0
87.6564,-61.7725,-3.80178,0
87.7435,-61.6929,-3.82651,0
87.8292,-61.6113,-3.85121,0
87.9134,-61.5279,-3.87589,0
87.9962,-61.4425,-3.90052,0
88.0773,-61.3552,-3.92512,0
88.1568,-61.2661,-3.94966,0
88.2347,-61.1751,-3.97413,0
88.3108,-61.0823,-3.99854,0
88.3852,-60.9877,-4.02285,0
88.458,-60.8912,-4.04708,0
88.5288,-60.793,-4.07121,0
88.5905,-60.6896,-4.09673,0
88.6468,-60.5833,-4.12267,0
88.7009,-60.4757,-4.1484,0
88.7526,-60.3668,-4.17392,0
88.8019,-60.2567,-4.1992,0
88.8487,-60.1454,-4.22425,0
88.8933,-60.0331,-4.24903,0
88.9352,-59.9196,-4.27357,0
88.9748,-59.8051,-4.29782,0
89.0119,-59.6897,-4.32179,0
89.0464,-59.5733,-4.34546,0
89.0784,-59.4561,-4.36883,0
89.1078,-59.338,-4.39187,0
89.1348,-59.2191,-4.41459,0
89.159,-59.0996,-4.43695,0
89.1806,-58.9793,-4.45898,0
89.1997,-58.8585,-4.48063,0
89.2161,-58.7371,-4.50191,0
89.2184,-58.6146,-4.52397,0
89.2162,-58.4922,-4.54571,0
89.2109,-58.37,-4.56698,0
89.2033,-58.248,-4.58772,0
89.1937,-58.1263,-4.60788,0
89.1811,-58.0049,-4.62753,0
89.1655,-57.884,-4.64669,0
89.1472,-57.7635,-4.66534,0
89.1259,-57.6437,-4.68346,0
89.1016,-57.5245,-4.70105,0
89.0745,-57.406,-4.71809,0
89.0446,-57.2882,-4.73458,0
89.0119,-57.1714,-4.75053,0
88.9765,-57.0554,-4.7659,0
88.9384,-56.9405,-4.7807,0
88.8975,-56.8266,-4.79493,0
88.854,-56.7139,-4.80857,0
88.8093,-56.6018,-4.82155,0
88.7645,-56.49,-4.83383,0
88.717,-56.3793,-4.84552,0
88.667,-56.2699,-4.85663,0
88.6147,-56.1616,-4.86715,0
88.5597,-56.0547,-4.87707,0
88.5024,-55.9492,-4.88639,0
88.4427,-55.845,-4.89511,0
83.8263,-62.7389,-3.17943,0
83.9318,-62.7494,-3.19265,0
84.0377,-62.7578,-3.20614,0
84.144,-62.7643,-3.21989,0
84.2505,-62.7688,-3.2339,0
84.3574,-62.7712,-3.24818,0
84.4645,-62.7716,-3.2627,0
84.572,-62.7699,-3.27749,0
84.6797,-62.7662,-3.29253,0
84.7877,-62.7612,-3.3075,0
84.896,-62.7543,-3.32262,0
85.0045,-62.7453,-3.338,0
85.1132,-62.7342,-3.35363,0
85.222,-62.721,-3.36948,0
85.3323,-62.7093,-3.38415,0
85.443,-62.6953,-3.39911,0
85.5537,-62.679,-3.41438,0
85.6645,-62.6604,-3.42995,0
85.7756,-62.6394,-3.44581,0
85.8866,-62.616,-3.46195,0
85.9977,-62.5902,-3.4784,0
86.1087,-62.5621,-3.49514,0
86.2198,-62.5314,-3.51215,0
86.3307,-62.4983,-3.52945,0
86.4413,-62.4627,-3.54703,0
86.5518,-62.4246,-3.56488,0
86.6619,-62.384,-3.583,0
86.7718,-62.3408,-3.60139,0
86.8813,-62.2951,-3.62004,0
86.9903,-62.2468,-3.63895,0
87.0989,-62.1959,-3.65811,0
87.2032,-62.1384,-3.67898,0
87.297,-62.0687,-3.70369,0
87.3896,-61.9969,-3.72842,0
87.4809,-61.9232,-3.75316,0
87.5709,-61.8474,-3.7779,0
87.6595,-61.7697,-3.80263,0
87.7466,-61.6901,-3.82736,0
87.8322,-61.6085,-3.85207,0
87.9163,-61.5249,-3.87674,0
87.999,-61.4395,-3.90138,0
88.08,-61.3522,-3.92597,0
88.1595,-61.263,-3.95051,0
88.2373,-61.1719,-3.97498,0
88.3134,-61.079,-3.99938,0
88.3878,-60.9843,-4.02369,0
88.4605,-60.8879,-4.04792,0
88.5312,-60.7896,-4.07204,0
88.5924,-60.6859,-4.09763,0
88.6488,-60.5796,-4.12357,0
88.7027,-60.4719,-4.14929,0
88.7543,-60.363,-4.1748,0
88.8035,-60.2529,-4.20008,0
88.8503,-60.1416,-4.22511,0
88.8948,-60.0291,-4.2499,0
88.9366,-59.9157,-4.27441,0
88.9761,-59.8012,-4.29866,0
89.0131,-59.6857,-4.32262,0
89.0476,-59.5693,-4.34628,0
89.0795,-59.452,-4.36963,0
89.1088,-59.3339,-4.39266,0
89.1355,-59.215,-4.41536,0
89.1598,-59.0954,-4.43773,0
89.1813,-58.9752,-4.45973,0
89.2003,-58.8543,-4.48137,0
89.2166,-58.7328,-4.50263,0
89.2184,-58.6104,-4.52473,0
89.216,-58.488,-4.54646,0
89.2107,-58.3657,-4.56771,0
89.203,-58.2438,-4.58842,0
89.1934,-58.1221,-4.60857,0
89.1806,-58.0007,-4.62821,0
89.1651,-57.8798,-4.64735,0
89.1465,-57.7594,-4.66598,0
89.125,-57.6395,-4.68407,0
89.1007,-57.5204,-4.70164,0
89.0735,-57.4019,-4.71867,0
89.0435,-57.2842,-4.73515,0
89.0107,-57.1674,-4.75107,0
88.9752,-57.0515,-4.76642,0
88.937,-56.9365,-4.7812,0
88.896,-56.8227,-4.79541,0
88.8524,-56.71,-4.80903,0
88.8078,-56.5979,-4.82199,0
88.7629,-56.4861,-4.83424,0
88.7154,-56.3755,-4.84592,0
88.6653,-56.2661,-4.857,0
88.6128,-56.1579,-4.86751,0
88.5577,-56.051,-4.87741,0
88.5004,-55.9455,-4.88671,0
88.4405,-55.8415,-4.89541,0
83.8299,-62.7393,-3.17988,0
83.9355,-62.7497,-3.19312,0
84.0413,-62.7581,-3.2066,0
84.1477,-62.7645,-3.22037,0
84.2543,-62.7689,-3.23439,0
84.3611,-62.7712,-3.24867,0
84.4683,-62.7716,-3.26321,0
84.5758,-62.7698,-3.27801,0
84.6834,-62.766,-3.29306,0
84.7915,-62.761,-3.30802,0
84.8998,-62.754,-3.32315,0
85.0083,-62.7449,-3.33854,0
85.117,-62.7338,-3.35418,0
85.2259,-62.7206,-3.36999,0
85.3362,-62.7088,-3.38466,0
85.4468,-62.6948,-3.39964,0
88.7551,-59.9848,-4.23234,0
88.796,-59.8745,-4.25619,0
88.8344,-59.7632,-4.27978,0
88.8705,-59.6509,-4.30309,0
88.9041,-59.5377,-4.32612,0
88.9352,-59.4237,-4.34883,0
88.9638,-59.3089,-4.37123,0
88.9899,-59.1933,-4.39332,0
89.0135,-59.077,-4.41507,0
89.0345,-58.9601,-4.43648,0
89.0477,-58.8421,-4.45814,0
89.0518,-58.7234,-4.48014,0
89.053,-58.6047,-4.5017,0
89.0512,-58.4861,-4.52282,0
89.0465,-58.3676,-4.54348,0
89.0395,-58.2494,-4.56363,0
89.0305,-58.1315,-4.58321,0
89.0186,-58.0138,-4.60231,0
89.0038,-57.8966,-4.62093,0
88.9863,-57.7798,-4.63906,0
88.9659,-57.6636,-4.65667,0
88.9428,-57.548,-4.67378,0
88.9169,-57.433,-4.69036,0
88.8882,-57.3189,-4.70641,0
88.8568,-57.2055,-4.72193,0
88.8228,-57.093,-4.73689,0
88.7861,-56.9815,-4.75131,0
88.7468,-56.8709,-4.76518,0
88.7052,-56.7614,-4.77846,0
88.6644,-56.6519,-4.79098,0
88.6211,-56.5434,-4.80295,0
88.5752,-56.4359,-4.81433,0
88.527,-56.3296,-4.82517,0
88.4763,-56.2245,-4.83543,0
88.4232,-56.1206,-4.8451,0
88.3678,-56.0181,-4.85421,0
88.3102,-55.9169,-4.86272,0
83.8248,-62.6281,-3.19113,0
83.9277,-62.6382,-3.20405,0
84.0311,-62.6463,-3.21723,0
84.1347,-62.6525,-3.23066,0
84.2387,-62.6567,-3.24434,0
84.3429,-62.6589,-3.25829,0
84.4475,-62.659,-3.27248,0
84.5523,-62.6572,-3.28692,0
84.6573,-62.6534,-3.30161,0
84.7625,-62.648,-3.31632,0
84.8681,-62.6411,-3.33109,0
84.9738,-62.6321,-3.34611,0
85.0798,-62.621,-3.36137,0
85.1858,-62.6077,-3.37688,0
85.2919,-62.5924,-3.39261,0
85.3985,-62.5762,-3.4081,0
85.5062,-62.5599,-3.42299,0
85.614,-62.5413,-3.43817,0
85.7218,-62.5205,-3.45363,0
85.8297,-62.4973,-3.46938,0
85.9376,-62.4718,-3.48541,0
86.0454,-62.4439,-3.50171,0
86.153,-62.4136,-3.51829,0
86.2606,-62.381,-3.53514,0
86.368,-62.3459,-3.55226,0
86.4752,-62.3084,-3.56963,0
86.5819,-62.2684,-3.58727,0
86.6884,-62.226,-3.60517,0
86.7944,-62.181,-3.62331,0
86.9,-62.1336,-3.64169,0
87.0051,-62.0837,-3.66032,0
87.1095,-62.0312,-3.67918,0
87.2089,-61.9716,-3.70002,0
87.2991,-61.9016,-3.72413,0
87.388,-61.8296,-3.74823,0
87.4755,-61.7557,-3.77235,0
87.5617,-61.6799,-3.79645,0
87.6466,-61.6022,-3.82054,0
87.7299,-61.5225,-3.84461,0
87.8119,-61.4411,-3.86863,0
87.8922,-61.3577,-3.89263,0
87.971,-61.2725,-3.91658,0
88.0483,-61.1855,-3.94048,0
88.1239,-61.0967,-3.9643,0
88.1979,-61.0061,-3.98805,0
88.2702,-60.9137,-4.01171,0
88.3407,-60.8196,-4.03528,0
88.4054,-60.7218,-4.05966,0
88.4623,-60.6197,-4.08507,0
88.5172,-60.5162,-4.1103,0
88.5697,-60.4116,-4.13531,0
88.6198,-60.3057,-4.16012,0
88.6678,-60.1986,-4.18471,0
88.7134,-60.0903,-4.20906,0
88.7566,-59.981,-4.23317,0
88.7973,-59.8706,-4.25701,0
88.8357,-59.7593,-4.28059,0
88.8717,-59.647,-4.30389,0
88.9052,-59.5338,-4.3269,0
88.9362,-59.4197,-4.34962,0
88.9647,-59.3049,-4.37201,0
88.9907,-59.1893,-4.39408,0
89.0143,-59.073,-4.41582,0
89.0352,-58.956,-4.43722,0
89.048,-58.838,-4.45891,0
89.0519,-58.7193,-4.48089,0
89.053,-58.6006,-4.50244,0
89.0511,-58.482,-4.52354,0
89.0462,-58.3635,-4.54419,0
89.0391,-58.2453,-4.56431,0
89.0301,-58.1274,-4.58388,0
89.0181,-58.0098,-4.60297,0
89.0034,-57.8925,-4.62156,0
88.9856,-57.7758,-4.63967,0
88.9652,-57.6596,-4.65727,0
88.9419,-57.544,-4.67436,0
88.9159,-57.4291,-4.69092,0
88.8871,-57.3149,-4.70696,0
88.8557,-57.2016,-4.72245,0
88.8216,-57.0891,-4.7374,0
88.7848,-56.9776,-4.7518,0
88.7455,-56.8671,-4.76565,0
88.7038,-56.7576,-4.7789,0
88.6629,-56.6481,-4.79141,0
88.6195,-56.5396,-4.80335,0
88.5736,-56.4322,-4.81472,0
88.5252,-56.3259,-4.82554,0
88.4745,-56.2209,-4.83577,0
88.4213,-56.1171,-4.84543,0
88.3659,-56.0146,-4.8545,0
88.308,-55.9135,-4.863,0
83.8284,-62.6285,-3.19157,0
83.9313,-62.6385,-3.2045,0
84.0346,-62.6465,-3.21768,0
84.1383,-62.6526,-3.23112,0
84.2423,-62.6568,-3.24483,0
84.3466,-62.6589,-3.25878,0
84.4511,-62.659,-3.27298,0
84.5559,-62.6571,-3.28743,0
84.6609,-62.6532,-3.30212,0
84.7662,-62.6478,-3.31683,0
84.8718,-62.6408,-3.3316,0
84.9776,-62.6317,-3.34663,0
85.0834,-62.6205,-3.3619,0
85.1895,-62.6072,-3.37741,0
85.2955,-62.5918,-3.39317,0
85.4023,-62.5756,-3.40861,0
85.5099,-62.5593,-3.42351,0
85.6177,-62.5407,-3.4387,0
85.7255,-62.5197,-3.45417,0
85.8334,-62.4965,-3.46993,0
85.9413,-62.4709,-3.48597,0
86.0491,-62.4429,-3.50228,0
86.1568,-62.4126,-3.51887,0
86.2643,-62.3798,-3.53572,0
86.3717,-62.3446,-3.55285,0
86.4788,-62.307,-3.57024,0
86.5856,-62.267,-3.58789,0
86.692,-62.2245,-3.60579,0
86.798,-62.1795,-3.62394,0
86.9037,-62.1319,-3.64234,0
87.0088,-62.0819,-3.66097,0
87.1131,-62.0293,-3.67984,0
87.212,-61.9692,-3.70086,0
87.3023,-61.8992,-3.72496,0
87.391,-61.8271,-3.74907,0
87.4786,-61.7531,-3.77318,0
87.5648,-61.6772,-3.79728,0
87.6495,-61.5995,-3.82137,0
87.7328,-61.5198,-3.84544,0
87.8146,-61.4382,-3.86947,0
87.8949,-61.3548,-3.89346,0
87.9737,-61.2695,-3.91741,0
88.0509,-61.1824,-3.9413,0
88.1265,-61.0936,-3.96511,0
88.2005,-61.0029,-3.98887,0
88.2726,-60.9105,-4.01254,0
88.343,-60.8163,-4.03611,0
88.4074,-60.7183,-4.06054,0
88.4643,-60.6161,-4.08594,0
88.5191,-60.5126,-4.11116,0
88.5715,-60.4079,-4.13618,0
88.6216,-60.302,-4.16098,0
88.6694,-60.1948,-4.18556,0
88.7148,-60.0865,-4.20991,0
88.758,-59.9772,-4.234,0
88.7987,-59.8668,-4.25784,0
88.837,-59.7554,-4.28141,0
88.8729,-59.6431,-4.30469,0
88.9063,-59.5298,-4.3277,0
88.9372,-59.4158,-4.35039,0
88.9657,-59.3009,-4.37278,0
88.9916,-59.1853,-4.39484,0
89.015,-59.0689,-4.41657,0
89.0359,-58.952,-4.43795,0
89.0481,-58.8339,-4.45968,0
89.052,-58.7152,-4.48164,0
89.053,-58.5965,-4.50319,0
89.051,-58.4779,-4.52426,0
89.046,-58.3594,-4.54489,0
89.0389,-58.2412,-4.565,0
89.0297,-58.1233,-4.58454,0
89.0177,-58.0057,-4.60362,0
89.0027,-57.8885,-4.6222,0
88.985,-57.7717,-4.64029,0
88.9645,-57.6556,-4.65788,0
88.941,-57.54,-4.67494,0
88.915,-57.4251,-4.69149,0
88.8861,-57.311,-4.70751,0
88.8546,-57.1977,-4.72298,0
88.8203,-57.0852,-4.73791,0
88.7834,-56.9738,-4.75229,0
88.7441,-56.8633,-4.76612,0
88.7023,-56.7538,-4.77936,0
88.6614,-56.6443,-4.79183,0
88.618,-56.5359,-4.80375,0
88.572,-56.4285,-4.81511,0
88.5236,-56.3223,-4.8259,0
88.4727,-56.2173,-4.83612,0
88.4194,-56.1135,-4.84575,0
88.3639,-56.0111,-4.85481,0
88.306,-55.91,-4.86328,0
83.8319,-62.6289,-3.19202,0
83.9349,-62.6388,-3.20496,0
84.0383,-62.6468,-3.21815,0
84.142,-62.6528,-3.23159,0
84.2459,-62.6569,-3.2453,0
84.3502,-62.6589,-3.25926,0
84.4548,-62.659,-3.27347,0
84.5595,-62.657,-3.28793,0
84.6645,-62.6531,-3.30263,0
84.7698,-62.6476,-3.31734,0
84.8755,-62.6405,-3.33212,0
84.9812,-62.6314,-3.34716,0
85.0872,-62.6201,-3.36243,0
85.1932,-62.6067,-3.37795,0
85.2992,-62.5913,-3.3937,0
85.406,-62.5751,-3.40912,0
88.6252,-59.9352,-4.21728,0
88.6649,-59.8278,-4.24049,0
88.7023,-59.7195,-4.26343,0
88.7373,-59.6102,-4.28612,0
88.7699,-59.5,-4.30851,0
88.8002,-59.3891,-4.3306,0
88.8279,-59.2773,-4.35238,0
88.8532,-59.1648,-4.37386,0
88.8745,-59.0515,-4.39522,0
88.8845,-58.9366,-4.41737,0
88.8915,-58.8215,-4.43912,0
88.8956,-58.7064,-4.46048,0
88.8969,-58.5913,-4.48141,0
88.8955,-58.4763,-4.50193,0
88.8912,-58.3614,-4.522,0
88.8846,-58.2468,-4.54156,0
88.8761,-58.1324,-4.56058,0
88.8648,-58.0183,-4.57914,0
88.8506,-57.9045,-4.59724,0
88.8338,-57.7912,-4.61485,0
88.8142,-57.6785,-4.63197,0
88.792,-57.5663,-4.64861,0
88.767,-57.4547,-4.66473,0
88.7395,-57.3439,-4.68035,0
88.7093,-57.2339,-4.69544,0
88.6765,-57.1247,-4.71,0
88.6411,-57.0164,-4.72403,0
88.6033,-56.9091,-4.73752,0
88.5653,-56.802,-4.75031,0
88.5258,-56.6956,-4.76249,0
88.4838,-56.5902,-4.77413,0
88.4395,-56.4858,-4.78522,0
88.3927,-56.3825,-4.79576,0
88.3437,-56.2804,-4.80575,0
88.2923,-56.1795,-4.81518,0
88.2387,-56.0799,-4.82405,0
88.1827,-55.9816,-4.83234,0
83.8268,-62.5225,-3.20276,0
83.9273,-62.5321,-3.2154,0
84.0282,-62.5399,-3.22828,0
84.1294,-62.5457,-3.24142,0
84.2309,-62.5496,-3.2548,0
84.3327,-62.5515,-3.26843,0
84.4347,-62.5514,-3.28231,0
84.5369,-62.5494,-3.29642,0
84.6394,-62.5454,-3.31079,0
84.7421,-62.5398,-3.32524,0
84.8451,-62.5327,-3.33968,0
84.9482,-62.5236,-3.35436,0
85.0514,-62.5124,-3.36928,0
85.1548,-62.4992,-3.38443,0
85.2582,-62.4839,-3.3998,0
85.3617,-62.4665,-3.41541,0
85.4652,-62.447,-3.43124,0
85.5695,-62.4274,-3.44651,0
85.6743,-62.4066,-3.46161,0
85.7791,-62.3836,-3.47697,0
85.884,-62.3582,-3.49261,0
85.9887,-62.3306,-3.50852,0
86.0934,-62.3006,-3.52468,0
86.1977,-62.2683,-3.54112,0
86.3019,-62.2337,-3.5578,0
86.4059,-62.1967,-3.57473,0
86.5095,-62.1573,-3.59193,0
86.6127,-62.1155,-3.60935,0
86.7155,-62.0713,-3.62702,0
86.8179,-62.0246,-3.64492,0
86.9197,-61.9755,-3.66305,0
87.0209,-61.924,-3.68141,0
87.1213,-61.87,-3.69997,0
87.2158,-61.8082,-3.72085,0
87.3023,-61.7379,-3.74436,0
87.3876,-61.6657,-3.76786,0
87.4715,-61.5916,-3.79136,0
87.5541,-61.5157,-3.81484,0
87.6352,-61.4379,-3.8383,0
87.7148,-61.3582,-3.86173,0
87.793,-61.2768,-3.8851,0
87.8698,-61.1936,-3.90843,0
87.9448,-61.1086,-3.93171,0
88.0184,-61.0219,-3.95492,0
88.0902,-60.9334,-3.97805,0
88.1604,-60.8432,-4.0011,0
88.2277,-60.7507,-4.02436,0
88.2852,-60.6526,-4.04926,0
88.3408,-60.5532,-4.074,0
88.394,-60.4526,-4.09854,0
88.445,-60.3507,-4.12288,0
88.4939,-60.2476,-4.14703,0
88.5404,-60.1433,-4.17095,0
88.5848,-60.0379,-4.19464,0
88.6266,-59.9315,-4.21809,0
88.6663,-59.8241,-4.2413,0
88.7035,-59.7157,-4.26423,0
88.7384,-59.6064,-4.2869,0
88.771,-59.4962,-4.30927,0
88.8011,-59.3852,-4.33135,0
88.8288,-59.2734,-4.35314,0
88.8541,-59.1609,-4.37461,0
88.8749,-59.0475,-4.39599,0
88.8848,-58.9326,-4.41813,0
88.8916,-58.8175,-4.43987,0
88.8957,-58.7024,-4.46121,0
88.8969,-58.5873,-4.48214,0
88.8954,-58.4723,-4.50263,0
88.8909,-58.3575,-4.52269,0
88.8843,-58.2428,-4.54222,0
88.8757,-58.1284,-4.56123,0
88.8643,-58.0143,-4.57977,0
88.8502,-57.9006,-4.59785,0
88.8331,-57.7873,-4.61545,0
88.8136,-57.6746,-4.63256,0
88.7912,-57.5624,-4.64917,0
88.7661,-57.4509,-4.66528,0
88.7384,-57.3401,-4.68088,0
88.7081,-57.2301,-4.69594,0
88.6753,-57.1209,-4.71049,0
88.6398,-57.0127,-4.7245,0
88.6019,-56.9054,-4.73799,0
88.5639,-56.7983,-4.75074,0
88.5244,-56.6919,-4.7629,0
88.4824,-56.5866,-4.77452,0
88.438,-56.4822,-4.7856,0
88.3911,-56.379,-4.79612,0
88.3419,-56.2769,-4.80609,0
88.2905,-56.176,-4.8155,0
88.2367,-56.0764,-4.82434,0
88.1807,-55.9782,-4.83262,0
83.8303,-62.5229,-3.2032,0
83.9308,-62.5324,-3.21584,0
84.0317,-62.5401,-3.22874,0
84.133,-62.5458,-3.24188,0
84.2345,-62.5497,-3.25527,0
84.3363,-62.5515,-3.26891,0
84.4382,-62.5514,-3.28279,0
84.5405,-62.5493,-3.29693,0
84.643,-62.5453,-3.31129,0
84.7456,-62.5395,-3.32574,0
84.8486,-62.5324,-3.34019,0
84.9517,-62.5232,-3.35487,0
85.0551,-62.512,-3.3698,0
85.1584,-62.4987,-3.38496,0
85.2618,-62.4833,-3.40034,0
85.3653,-62.4659,-3.41595,0
85.4688,-62.4463,-3.4318,0
85.5731,-62.4267,-3.44703,0
85.678,-62.4058,-3.46213,0
85.7827,-62.3827,-3.47751,0
85.8876,-62.3573,-3.49316,0
85.9923,-62.3296,-3.50907,0
86.097,-62.2996,-3.52525,0
86.2014,-62.2672,-3.54169,0
86.3055,-62.2325,-3.55838,0
86.4095,-62.1954,-3.57533,0
86.513,-62.1559,-3.59253,0
86.6162,-62.114,-3.60996,0
86.7191,-62.0697,-3.62764,0
86.8214,-62.023,-3.64555,0
86.9231,-61.9738,-3.66368,0
87.0243,-61.9222,-3.68204,0
87.1248,-61.8681,-3.70062,0
87.2188,-61.8058,-3.72166,0
87.3053,-61.7354,-3.74517,0
87.3905,-61.6632,-3.76867,0
87.4744,-61.589,-3.79217,0
87.557,-61.513,-3.81566,0
87.638,-61.4352,-3.83911,0
87.7176,-61.3555,-3.86254,0
87.7957,-61.274,-3.88591,0
87.8723,-61.1907,-3.90925,0
87.9474,-61.1057,-3.93252,0
88.0209,-61.0189,-3.95572,0
88.0927,-60.9303,-3.97885,0
88.1628,-60.8401,-4.00191,0
88.2297,-60.7473,-4.02523,0
88.2872,-60.6492,-4.05012,0
88.3427,-60.5498,-4.07485,0
88.3958,-60.4491,-4.09938,0
88.4467,-60.3471,-4.12373,0
88.4955,-60.244,-4.14786,0
88.542,-60.1397,-4.17177,0
88.5862,-60.0343,-4.19546,0
88.628,-59.9278,-4.2189,0
88.6677,-59.8204,-4.24209,0
88.7048,-59.7119,-4.26502,0
88.7397,-59.6026,-4.28767,0
88.7721,-59.4924,-4.31005,0
88.8021,-59.3813,-4.33213,0
88.8297,-59.2695,-4.35389,0
88.8548,-59.157,-4.37534,0
88.8753,-59.0435,-4.39676,0
88.885,-58.9286,-4.41889,0
88.8919,-58.8136,-4.44062,0
88.8958,-58.6984,-4.46195,0
88.8969,-58.5834,-4.48285,0
88.8952,-58.4683,-4.50334,0
88.8907,-58.3535,-4.52338,0
88.8841,-58.2389,-4.54289,0
88.8753,-58.1245,-4.56188,0
88.8638,-58.0104,-4.58041,0
88.8495,-57.8967,-4.59847,0
88.8326,-57.7834,-4.61605,0
88.8128,-57.6707,-4.63315,0
88.7903,-57.5585,-4.64974,0
88.7652,-57.447,-4.66583,0
88.7375,-57.3363,-4.6814,0
88.7071,-57.2263,-4.69646,0
88.6741,-57.1172,-4.71099,0
88.6386,-57.0089,-4.72498,0
88.6005,-56.9017,-4.73844,0
88.5627,-56.7946,-4.75117,0
88.523,-56.6883,-4.76332,0
88.4809,-56.5829,-4.77491,0
88.4363,-56.4786,-4.78597,0
88.3895,-56.3754,-4.79648,0
88.3402,-56.2734,-4.80642,0
88.2887,-56.1726,-4.81582,0
88.2348,-56.073,-4.82465,0
88.1787,-55.9748,-4.8329,0
83.8337,-62.5232,-3.20363,0
83.9343,-62.5327,-3.21628,0
84.0352,-62.5403,-3.22918,0
84.1364,-62.546,-3.24234,0
84.238,-62.5498,-3.25574,0
84.3398,-62.5515,-3.26939,0
84.4418,-62.5514,-3.28328,0
84.544,-62.5492,-3.29741,0
84.6465,-62.5451,-3.31179,0
84.7491,-62.5393,-3.32624,0
84.8523,-62.5321,-3.3407,0
84.9554,-62.5229,-3.35539,0
85.0586,-62.5115,-3.37032,0
85.1619,-62.4982,-3.38548,0
85.2654,-62.4827,-3.40088,0
85.3688,-62.4652,-3.4165,0
88.5017,-59.8881,-4.20296,0
88.5403,-59.7835,-4.22555,0
88.5766,-59.6779,-4.24789,0
88.6107,-59.5715,-4.26996,0
88.6423,-59.4642,-4.29175,0
88.6716,-59.3561,-4.31325,0
88.6987,-59.2473,-4.33446,0
88.7145,-59.1364,-4.35662,0
88.7271,-59.0252,-4.3785,0
88.7368,-58.9137,-4.40002,0
88.7438,-58.8021,-4.42115,0
88.7481,-58.6904,-4.44191,0
88.7495,-58.5787,-4.46225,0
88.7483,-58.4671,-4.48218,0
88.7443,-58.3556,-4.5017,0
88.7381,-58.2443,-4.52071,0
88.7301,-58.1332,-4.5392,0
88.7192,-58.0225,-4.55724,0
88.7058,-57.912,-4.57484,0
88.6896,-57.802,-4.59196,0
88.6709,-57.6925,-4.60862,0
88.6495,-57.5836,-4.6248,0
88.6255,-57.4753,-4.64049,0
88.5988,-57.3676,-4.65569,0
88.5697,-57.2607,-4.67037,0
88.538,-57.1547,-4.68456,0
88.5039,-57.0495,-4.69822,0
88.4686,-56.9448,-4.71126,0
88.4328,-56.8405,-4.72364,0
88.3946,-56.737,-4.7355,0
88.3539,-56.6345,-4.74684,0
88.3109,-56.5331,-4.75764,0
88.2657,-56.4327,-4.7679,0
88.218,-56.3334,-4.77764,0
88.1682,-56.2353,-4.78683,0
88.1162,-56.1384,-4.79547,0
88.062,-56.0428,-4.80357,0
83.8288,-62.4213,-3.2139,0
83.9269,-62.4306,-3.22626,0
84.0255,-62.438,-3.23887,0
84.1244,-62.4435,-3.25172,0
84.2235,-62.447,-3.26481,0
84.3229,-62.4487,-3.27814,0
84.4225,-62.4485,-3.29172,0
84.5223,-62.4463,-3.30553,0
84.6223,-62.4421,-3.31957,0
84.7225,-62.4362,-3.33379,0
84.823,-62.429,-3.3479,0
84.9236,-62.4198,-3.36226,0
85.0244,-62.4086,-3.37684,0
85.1252,-62.3954,-3.39165,0
85.226,-62.3801,-3.40668,0
85.327,-62.3629,-3.42195,0
85.4278,-62.3435,-3.43742,0
85.5285,-62.3221,-3.45311,0
85.6293,-62.2986,-3.46901,0
85.731,-62.2752,-3.48421,0
85.8329,-62.2501,-3.49947,0
85.9348,-62.2227,-3.515,0
86.0364,-62.1931,-3.53078,0
86.1379,-62.1611,-3.54681,0
86.2391,-62.1269,-3.56308,0
86.34,-62.0904,-3.5796,0
86.4406,-62.0516,-3.59635,0
86.5408,-62.0104,-3.61334,0
86.6405,-61.9669,-3.63055,0
86.7398,-61.921,-3.64799,0
86.8384,-61.8728,-3.66565,0
86.9366,-61.8222,-3.68352,0
87.034,-61.7692,-3.70159,0
87.1307,-61.7138,-3.71987,0
87.2205,-61.6503,-3.74066,0
87.3036,-61.5797,-3.76358,0
87.3853,-61.5073,-3.7865,0
87.4657,-61.433,-3.8094,0
87.5447,-61.357,-3.83228,0
87.6223,-61.2792,-3.85512,0
87.6984,-61.1996,-3.87792,0
87.773,-61.1183,-3.90066,0
87.8461,-61.0353,-3.92335,0
87.9176,-60.9505,-3.94597,0
87.9874,-60.8641,-3.96852,0
88.0558,-60.776,-3.99098,0
88.1149,-60.6824,-4.01512,0
88.1709,-60.5868,-4.03937,0
88.2249,-60.49,-4.06345,0
88.2768,-60.392,-4.08735,0
88.3265,-60.2927,-4.11106,0
88.3739,-60.1923,-4.13456,0
88.4192,-60.0907,-4.15785,0
88.4623,-59.9881,-4.18091,0
88.503,-59.8845,-4.20375,0
88.5416,-59.7798,-4.22633,0
88.5779,-59.6743,-4.24866,0
88.6118,-59.5678,-4.27072,0
88.6434,-59.4605,-4.2925,0
88.6727,-59.3524,-4.314,0
88.6994,-59.2435,-4.3352,0
88.7149,-59.1326,-4.35738,0
88.7274,-59.0213,-4.37925,0
88.7371,-58.9098,-4.40075,0
88.7441,-58.7982,-4.42188,0
88.7482,-58.6865,-4.44261,0
88.7495,-58.5748,-4.46295,0
88.7482,-58.4632,-4.48287,0
88.7441,-58.3517,-4.50237,0
88.738,-58.2405,-4.52135,0
88.7297,-58.1294,-4.53983,0
88.7188,-58.0186,-4.55786,0
88.7053,-57.9082,-4.57544,0
88.689,-57.7982,-4.59256,0
88.6702,-57.6888,-4.60919,0
88.6487,-57.5798,-4.62535,0
88.6245,-57.4715,-4.64103,0
88.5978,-57.3639,-4.6562,0
88.5687,-57.2571,-4.67088,0
88.5369,-57.151,-4.68504,0
88.5027,-57.0458,-4.69869,0
88.4675,-56.9412,-4.71171,0
88.4315,-56.8369,-4.72406,0
88.3932,-56.7335,-4.7359,0
88.3525,-56.631,-4.74722,0
88.3094,-56.5296,-4.758,0
88.2641,-56.4292,-4.76826,0
88.2164,-56.33,-4.77797,0
88.1665,-56.2319,-4.78714,0
88.1144,-56.1351,-4.79576,0
88.0601,-56.0395,-4.80384,0
83.8321,-62.4217,-3.21432,0
83.9304,-62.4309,-3.22669,0
84.0289,-62.4382,-3.23931,0
84.1277,-62.4436,-3.25217,0
84.2269,-62.4471,-3.26527,0
84.3263,-62.4487,-3.27861,0
84.4259,-62.4484,-3.29219,0
84.5258,-62.4462,-3.30601,0
84.6257,-62.4419,-3.32006,0
84.7259,-62.4359,-3.33427,0
84.8265,-62.4287,-3.3484,0
84.9271,-62.4194,-3.36276,0
85.0278,-62.4082,-3.37735,0
85.1287,-62.3949,-3.39217,0
85.2295,-62.3796,-3.40721,0
85.3304,-62.3622,-3.42247,0
85.4313,-62.3428,-3.43796,0
85.5321,-62.3213,-3.45365,0
85.6327,-62.2977,-3.46956,0
85.7345,-62.2744,-3.48473,0
85.8365,-62.2492,-3.50001,0
85.9383,-62.2217,-3.51555,0
86.0399,-62.192,-3.53133,0
86.1414,-62.16,-3.54736,0
86.2426,-62.1257,-3.56364,0
86.3436,-62.0891,-3.58017,0
86.4441,-62.0502,-3.59694,0
86.5443,-62.0089,-3.61394,0
86.6441,-61.9654,-3.63115,0
86.7433,-61.9194,-3.6486,0
86.8419,-61.8711,-3.66626,0
86.9399,-61.8204,-3.68414,0
87.0373,-61.7673,-3.70222,0
87.1341,-61.7118,-3.7205,0
87.2234,-61.6479,-3.74145,0
87.3065,-61.5772,-3.76438,0
87.3881,-61.5047,-3.78729,0
87.4685,-61.4304,-3.8102,0
87.5474,-61.3544,-3.83306,0
87.6249,-61.2765,-3.85591,0
87.701,-61.1968,-3.8787,0
87.7755,-61.1155,-3.90145,0
87.8486,-61.0324,-3.92413,0
87.92,-60.9475,-3.94676,0
87.9898,-60.861,-3.9693,0
88.058,-60.7729,-3.99175,0
88.1169,-60.6791,-4.01597,0
88.1729,-60.5835,-4.04021,0
88.2267,-60.4867,-4.06428,0
88.2785,-60.3886,-4.08818,0
88.3281,-60.2893,-4.11187,0
88.3755,-60.1888,-4.13538,0
88.4207,-60.0872,-4.15865,0
88.4637,-59.9845,-4.18171,0
88.5045,-59.8809,-4.20453,0
88.543,-59.7762,-4.22711,0
88.5791,-59.6706,-4.24943,0
88.6129,-59.5641,-4.27148,0
88.6445,-59.4567,-4.29325,0
88.6736,-59.3486,-4.31473,0
88.7003,-59.2397,-4.33594,0
88.7155,-59.1287,-4.35815,0
88.7278,-59.0174,-4.38,0
88.7374,-58.906,-4.4015,0
88.7442,-58.7943,-4.42261,0
88.7483,-58.6826,-4.44333,0
88.7495,-58.5709,-4.46365,0
88.7481,-58.4593,-4.48355,0
88.7439,-58.3479,-4.50304,0
88.7377,-58.2366,-4.522,0
88.7294,-58.1255,-4.54047,0
88.7184,-58.0148,-4.55848,0
88.7048,-57.9044,-4.57604,0
88.6884,-57.7944,-4.59314,0
88.6694,-57.685,-4.60976,0
88.6478,-57.5761,-4.6259,0
88.6237,-57.4678,-4.64155,0
88.5969,-57.3602,-4.65672,0
88.5676,-57.2534,-4.67138,0
88.5358,-57.1474,-4.68552,0
88.5015,-57.0422,-4.69915,0
88.4662,-56.9375,-4.71214,0
88.4302,-56.8333,-4.72448,0
88.3919,-56.7299,-4.7363,0
88.3511,-56.6275,-4.7476,0
88.308,-56.5261,-4.75837,0
88.2625,-56.4258,-4.7686,0
88.2148,-56.3266,-4.77829,0
88.1648,-56.2285,-4.78744,0
88.1125,-56.1317,-4.79605,0
88.0581,-56.0362,-4.8041,0
83.8355,-62.422,-3.21475,0
83.9337,-62.4312,-3.22713,0
84.0323,-62.4384,-3.23975,0
84.1312,-62.4438,-3.25262,0
84.2304,-62.4472,-3.26573,0
84.3298,-62.4488,-3.27908,0
84.4294,-62.4484,-3.29267,0
84.5292,-62.446,-3.30649,0
84.6292,-62.4418,-3.32055,0
84.7294,-62.4357,-3.33475,0
84.83,-62.4284,-3.34889,0
84.9306,-62.4191,-3.36326,0
85.0314,-62.4077,-3.37786,0
85.1322,-62.3944,-3.39269,0
85.233,-62.379,-3.40774,0
85.3339,-62.3616,-3.423,0
88.3841,-59.8432,-4.18931,0
88.4216,-59.7412,-4.21132,0
88.457,-59.6383,-4.23308,0
88.49,-59.5346,-4.25457,0
88.5208,-59.4301,-4.27579,0
88.5423,-59.3234,-4.29788,0
88.5601,-59.216,-4.31981,0
88.5751,-59.1083,-4.34141,0
88.5874,-59.0003,-4.36268,0
88.5972,-58.892,-4.3836,0
88.6041,-58.7837,-4.40415,0
88.6084,-58.6752,-4.42432,0
88.6101,-58.5667,-4.44411,0
88.609,-58.4583,-4.4635,0
88.6053,-58.35,-4.48248,0
88.5996,-58.242,-4.50096,0
88.5919,-58.1341,-4.51895,0
88.5816,-58.0264,-4.53651,0
88.5686,-57.9192,-4.55362,0
88.553,-57.8123,-4.57029,0
88.5351,-57.7059,-4.58651,0
88.5144,-57.6,-4.60225,0
88.4912,-57.4947,-4.61753,0
88.4656,-57.3901,-4.63233,0
88.4375,-57.2862,-4.64664,0
88.407,-57.1831,-4.66045,0
88.3743,-57.0807,-4.67374,0
88.3419,-56.9784,-4.6863,0
88.3072,-56.8769,-4.69835,0
88.2701,-56.7763,-4.7099,0
88.2308,-56.6766,-4.72094,0
88.1891,-56.5779,-4.73147,0
88.1451,-56.4802,-4.74148,0
88.099,-56.3836,-4.75097,0
88.0505,-56.2882,-4.75993,0
88,-56.1939,-4.76835,0
87.9474,-56.1009,-4.77625,0
83.8306,-62.3244,-3.22459,0
83.9266,-62.3333,-3.23668,0
84.0229,-62.3403,-3.24901,0
84.1195,-62.3455,-3.26159,0
84.2163,-62.3488,-3.2744,0
84.3134,-62.3502,-3.28745,0
84.4108,-62.3498,-3.30073,0
84.5083,-62.3474,-3.31425,0
84.6059,-62.3432,-3.32798,0
84.7037,-62.337,-3.34195,0
84.8019,-62.3297,-3.35577,0
84.9001,-62.3204,-3.36982,0
84.9984,-62.3092,-3.38408,0
85.0968,-62.296,-3.39857,0
85.1952,-62.2808,-3.41327,0
85.2937,-62.2637,-3.42819,0
85.392,-62.2445,-3.44332,0
85.4903,-62.2232,-3.45865,0
85.5885,-62.2,-3.4742,0
85.6866,-62.1747,-3.48994,0
85.7845,-62.1473,-3.50589,0
85.8834,-62.1198,-3.52118,0
85.9822,-62.0905,-3.53658,0
86.0809,-62.059,-3.55222,0
86.1793,-62.0252,-3.56811,0
86.2773,-61.9892,-3.58423,0
86.375,-61.9509,-3.60056,0
86.4723,-61.9104,-3.61713,0
86.5692,-61.8676,-3.63391,0
86.6655,-61.8224,-3.65091,0
86.7612,-61.775,-3.66812,0
86.8564,-61.7253,-3.68552,0
86.9509,-61.6733,-3.70313,0
87.0447,-61.6189,-3.72092,0
87.1376,-61.5622,-3.73891,0
87.2232,-61.4975,-3.75948,0
87.3029,-61.4266,-3.78186,0
87.3812,-61.354,-3.80421,0
87.4581,-61.2797,-3.82652,0
87.5337,-61.2036,-3.8488,0
87.6079,-61.1258,-3.87105,0
87.6805,-61.0463,-3.89323,0
87.7516,-60.9651,-3.91536,0
87.8213,-60.8823,-3.93742,0
87.8893,-60.7978,-3.9594,0
87.9509,-60.7091,-3.98254,0
88.0075,-60.6173,-4.00632,0
88.0621,-60.5242,-4.02995,0
88.1146,-60.4298,-4.05341,0
88.1652,-60.3342,-4.0767,0
88.2135,-60.2375,-4.09979,0
88.2597,-60.1396,-4.12268,0
88.3038,-60.0407,-4.14538,0
88.3457,-59.9406,-4.16785,0
88.3854,-59.8396,-4.19008,0
88.4229,-59.7377,-4.21208,0
88.4581,-59.6348,-4.23383,0
88.4912,-59.531,-4.25531,0
88.5219,-59.4264,-4.27653,0
88.543,-59.3197,-4.29863,0
88.5606,-59.2123,-4.32056,0
88.5756,-59.1045,-4.34216,0
88.5878,-58.9965,-4.36341,0
88.5974,-58.8883,-4.38432,0
88.6043,-58.7799,-4.40486,0
88.6085,-58.6714,-4.42502,0
88.6101,-58.563,-4.44479,0
88.6089,-58.4546,-4.46417,0
88.6051,-58.3463,-4.48313,0
88.5994,-58.2382,-4.50159,0
88.5915,-58.1303,-4.51957,0
88.5811,-58.0227,-4.53711,0
88.5681,-57.9154,-4.55421,0
88.5525,-57.8086,-4.57087,0
88.5344,-57.7022,-4.58706,0
88.5136,-57.5963,-4.60279,0
88.4904,-57.4911,-4.61805,0
88.4647,-57.3865,-4.63283,0
88.4364,-57.2826,-4.64712,0
88.4058,-57.1795,-4.66092,0
88.3732,-57.0771,-4.67418,0
88.3408,-56.9749,-4.68671,0
88.3059,-56.8734,-4.69875,0
88.2688,-56.7729,-4.71028,0
88.2293,-56.6732,-4.72131,0
88.1876,-56.5745,-4.73183,0
88.1435,-56.4769,-4.74182,0
88.0973,-56.3803,-4.75129,0
88.0489,-56.2849,-4.76023,0
87.9983,-56.1907,-4.76863,0
87.9455,-56.0977,-4.77652,0
83.8339,-62.3247,-3.225,0
83.9299,-62.3335,-3.2371,0
84.0262,-62.3405,-3.24945,0
84.1228,-62.3456,-3.26203,0
84.2198,-62.3489,-3.27486,0
84.3169,-62.3503,-3.28791,0
84.4141,-62.3497,-3.3012,0
84.5116,-62.3473,-3.31471,0
84.6093,-62.343,-3.32847,0
84.7071,-62.3367,-3.34243,0
84.8052,-62.3294,-3.35626,0
84.9035,-62.3201,-3.3703,0
85.0018,-62.3088,-3.38458,0
85.1002,-62.2955,-3.39907,0
85.1987,-62.2803,-3.41378,0
85.297,-62.263,-3.42871,0
85.3955,-62.2438,-3.44384,0
85.4937,-62.2225,-3.4592,0
85.5919,-62.1991,-3.47474,0
85.6899,-62.1737,-3.49049,0
85.7878,-62.1463,-3.50644,0
85.8867,-62.1188,-3.52172,0
85.9856,-62.0895,-3.53713,0
86.0843,-62.0579,-3.55278,0
86.1827,-62.024,-3.56867,0
86.2807,-61.9879,-3.58478,0
86.3784,-61.9496,-3.60113,0
86.4757,-61.9089,-3.61771,0
86.5726,-61.866,-3.6345,0
86.6688,-61.8208,-3.6515,0
86.7646,-61.7734,-3.66871,0
86.8598,-61.7235,-3.68612,0
86.9542,-61.6714,-3.70375,0
87.0478,-61.617,-3.72154,0
87.1408,-61.5602,-3.73954,0
87.226,-61.495,-3.76027,0
87.3056,-61.4241,-3.78263,0
87.3839,-61.3515,-3.80498,0
87.4608,-61.2771,-3.8273,0
87.5363,-61.201,-3.84958,0
87.6104,-61.1231,-3.87181,0
87.683,-61.0435,-3.894,0
87.7541,-60.9623,-3.91612,0
87.8236,-60.8794,-3.93819,0
87.8916,-60.7949,-3.96016,0
87.9529,-60.7059,-3.98337,0
88.0095,-60.6141,-4.00714,0
88.064,-60.5209,-4.03077,0
88.1164,-60.4265,-4.05422,0
88.1668,-60.3309,-4.0775,0
88.2152,-60.2341,-4.10059,0
88.2612,-60.1362,-4.12348,0
88.3053,-60.0372,-4.14615,0
88.3472,-59.9372,-4.16861,0
88.3867,-59.8361,-4.19085,0
88.4241,-59.7341,-4.21284,0
88.4594,-59.6312,-4.23458,0
88.4922,-59.5274,-4.25605,0
88.5229,-59.4228,-4.27726,0
88.5437,-59.3159,-4.29941,0
88.5612,-59.2086,-4.32132,0
88.5761,-59.1008,-4.3429,0
88.5882,-58.9928,-4.36415,0
88.5977,-58.8845,-4.38504,0
88.6045,-58.7761,-4.40556,0
88.6086,-58.6677,-4.42571,0
88.6101,-58.5592,-4.44547,0
88.6088,-58.4508,-4.46483,0
88.6049,-58.3425,-4.48378,0
88.5991,-58.2345,-4.50222,0
88.5912,-58.1266,-4.52018,0
88.5807,-58.019,-4.53771,0
88.5676,-57.9117,-4.55479,0
88.5519,-57.8049,-4.57143,0
88.5337,-57.6985,-4.58761,0
88.5129,-57.5927,-4.60333,0
88.4896,-57.4874,-4.61857,0
88.4637,-57.3829,-4.63334,0
88.4355,-57.279,-4.64761,0
88.4047,-57.176,-4.66139,0
88.3721,-57.0736,-4.67462,0
88.3396,-56.9713,-4.68714,0
88.3047,-56.8699,-4.69917,0
88.2674,-56.7694,-4.71068,0
88.2279,-56.6698,-4.72169,0
88.186,-56.5711,-4.73218,0
88.142,-56.4735,-4.74216,0
88.0956,-56.377,-4.75161,0
88.0472,-56.2816,-4.76053,0
87.9965,-56.1874,-4.76892,0
87.9437,-56.0945,-4.77677,0
83.8373,-62.325,-3.22541,0
83.9332,-62.3338,-3.23752,0
84.0296,-62.3407,-3.24987,0
84.1262,-62.3458,-3.26247,0
84.223,-62.349,-3.2753,0
84.3202,-62.3503,-3.28836,0
84.4175,-62.3497,-3.30167,0
84.5151,-62.3472,-3.31519,0
84.6127,-62.3428,-3.32895,0
84.7105,-62.3365,-3.34291,0
84.8087,-62.3291,-3.35674,0
84.9069,-62.3197,-3.3708,0
85.0053,-62.3084,-3.38508,0
85.1037,-62.295,-3.39958,0
85.202,-62.2797,-3.4143,0
85.3005,-62.2624,-3.42923,0
88.2718,-59.8003,-4.17631,0
88.3084,-59.7009,-4.19775,0
88.3428,-59.6006,-4.21895,0
88.3683,-59.4978,-4.24111,0
88.3908,-59.3945,-4.26304,0
88.4109,-59.2906,-4.28467,0
88.4282,-59.1863,-4.306,0
88.443,-59.0816,-4.32701,0
88.4552,-58.9767,-4.34769,0
88.4648,-58.8715,-4.36804,0
88.4717,-58.7662,-4.38803,0
88.476,-58.6608,-4.40766,0
88.4777,-58.5554,-4.42691,0
88.4769,-58.45,-4.44578,0
88.4735,-58.3448,-4.46425,0
88.4682,-58.2397,-4.48225,0
88.4608,-58.1348,-4.49975,0
88.4509,-58.0302,-4.51684,0
88.4385,-57.9259,-4.53351,0
88.4236,-57.822,-4.54973,0
88.4062,-57.7185,-4.56552,0
88.3862,-57.6156,-4.58087,0
88.364,-57.5132,-4.59574,0
88.3391,-57.4114,-4.61016,0
88.312,-57.3103,-4.62411,0
88.2825,-57.21,-4.63758,0
88.2529,-57.1099,-4.65034,0
88.2216,-57.0103,-4.66257,0
88.1878,-56.9116,-4.67431,0
88.1519,-56.8136,-4.68557,0
88.1137,-56.7166,-4.69634,0
88.0731,-56.6205,-4.70661,0
88.0305,-56.5254,-4.71637,0
87.9857,-56.4314,-4.72562,0
87.9388,-56.3385,-4.73437,0
87.8897,-56.2467,-4.74259,0
87.8385,-56.1561,-4.7503,0
83.8323,-62.2313,-3.23483,0
83.9262,-62.2399,-3.24667,0
84.0204,-62.2466,-3.25875,0
84.1148,-62.2515,-3.27106,0
84.2094,-62.2546,-3.28361,0
84.3044,-62.2558,-3.29638,0
84.3995,-62.2551,-3.30938,0
84.4948,-62.2526,-3.32261,0
84.5902,-62.2483,-3.33606,0
84.6858,-62.242,-3.34972,0
84.7816,-62.2345,-3.36332,0
84.8776,-62.2252,-3.37707,0
84.9736,-62.214,-3.39102,0
85.0697,-62.2008,-3.40519,0
85.1657,-62.1857,-3.41958,0
85.2618,-62.1687,-3.43417,0
85.3577,-62.1496,-3.44897,0
85.4538,-62.1286,-3.46397,0
85.5495,-62.1055,-3.47917,0
85.6452,-62.0805,-3.49456,0
85.7406,-62.0535,-3.51014,0
85.8359,-62.0244,-3.52592,0
85.9308,-61.9932,-3.54188,0
86.0265,-61.9615,-3.5574,0
86.1221,-61.9282,-3.57291,0
86.2175,-61.8927,-3.58863,0
86.3125,-61.855,-3.60458,0
86.407,-61.815,-3.62074,0
86.5012,-61.7729,-3.63712,0
86.5948,-61.7285,-3.65369,0
86.6877,-61.6819,-3.67046,0
86.7801,-61.6331,-3.68744,0
86.8718,-61.582,-3.70459,0
86.9627,-61.5286,-3.72193,0
87.0529,-61.473,-3.73945,0
87.1422,-61.4151,-3.75714,0
87.224,-61.3494,-3.7774,0
87.3003,-61.2784,-3.79922,0
87.3754,-61.2057,-3.82101,0
87.4491,-61.1313,-3.84276,0
87.5212,-61.0552,-3.86447,0
87.592,-60.9774,-3.88612,0
87.6613,-60.898,-3.90771,0
87.7291,-60.817,-3.92924,0
87.7927,-60.7329,-3.95141,0
87.8498,-60.6447,-3.97474,0
87.905,-60.5552,-3.99793,0
87.9583,-60.4644,-4.02096,0
88.0095,-60.3724,-4.04383,0
88.0586,-60.2792,-4.06653,0
88.1057,-60.1849,-4.08904,0
88.1508,-60.0894,-4.11136,0
88.1937,-59.9929,-4.13348,0
88.2345,-59.8954,-4.15538,0
88.2732,-59.7969,-4.17705,0
88.3097,-59.6974,-4.19849,0
88.3439,-59.5971,-4.21968,0
88.369,-59.4943,-4.24188,0
88.3916,-59.3909,-4.26379,0
88.4115,-59.287,-4.28541,0
88.4288,-59.1827,-4.30674,0
88.4435,-59.078,-4.32773,0
88.4555,-58.973,-4.34841,0
88.465,-58.8679,-4.36874,0
88.4719,-58.7625,-4.38872,0
88.4762,-58.6572,-4.40834,0
88.4778,-58.5517,-4.42758,0
88.4769,-58.4464,-4.44643,0
88.4734,-58.3411,-4.46489,0
88.468,-58.2361,-4.48286,0
88.4605,-58.1312,-4.50035,0
88.4505,-58.0266,-4.51742,0
88.438,-57.9223,-4.53407,0
88.423,-57.8184,-4.55029,0
88.4055,-57.7149,-4.56606,0
88.3855,-57.612,-4.58139,0
88.3631,-57.5096,-4.59625,0
88.3383,-57.4079,-4.61066,0
88.311,-57.3069,-4.62459,0
88.2814,-57.2066,-4.63803,0
88.2519,-57.1064,-4.65076,0
88.2204,-57.0069,-4.66298,0
88.1866,-56.9082,-4.67471,0
88.1506,-56.8103,-4.68596,0
88.1123,-56.7133,-4.6967,0
88.0717,-56.6172,-4.70695,0
88.029,-56.5222,-4.71671,0
87.9841,-56.4282,-4.72593,0
87.9371,-56.3353,-4.73466,0
87.8879,-56.2435,-4.74287,0
87.8367,-56.153,-4.75056,0
83.8356,-62.2316,-3.23523,0
83.9295,-62.2401,-3.24709,0
84.0236,-62.2468,-3.25917,0
84.1181,-62.2516,-3.27149,0
84.2128,-62.2546,-3.28404,0
84.3077,-62.2558,-3.29682,0
84.4028,-62.2551,-3.30983,0
84.4981,-62.2525,-3.32307,0
84.5935,-62.2481,-3.33652,0
84.6891,-62.2417,-3.3502,0
84.7849,-62.2342,-3.3638,0
84.8809,-62.2248,-3.37754,0
84.977,-62.2135,-3.39151,0
85.073,-62.2003,-3.40569,0
85.1691,-62.1852,-3.42007,0
85.2651,-62.168,-3.43467,0
85.3612,-62.1489,-3.44948,0
85.457,-62.1278,-3.46449,0
85.5528,-62.1047,-3.4797,0
85.6485,-62.0796,-3.4951,0
85.7439,-62.0525,-3.51069,0
85.8391,-62.0233,-3.52647,0
85.9341,-61.9921,-3.54244,0
86.0298,-61.9604,-3.55794,0
86.1255,-61.927,-3.57345,0
86.2209,-61.8914,-3.58918,0
86.3159,-61.8536,-3.60513,0
86.4104,-61.8136,-3.62131,0
86.5044,-61.7714,-3.63769,0
86.598,-61.7269,-3.65427,0
86.691,-61.6803,-3.67105,0
86.7833,-61.6313,-3.68802,0
86.875,-61.5801,-3.70519,0
86.9659,-61.5267,-3.72254,0
87.056,-61.471,-3.74006,0
87.1452,-61.4131,-3.75775,0
87.2266,-61.347,-3.77816,0
87.303,-61.2759,-3.79998,0
87.378,-61.2032,-3.82176,0
87.4516,-61.1287,-3.84352,0
87.5238,-61.0525,-3.86522,0
87.5945,-60.9747,-3.88687,0
87.6637,-60.8953,-3.90846,0
87.7315,-60.8142,-3.92998,0
87.7947,-60.7299,-3.95222,0
87.8518,-60.6416,-3.97554,0
87.907,-60.5521,-3.99872,0
87.9601,-60.4612,-4.02175,0
88.0112,-60.3692,-4.04462,0
88.0602,-60.2759,-4.06731,0
88.1073,-60.1816,-4.08981,0
88.1523,-60.0861,-4.11213,0
88.1952,-59.9895,-4.13423,0
88.2359,-59.892,-4.15613,0
88.2745,-59.7934,-4.17779,0
88.3109,-59.694,-4.19923,0
88.3448,-59.5936,-4.22046,0
88.3698,-59.4907,-4.24264,0
88.3923,-59.3873,-4.26454,0
88.4121,-59.2834,-4.28615,0
88.4294,-59.179,-4.30746,0
88.444,-59.0743,-4.32845,0
88.4559,-58.9694,-4.34912,0
88.4653,-58.8642,-4.36944,0
88.4721,-58.7589,-4.38941,0
88.4762,-58.6535,-4.40901,0
88.4778,-58.5481,-4.42824,0
88.4768,-58.4427,-4.44708,0
88.4731,-58.3375,-4.46552,0
88.4677,-58.2324,-4.48346,0
88.4602,-58.1276,-4.50094,0
88.4502,-58.023,-4.518,0
88.4376,-57.9187,-4.53464,0
88.4225,-57.8148,-4.55084,0
88.4049,-57.7114,-4.5666,0
88.3848,-57.6084,-4.58191,0
88.3623,-57.5061,-4.59676,0
88.3373,-57.4044,-4.61115,0
88.3101,-57.3034,-4.62506,0
88.2804,-57.2031,-4.63849,0
88.2508,-57.1029,-4.65119,0
88.2193,-57.0035,-4.66339,0
88.1854,-56.9047,-4.67511,0
88.1493,-56.8069,-4.68634,0
88.1109,-56.7099,-4.69707,0
88.0703,-56.6139,-4.7073,0
88.0275,-56.5189,-4.71703,0
87.9825,-56.4249,-4.72625,0
87.9354,-56.3321,-4.73495,0
87.8862,-56.2404,-4.74314,0
87.8349,-56.1499,-4.75082,0
83.8388,-62.232,-3.23564,0
83.9327,-62.2404,-3.2475,0
84.027,-62.247,-3.2596,0
84.1214,-62.2518,-3.27193,0
84.2161,-62.2547,-3.28448,0
84.311,-62.2558,-3.29728,0
84.4061,-62.255,-3.31029,0
84.5014,-62.2524,-3.32354,0
84.5969,-62.2479,-3.33699,0
84.6924,-62.2415,-3.35067,0
84.7882,-62.2339,-3.36426,0
84.8842,-62.2245,-3.37803,0
84.9802,-62.2131,-3.39199,0
85.0763,-62.1998,-3.40619,0
85.1723,-62.1846,-3.42059,0
85.2684,-62.1674,-3.43519,0
88.163,-59.7589,-4.16422,0
88.1927,-59.6602,-4.1863,0
88.2198,-59.5609,-4.20816,0
88.2445,-59.4609,-4.22975,0
88.2666,-59.3604,-4.25109,0
88.2861,-59.2595,-4.27213,0
88.3031,-59.1581,-4.29289,0
88.3177,-59.0563,-4.31334,0
88.3297,-58.9543,-4.33347,0
88.3391,-58.852,-4.35327,0
88.3459,-58.7496,-4.37273,0
88.3503,-58.6471,-4.39184,0
88.3522,-58.5446,-4.41059,0
88.3516,-58.4422,-4.42897,0
88.3484,-58.3398,-4.44695,0
88.3434,-58.2376,-4.46446,0
88.3364,-58.1356,-4.48152,0
88.3269,-58.0338,-4.49816,0
88.3149,-57.9323,-4.5144,0
88.3005,-57.8312,-4.53021,0
88.2838,-57.7305,-4.54559,0
88.2646,-57.6303,-4.56054,0
88.243,-57.5307,-4.57506,0
88.2191,-57.4317,-4.5891,0
88.1928,-57.3333,-4.6027,0
88.1657,-57.2353,-4.61568,0
88.1375,-57.1376,-4.62807,0
88.107,-57.0407,-4.64,0
88.0743,-56.9445,-4.65146,0
88.0394,-56.8491,-4.66244,0
88.0022,-56.7546,-4.67295,0
87.963,-56.6611,-4.68296,0
87.9215,-56.5684,-4.69248,0
87.878,-56.4768,-4.70151,0
87.8323,-56.3863,-4.71005,0
87.7846,-56.2969,-4.71807,0
87.7349,-56.2086,-4.72561,0
83.8341,-62.142,-3.24466,0
83.9259,-62.1502,-3.25626,0
84.018,-62.1566,-3.2681,0
84.1103,-62.1612,-3.28015,0
84.2029,-62.1641,-3.29244,0
84.2957,-62.1651,-3.30495,0
84.3887,-62.1643,-3.31768,0
84.4819,-62.1617,-3.33063,0
84.5752,-62.1572,-3.3438,0
84.6686,-62.1509,-3.35718,0
84.7621,-62.1431,-3.37056,0
84.8559,-62.1338,-3.38402,0
84.9497,-62.1226,-3.39768,0
85.0436,-62.1095,-3.41155,0
85.1374,-62.0945,-3.42563,0
85.2312,-62.0775,-3.4399,0
85.325,-62.0587,-3.45438,0
85.4186,-62.0378,-3.46905,0
85.5121,-62.0151,-3.48393,0
85.6055,-61.9903,-3.49899,0
85.6986,-61.9636,-3.51423,0
85.7914,-61.9349,-3.52965,0
85.8841,-61.9041,-3.54526,0
85.9764,-61.8714,-3.56104,0
86.0684,-61.8367,-3.57699,0
86.1605,-61.8005,-3.59285,0
86.2528,-61.7634,-3.60841,0
86.3448,-61.724,-3.62419,0
86.4363,-61.6826,-3.64017,0
86.5273,-61.6389,-3.65634,0
86.6177,-61.5931,-3.67271,0
86.7073,-61.5451,-3.68926,0
86.7964,-61.4949,-3.70599,0
86.8847,-61.4425,-3.7229,0
86.9722,-61.388,-3.73997,0
87.0587,-61.3312,-3.7572,0
87.1445,-61.2723,-3.77458,0
87.2228,-61.206,-3.79445,0
87.296,-61.1348,-3.81573,0
87.3679,-61.062,-3.83697,0
87.4384,-60.9875,-3.85818,0
87.5073,-60.9115,-3.87931,0
87.5748,-60.8338,-3.9004,0
87.64,-60.754,-3.92165,0
87.6976,-60.6693,-3.94454,0
87.7534,-60.5832,-3.96729,0
87.8072,-60.4959,-3.98991,0
87.8591,-60.4073,-4.01237,0
87.909,-60.3175,-4.03468,0
87.9569,-60.2266,-4.05681,0
88.0028,-60.1346,-4.07877,0
88.0467,-60.0415,-4.10053,0
88.0885,-59.9473,-4.12211,0
88.1283,-59.8521,-4.14347,0
88.1641,-59.7555,-4.16498,0
88.1937,-59.6568,-4.18707,0
88.2207,-59.5574,-4.20891,0
88.2452,-59.4575,-4.2305,0
88.2673,-59.3569,-4.25182,0
88.2868,-59.256,-4.27285,0
88.3037,-59.1545,-4.29361,0
88.3181,-59.0528,-4.31404,0
88.3301,-58.9507,-4.33416,0
88.3394,-58.8485,-4.35395,0
88.3462,-58.7461,-4.3734,0
88.3505,-58.6436,-4.39249,0
88.3522,-58.5411,-4.41123,0
88.3515,-58.4386,-4.42959,0
88.3482,-58.3363,-4.44757,0
88.3431,-58.2341,-4.46506,0
88.3361,-58.132,-4.4821,0
88.3265,-58.0303,-4.49873,0
88.3145,-57.9288,-4.51496,0
88.3,-57.8277,-4.53075,0
88.2831,-57.7271,-4.54611,0
88.2639,-57.6269,-4.56106,0
88.2422,-57.5272,-4.57555,0
88.2182,-57.4282,-4.58959,0
88.1919,-57.3299,-4.60317,0
88.1648,-57.2319,-4.61612,0
88.1365,-57.1342,-4.62849,0
88.1059,-57.0373,-4.64041,0
88.0731,-56.9412,-4.65185,0
88.0381,-56.8458,-4.66281,0
88.0009,-56.7514,-4.6733,0
87.9615,-56.6578,-4.68329,0
87.92,-56.5652,-4.6928,0
87.8764,-56.4737,-4.70181,0
87.8307,-56.3832,-4.71033,0
87.783,-56.2938,-4.71835,0
87.7332,-56.2056,-4.72586,0
83.8373,-62.1423,-3.24506,0
83.9291,-62.1504,-3.25667,0
84.0212,-62.1568,-3.26852,0
84.1136,-62.1614,-3.28058,0
84.2062,-62.1641,-3.29287,0
84.299,-62.1651,-3.30539,0
84.392,-62.1642,-3.31813,0
84.4852,-62.1615,-3.3311,0
84.5784,-62.157,-3.34426,0
84.6718,-62.1506,-3.35765,0
84.7655,-62.1428,-3.37103,0
84.8591,-62.1334,-3.38448,0
84.953,-62.1222,-3.39816,0
85.0468,-62.109,-3.41203,0
85.1407,-62.0939,-3.42612,0
85.2345,-62.0769,-3.44041,0
85.3282,-62.058,-3.45489,0
85.4219,-62.0371,-3.46958,0
85.5153,-62.0142,-3.48445,0
85.6087,-61.9894,-3.49951,0
85.7018,-61.9626,-3.51476,0
85.7947,-61.9338,-3.53019,0
85.8873,-61.903,-3.5458,0
85.9796,-61.8702,-3.56159,0
86.0716,-61.8354,-3.57755,0
86.1636,-61.7993,-3.59338,0
86.256,-61.762,-3.60896,0
86.348,-61.7226,-3.62475,0
86.4395,-61.6811,-3.64073,0
86.5304,-61.6374,-3.65691,0
86.6207,-61.5915,-3.67328,0
86.7105,-61.5434,-3.68983,0
86.7995,-61.4931,-3.70657,0
86.8877,-61.4407,-3.72348,0
86.9752,-61.386,-3.74056,0
87.0618,-61.3292,-3.75779,0
87.1475,-61.2702,-3.77519,0
87.2254,-61.2035,-3.79519,0
87.2985,-61.1323,-3.81647,0
87.3703,-61.0594,-3.83771,0
87.4407,-60.9849,-3.85891,0
87.5097,-60.9088,-3.88005,0
87.5771,-60.8311,-3.90112,0
87.642,-60.7511,-3.92245,0
87.6996,-60.6663,-3.94533,0
87.7553,-60.5802,-3.96808,0
87.809,-60.4928,-3.99069,0
87.8609,-60.4042,-4.01315,0
87.9107,-60.3144,-4.03545,0
87.9585,-60.2234,-4.05758,0
88.0044,-60.1313,-4.07954,0
88.0482,-60.0382,-4.10129,0
88.09,-59.944,-4.12285,0
88.1296,-59.8488,-4.1442,0
88.1652,-59.752,-4.16575,0
88.1946,-59.6533,-4.18783,0
88.2216,-59.554,-4.20966,0
88.246,-59.454,-4.23124,0
88.268,-59.3534,-4.25256,0
88.2873,-59.2524,-4.27358,0
88.3042,-59.151,-4.29432,0
