67.1441,-46.3521,-2.28299,0
67.0782,-46.2934,-2.27597,0
67.0123,-46.2348,-2.26828,0
66.9453,-46.1774,-2.26032,0
66.8769,-46.1216,-2.25216,0
66.8073,-46.0674,-2.24381,0
66.7363,-46.0148,-2.23528,0
66.6641,-45.9639,-2.22657,0
66.5937,-45.9105,-2.21645,0
66.5239,-45.8553,-2.20515,0
66.4527,-45.8019,-2.19371,0
66.3798,-45.7504,-2.18215,0
66.3054,-45.7008,-2.17046,0
66.2295,-45.6532,-2.15868,0
66.8865,-52.4552,-2.06317,0
66.9545,-52.3955,-2.07589,0
67.0209,-52.334,-2.08853,0
67.0856,-52.271,-2.10108,0
67.1484,-52.2063,-2.11353,0
67.2094,-52.1401,-2.12589,0
67.2687,-52.0724,-2.13814,0
67.3259,-52.0034,-2.15026,0
67.3813,-51.9329,-2.16227,0
67.4337,-51.8604,-2.17443,0
67.4832,-51.7858,-2.1868,0
67.5306,-51.7102,-2.19899,0
67.576,-51.6337,-2.21097,0
67.6194,-51.5562,-2.22275,0
67.6608,-51.478,-2.23431,0
67.7002,-51.399,-2.24567,0
67.7375,-51.3192,-2.25679,0
67.7728,-51.2389,-2.2677,0
67.8061,-51.1579,-2.27837,0
67.8373,-51.0764,-2.28881,0
67.8666,-50.9944,-2.299,0
67.8937,-50.912,-2.30895,0
67.9249,-50.8319,-2.31719,0
67.9575,-50.7526,-2.32438,0
67.9884,-50.6727,-2.33135,0
68.0173,-50.5921,-2.33809,0
68.0444,-50.5109,-2.3446,0
68.0696,-50.4292,-2.35087,0
68.093,-50.347,-2.35691,0
68.1145,-50.2644,-2.36271,0
68.1341,-50.1813,-2.36828,0
68.1546,-50.0984,-2.37301,0
68.1745,-50.0155,-2.37722,0
68.1927,-49.932,-2.38116,0
68.2091,-49.8482,-2.38482,0
68.2239,-49.764,-2.38822,0
68.2369,-49.6794,-2.39134,0
68.2481,-49.5945,-2.3942,0
68.2577,-49.5094,-2.39677,0
68.2653,-49.424,-2.39907,0
68.2712,-49.3385,-2.40109,0
68.2755,-49.2527,-2.40283,0
68.2777,-49.1668,-2.40429,0
68.2784,-49.0808,-2.40547,0
68.2771,-48.9948,-2.40635,0
68.2741,-48.9087,-2.40696,0
68.2692,-48.8226,-2.40729,0
68.2626,-48.7366,-2.40732,0
68.2541,-48.6507,-2.40707,0
68.2438,-48.5648,-2.40653,0
68.2318,-48.4791,-2.40571,0
68.218,-48.3936,-2.40457,0
68.2031,-48.3081,-2.40301,0
68.1863,-48.2228,-2.40117,0
68.1677,-48.1379,-2.39904,0
68.1473,-48.0532,-2.39661,0
68.1251,-47.9688,-2.3939,0
68.101,-47.8848,-2.3909,0
68.0752,-47.8013,-2.38759,0
68.0461,-47.7187,-2.38433,0
68.0138,-47.6374,-2.38108,0
67.9798,-47.5567,-2.37755,0
67.944,-47.4767,-2.37375,0
67.9064,-47.3974,-2.36967,0
67.8672,-47.319,-2.36532,0
67.8262,-47.2413,-2.3607,0
67.7834,-47.1645,-2.35581,0
67.739,-47.0886,-2.35065,0
67.6928,-47.0137,-2.34521,0
67.6451,-46.9397,-2.33952,0
67.5956,-46.8667,-2.33356,0
67.5446,-46.7948,-2.32734,0
67.492,-46.7239,-2.32086,0
67.4378,-46.6541,-2.31412,0
67.3802,-46.5871,-2.30764,0
67.3196,-46.5228,-2.30139,0
67.2576,-46.4599,-2.29493,0
67.1941,-46.3985,-2.28827,0
67.1293,-46.3386,-2.2814,0
67.0631,-46.2802,-2.27429,0
66.9972,-46.2216,-2.26649,0
66.9298,-46.1646,-2.25848,0
66.8612,-46.1091,-2.25028,0
66.7913,-46.0553,-2.24189,0
66.72,-46.0031,-2.23332,0
66.6476,-45.9526,-2.22457,0
66.5779,-45.8978,-2.21389,0
66.5078,-45.843,-2.20256,0
66.4362,-45.79,-2.1911,0
66.363,-45.7389,-2.1795,0
66.2883,-45.6898,-2.16779,0
66.2121,-45.6426,-2.15598,0
66.8602,-52.3378,-2.06892,0
66.9257,-52.2789,-2.08126,0
66.9894,-52.2184,-2.09352,0
67.0516,-52.1563,-2.1057,0
67.112,-52.0927,-2.11778,0
67.1705,-52.0276,-2.12976,0
67.2273,-51.9611,-2.14163,0
67.2823,-51.8932,-2.15338,0
67.3353,-51.8241,-2.165,0
66.5841,-51.0855,-2.44631,174
67.4348,-51.6815,-2.18814,0
67.4802,-51.6075,-2.19993,0
67.5236,-51.5325,-2.21153,0
67.5652,-51.4567,-2.22293,0
67.6046,-51.3802,-2.2341,0
67.6423,-51.3029,-2.24508,0
67.6778,-51.2249,-2.25584,0
67.7115,-51.1464,-2.26637,0
67.7431,-51.0672,-2.27668,0
67.7727,-50.9876,-2.28676,0
67.8005,-50.9075,-2.2966,0
67.8323,-50.8298,-2.30466,0
67.865,-50.7527,-2.31179,0
67.8959,-50.6749,-2.31871,0
67.9252,-50.5965,-2.3254,0
67.9525,-50.5174,-2.33187,0
67.978,-50.4379,-2.33813,0
68.0018,-50.3578,-2.34414,0
68.0237,-50.2772,-2.34991,0
68.0469,-50.1971,-2.35475,0
68.0688,-50.1165,-2.35925,0
68.0891,-50.0354,-2.36347,0
68.1077,-49.954,-2.36744,0
68.1246,-49.8721,-2.37114,0
68.1398,-49.7898,-2.37459,0
68.1533,-49.7072,-2.37776,0
68.165,-49.6242,-2.38067,0
68.175,-49.541,-2.38331,0
68.1833,-49.4575,-2.38568,0
68.1898,-49.3739,-2.38777,0
68.1947,-49.29,-2.38958,0
68.1977,-49.206,-2.39113,0
68.199,-49.1219,-2.3924,0
68.1985,-49.0377,-2.39339,0
68.1963,-48.9535,-2.39411,0
68.1923,-48.8693,-2.39454,0
68.1866,-48.7851,-2.39469,0
68.179,-48.7009,-2.39456,0
68.1698,-48.6168,-2.39416,0
68.1587,-48.5329,-2.39346,0
68.1458,-48.4492,-2.39249,0
68.1315,-48.3655,-2.39115,0
68.1159,-48.282,-2.38946,0
68.0984,-48.1988,-2.38748,0
68.0791,-48.1158,-2.38523,0
68.058,-48.0332,-2.38268,0
68.0352,-47.9509,-2.37985,0
68.0105,-47.8689,-2.37674,0
67.983,-47.788,-2.37364,0
67.9521,-47.7081,-2.37057,0
67.9195,-47.6289,-2.36724,0
67.8853,-47.5504,-2.36363,0
67.8493,-47.4726,-2.35976,0
67.8116,-47.3956,-2.35561,0
67.7722,-47.3193,-2.3512,0
67.7311,-47.2439,-2.34653,0
67.6884,-47.1693,-2.34159,0
67.6439,-47.0956,-2.33639,0
67.5979,-47.0228,-2.33093,0
67.5502,-46.9511,-2.32521,0
67.501,-46.8803,-2.31923,0
67.4502,-46.8106,-2.313,0
67.3969,-46.7426,-2.30676,0
67.34,-46.6778,-2.30096,0
67.2815,-46.6143,-2.29495,0
67.2216,-46.5523,-2.28874,0
67.1602,-46.4916,-2.28233,0
67.0975,-46.4325,-2.27571,0
67.0334,-46.3748,-2.2689,0
66.9689,-46.3177,-2.26161,0
66.9037,-46.2614,-2.25386,0
66.8373,-46.2066,-2.24594,0
66.7695,-46.1533,-2.23783,0
66.7005,-46.1017,-2.22954,0
66.6303,-46.0516,-2.22107,0
66.5589,-46.0032,-2.21243,0
66.4864,-45.9565,-2.20361,0
66.4157,-45.9068,-2.19324,0
66.3451,-45.8565,-2.18201,0
66.2729,-45.8081,-2.17066,0
66.1994,-45.7615,-2.15922,0
66.8084,-52.3822,-2.05934,0
66.8752,-52.3246,-2.07173,0
66.9403,-52.2653,-2.08406,0
67.0038,-52.2044,-2.0963,0
67.0655,-52.1419,-2.10846,0
67.1255,-52.078,-2.12051,0
67.1836,-52.0126,-2.13248,0
67.24,-51.9458,-2.14432,0
67.2945,-51.8776,-2.15604,0
66.4617,-51.0448,-2.47198,174
67.3978,-51.7376,-2.17908,0
67.4452,-51.6647,-2.19084,0
67.4902,-51.5905,-2.20259,0
67.5332,-51.5153,-2.21414,0
67.5742,-51.4394,-2.22548,0
67.6134,-51.3627,-2.23662,0
67.6505,-51.2852,-2.24755,0
67.6857,-51.2071,-2.25826,0
67.7188,-51.1284,-2.26874,0
67.75,-51.0492,-2.27899,0
67.7792,-50.9694,-2.28903,0
67.8065,-50.8892,-2.29882,0
67.8398,-50.8123,-2.30631,0
67.8722,-50.735,-2.31339,0
67.9027,-50.6571,-2.32026,0
67.9315,-50.5785,-2.3269,0
67.9584,-50.4994,-2.33332,0
67.9837,-50.4197,-2.33951,0
68.007,-50.3395,-2.34548,0
68.0288,-50.2589,-2.35111,0
68.0521,-50.1788,-2.3558,0
68.0737,-50.0981,-2.36023,0
68.0935,-50.0169,-2.3644,0
68.1117,-49.9354,-2.36831,0
68.1282,-49.8534,-2.37195,0
68.143,-49.771,-2.37533,0
68.1561,-49.6883,-2.37845,0
68.1675,-49.6053,-2.3813,0
68.177,-49.522,-2.38387,0
68.1849,-49.4385,-2.38617,0
68.1912,-49.3548,-2.3882,0
68.1955,-49.2709,-2.38996,0
68.1981,-49.1869,-2.39144,0
68.1991,-49.1028,-2.39264,0
68.1981,-49.0186,-2.39358,0
68.1956,-48.9343,-2.39423,0
68.1912,-48.8501,-2.39459,0
68.1849,-48.7659,-2.39468,0
68.177,-48.6818,-2.39449,0
68.1673,-48.5977,-2.39403,0
68.1559,-48.5139,-2.39326,0
68.1426,-48.4301,-2.39223,0
68.1281,-48.3465,-2.39079,0
68.112,-48.2631,-2.38904,0
68.0941,-48.1799,-2.38699,0
68.0745,-48.097,-2.38467,0
68.053,-48.0144,-2.38206,0
68.0298,-47.9322,-2.37917,0
68.0048,-47.8504,-2.37599,0
67.9761,-47.7698,-2.37297,0
67.9449,-47.6901,-2.36984,0
67.9119,-47.611,-2.36645,0
67.8773,-47.5327,-2.36278,0
67.8409,-47.455,-2.35884,0
67.8028,-47.3781,-2.35464,0
67.763,-47.302,-2.35017,0
67.7215,-47.2268,-2.34544,0
67.6784,-47.1524,-2.34044,0
67.6336,-47.0789,-2.33517,0
67.5872,-47.0064,-2.32965,0
67.5392,-46.9349,-2.32387,0
67.4896,-46.8643,-2.31783,0
67.4384,-46.7949,-2.31155,0
67.3841,-46.7277,-2.30546,0
67.3268,-46.6632,-2.29961,0
67.268,-46.6001,-2.29355,0
67.2077,-46.5384,-2.28729,0
67.1461,-46.4781,-2.28083,0
67.083,-46.4192,-2.27418,0
67.0187,-46.3619,-2.26733,0
66.9542,-46.3048,-2.25986,0
66.8887,-46.2488,-2.25208,0
66.822,-46.1943,-2.24411,0
66.7538,-46.1414,-2.23596,0
66.6846,-46.0901,-2.22762,0
66.6141,-46.0404,-2.21912,0
66.5425,-45.9924,-2.21044,0
66.4698,-45.9461,-2.20159,0
66.3998,-45.8952,-2.19069,0
66.3288,-45.8453,-2.17944,0
66.2563,-45.7973,-2.16807,0
66.1825,-45.7512,-2.15659,0
66.8238,-52.3692,-2.06216,0
66.8902,-52.3112,-2.07454,0
66.9549,-52.2516,-2.08686,0
67.018,-52.1903,-2.09907,0
67.0793,-52.1275,-2.11122,0
67.1388,-52.0632,-2.12325,0
67.1966,-51.9975,-2.13518,0
67.2525,-51.9304,-2.14699,0
67.3066,-51.8619,-2.15869,0
66.4938,-51.054,-2.46565,174
67.4091,-51.7213,-2.18167,0
67.4556,-51.6479,-2.19353,0
67.5002,-51.5735,-2.20523,0
67.5427,-51.4981,-2.21673,0
67.5834,-51.422,-2.22803,0
67.6219,-51.3451,-2.23913,0
67.6587,-51.2675,-2.25,0
67.6934,-51.1893,-2.26066,0
67.7261,-51.1104,-2.2711,0
67.7569,-51.0311,-2.2813,0
67.7856,-50.9512,-2.29127,0
67.8136,-50.8715,-2.30068,0
67.8473,-50.7948,-2.30794,0
67.8793,-50.7174,-2.31497,0
67.9095,-50.6393,-2.32179,0
67.9378,-50.5606,-2.32838,0
67.9644,-50.4813,-2.33475,0
67.9891,-50.4015,-2.34089,0
68.012,-50.3212,-2.34679,0
68.0342,-50.2407,-2.3522,0
68.0572,-50.1604,-2.35683,0
68.0783,-50.0797,-2.3612,0
68.0978,-49.9984,-2.36531,0
68.1156,-49.9167,-2.36916,0
68.1317,-49.8347,-2.37275,0
68.1461,-49.7522,-2.37607,0
68.1588,-49.6695,-2.37912,0
68.1698,-49.5864,-2.3819,0
68.179,-49.5031,-2.38442,0
68.1866,-49.4195,-2.38667,0
68.1923,-49.3357,-2.38863,0
68.1963,-49.2518,-2.39032,0
68.1985,-49.1678,-2.39174,0
68.199,-49.0836,-2.39289,0
68.1978,-48.9994,-2.39375,0
68.1947,-48.9152,-2.39433,0
68.1899,-48.8309,-2.39465,0
68.1833,-48.7467,-2.39466,0
68.175,-48.6626,-2.39441,0
68.1649,-48.5786,-2.39387,0
68.153,-48.4948,-2.39305,0
68.1394,-48.4111,-2.39195,0
68.1245,-48.3275,-2.39042,0
68.108,-48.2441,-2.3886,0
68.0898,-48.161,-2.38649,0
68.0697,-48.0782,-2.3841,0
68.0479,-47.9957,-2.38143,0
68.0242,-47.9135,-2.37847,0
67.9988,-47.8318,-2.37523,0
67.9691,-47.7516,-2.37228,0
67.9375,-47.672,-2.36909,0
67.9042,-47.5931,-2.36563,0
67.8691,-47.5149,-2.36191,0
67.8323,-47.4375,-2.35791,0
67.7939,-47.3608,-2.35364,0
67.7537,-47.2848,-2.34911,0
67.7119,-47.2098,-2.34432,0
67.6684,-47.1356,-2.33925,0
67.6232,-47.0624,-2.33394,0
67.5764,-46.99,-2.32836,0
67.528,-46.9187,-2.32253,0
67.4781,-46.8484,-2.31643,0
67.4266,-46.7792,-2.31008,0
67.3712,-46.7129,-2.30414,0
67.3135,-46.6488,-2.29824,0
67.2544,-46.5859,-2.29215,0
67.1938,-46.5245,-2.28584,0
67.1318,-46.4645,-2.27933,0
67.0685,-46.4061,-2.27263,0
67.0039,-46.3491,-2.26573,0
66.9394,-46.2919,-2.2581,0
66.8736,-46.2363,-2.25028,0
66.8066,-46.1821,-2.24227,0
66.7383,-46.1296,-2.23407,0
66.6687,-46.0787,-2.22571,0
66.598,-46.0294,-2.21716,0
66.526,-45.9818,-2.20844,0
66.4536,-45.935,-2.19931,0
66.3838,-45.8837,-2.18814,0
66.3124,-45.8342,-2.17685,0
66.2397,-45.7866,-2.16547,0
66.1655,-45.7409,-2.15399,0
66.7995,-52.2568,-2.06779,0
66.8635,-52.1996,-2.07981,0
66.9258,-52.1407,-2.09176,0
66.9864,-52.0804,-2.10363,0
67.0453,-52.0185,-2.1154,0
67.1025,-51.9553,-2.12708,0
67.158,-51.8906,-2.13864,0
67.2116,-51.8247,-2.15009,0
66.447,-51.0475,-2.45194,174
66.5409,-51.0466,-2.43993,174
67.3616,-51.6195,-2.18369,0
67.4079,-51.5489,-2.19462,0
67.4507,-51.476,-2.2059,0
67.4914,-51.4023,-2.21703,0
67.5302,-51.3277,-2.22797,0
67.5671,-51.2525,-2.23869,0
67.602,-51.1766,-2.24921,0
67.6352,-51.1,-2.25951,0
67.6663,-51.0229,-2.26959,0
67.6955,-50.9453,-2.27946,0
67.7244,-50.8681,-2.28866,0
67.7581,-50.7934,-2.29586,0
67.7902,-50.7181,-2.30283,0
67.8205,-50.642,-2.3096,0
67.8491,-50.5654,-2.31615,0
67.8759,-50.4882,-2.32248,0
67.9009,-50.4104,-2.32859,0
67.9263,-50.3328,-2.33398,0
67.9511,-50.2549,-2.33887,0
67.9741,-50.1765,-2.34351,0
67.9956,-50.0976,-2.3479,0
68.0155,-50.0183,-2.35205,0
68.0337,-49.9385,-2.35593,0
68.0502,-49.8583,-2.35955,0
68.065,-49.7777,-2.36292,0
68.0781,-49.6968,-2.36602,0
68.0896,-49.6156,-2.36886,0
68.0994,-49.5341,-2.37144,0
68.1074,-49.4524,-2.37375,0
68.1138,-49.3705,-2.37578,0
68.1184,-49.2884,-2.37756,0
68.1214,-49.2061,-2.37906,0
68.1226,-49.1238,-2.3803,0
68.1222,-49.0414,-2.38126,0
68.1199,-48.9589,-2.38195,0
68.1159,-48.8764,-2.38236,0
68.1102,-48.794,-2.3825,0
68.1028,-48.7116,-2.38237,0
68.0936,-48.6293,-2.38195,0
68.0827,-48.5472,-2.38127,0
68.07,-48.4652,-2.38031,0
68.0558,-48.3834,-2.37901,0
68.0403,-48.3017,-2.37735,0
68.0231,-48.2202,-2.3754,0
68.0042,-48.139,-2.37317,0
67.9835,-48.0582,-2.37067,0
67.9611,-47.9777,-2.36788,0
67.9369,-47.8975,-2.36482,0
67.9087,-47.8188,-2.36202,0
67.8785,-47.7407,-2.35902,0
67.8466,-47.6632,-2.35574,0
67.813,-47.5864,-2.3522,0
67.7777,-47.5103,-2.34841,0
67.7408,-47.435,-2.34435,0
67.7022,-47.3604,-2.34002,0
67.6619,-47.2866,-2.33544,0
67.6201,-47.2137,-2.3306,0
67.5766,-47.1416,-2.3255,0
67.5315,-47.0705,-2.32015,0
67.4848,-47.0004,-2.31455,0
67.4366,-46.9312,-2.30869,0
67.3854,-46.8642,-2.30302,0
67.3312,-46.7995,-2.29756,0
67.2755,-46.7362,-2.29189,0
67.2183,-46.6742,-2.28602,0
67.1598,-46.6136,-2.27996,0
67.0998,-46.5543,-2.27368,0
67.0386,-46.4965,-2.26723,0
66.976,-46.4402,-2.26058,0
66.9128,-46.3846,-2.25349,0
66.8491,-46.3295,-2.24593,0
66.7841,-46.276,-2.23819,0
66.718,-46.224,-2.23026,0
66.6505,-46.1736,-2.22215,0
66.582,-46.1247,-2.21388,0
66.5122,-46.0775,-2.20543,0
66.4413,-46.0319,-2.19683,0
66.3695,-45.9879,-2.18806,0
66.2966,-45.9457,-2.17915,0
66.2259,-45.8995,-2.16832,0
66.1542,-45.8544,-2.15717,0
66.7491,-52.2999,-2.05845,0
66.8142,-52.2439,-2.07053,0
66.8778,-52.1863,-2.08254,0
66.9397,-52.1271,-2.09446,0
66.9999,-52.0664,-2.10631,0
67.0584,-52.0043,-2.11806,0
67.1153,-51.9407,-2.12972,0
67.1703,-51.8757,-2.14126,0
67.2236,-51.8095,-2.15269,0
66.4556,-51.0366,-2.45369,174
66.5763,-51.0574,-2.43243,174
67.3723,-51.6035,-2.18619,0
67.418,-51.5324,-2.19716,0
67.4601,-51.4593,-2.20845,0
67.5004,-51.3854,-2.21954,0
67.5387,-51.3107,-2.23042,0
67.5752,-51.2353,-2.24111,0
67.6098,-51.1592,-2.25157,0
67.6424,-51.0825,-2.26183,0
67.6731,-51.0053,-2.27186,0
67.7019,-50.9276,-2.28168,0
67.7322,-50.8511,-2.29031,0
67.7656,-50.7763,-2.29746,0
67.7973,-50.7008,-2.30439,0
67.8272,-50.6247,-2.31112,0
67.8553,-50.5479,-2.31761,0
67.8818,-50.4705,-2.32389,0
67.9064,-50.3926,-2.32996,0
67.9321,-50.3151,-2.3351,0
67.9565,-50.2371,-2.33995,0
67.9792,-50.1586,-2.34454,0
68.0003,-50.0796,-2.34887,0
68.0198,-50.0001,-2.35295,0
68.0376,-49.9203,-2.35677,0
68.0537,-49.84,-2.36033,0
68.0682,-49.7593,-2.36364,0
68.0809,-49.6784,-2.36669,0
68.092,-49.5971,-2.36947,0
68.1013,-49.5155,-2.37198,0
68.1091,-49.4338,-2.37423,0
68.1151,-49.3518,-2.37622,0
68.1193,-49.2697,-2.37793,0
68.1219,-49.1874,-2.37937,0
68.1227,-49.105,-2.38054,0
68.1218,-49.0226,-2.38144,0
68.1191,-48.9401,-2.38207,0
68.1148,-48.8577,-2.38242,0
68.1087,-48.7752,-2.3825,0
68.1008,-48.6929,-2.3823,0
68.0912,-48.6106,-2.38183,0
68.0799,-48.5285,-2.38107,0
68.0669,-48.4466,-2.38006,0
68.0525,-48.3648,-2.37865,0
68.0366,-48.2831,-2.37693,0
68.019,-48.2017,-2.37491,0
67.9996,-48.1206,-2.37262,0
67.9786,-48.0398,-2.37006,0
67.9558,-47.9594,-2.36721,0
67.9309,-47.8795,-2.36416,0
67.902,-47.8009,-2.36136,0
67.8714,-47.723,-2.35829,0
67.8391,-47.6457,-2.35496,0
67.8051,-47.569,-2.35137,0
67.7695,-47.4931,-2.34751,0
67.7321,-47.4179,-2.34339,0
67.6931,-47.3435,-2.339,0
67.6526,-47.2699,-2.33436,0
67.6103,-47.1972,-2.32947,0
67.5665,-47.1254,-2.32431,0
67.521,-47.0545,-2.3189,0
67.474,-46.9845,-2.31324,0
67.4254,-46.9156,-2.30733,0
67.3732,-46.8494,-2.3018,0
67.3186,-46.785,-2.29629,0
67.2626,-46.722,-2.29058,0
67.2051,-46.6603,-2.28466,0
67.1462,-46.6,-2.27855,0
67.0861,-46.5411,-2.27223,0
67.0245,-46.4836,-2.26573,0
66.9616,-46.4276,-2.25903,0
66.8984,-46.3719,-2.25178,0
66.8344,-46.3172,-2.24419,0
66.7692,-46.264,-2.2364,0
66.7027,-46.2124,-2.22843,0
66.635,-46.1623,-2.22028,0
66.5661,-46.1138,-2.21197,0
66.4962,-46.0669,-2.20349,0
66.4251,-46.0217,-2.19485,0
66.353,-45.9782,-2.18604,0
66.2803,-45.9356,-2.17686,0
66.2097,-45.889,-2.16579,0
66.1377,-45.8444,-2.15462,0
66.7641,-52.2873,-2.06121,0
66.8289,-52.231,-2.07326,0
66.892,-52.173,-2.08526,0
66.9535,-52.1134,-2.09717,0
67.0134,-52.0524,-2.10899,0
67.0716,-51.9899,-2.12072,0
67.128,-51.926,-2.13235,0
67.1827,-51.8608,-2.14387,0
67.2355,-51.7942,-2.15527,0
66.4676,-51.0287,-2.45417,174
67.3357,-51.6575,-2.17769,0
67.383,-51.5875,-2.18869,0
67.4277,-51.5159,-2.19975,0
67.4695,-51.4426,-2.21099,0
67.5092,-51.3684,-2.22203,0
67.5473,-51.2936,-2.23287,0
67.5832,-51.218,-2.24351,0
67.6173,-51.1418,-2.25393,0
67.6495,-51.065,-2.26413,0
67.6798,-50.9877,-2.27411,0
67.7081,-50.9099,-2.28386,0
67.74,-50.8342,-2.29196,0
67.7729,-50.7592,-2.29905,0
67.8042,-50.6835,-2.30594,0
67.8337,-50.6072,-2.31261,0
67.8615,-50.5303,-2.31906,0
67.8875,-50.4528,-2.32529,0
67.9122,-50.375,-2.33119,0
67.9378,-50.2974,-2.33623,0
67.9618,-50.2193,-2.34101,0
67.9841,-50.1407,-2.34554,0
68.0049,-50.0616,-2.34982,0
68.024,-49.982,-2.35384,0
68.0414,-49.902,-2.35761,0
68.0571,-49.8217,-2.36111,0
68.0712,-49.7409,-2.36435,0
68.0835,-49.6599,-2.36734,0
68.0942,-49.5785,-2.37007,0
68.1033,-49.497,-2.37252,0
68.1105,-49.4151,-2.37471,0
68.1162,-49.3331,-2.37663,0
68.1201,-49.2509,-2.37828,0
68.1222,-49.1687,-2.37966,0
68.1226,-49.0863,-2.38077,0
68.1213,-49.0038,-2.3816,0
68.1183,-48.9214,-2.38217,0
68.1136,-48.8389,-2.38247,0
68.107,-48.7565,-2.38248,0
68.0987,-48.6742,-2.38222,0
68.0888,-48.5919,-2.38169,0
68.0771,-48.5099,-2.38087,0
68.0637,-48.428,-2.37978,0
68.049,-48.3462,-2.37828,0
68.0327,-48.2646,-2.37649,0
68.0148,-48.1832,-2.37442,0
67.995,-48.1022,-2.37207,0
67.9735,-48.0215,-2.36943,0
67.9503,-47.9411,-2.36653,0
67.9245,-47.8616,-2.36354,0
67.8952,-47.7831,-2.36068,0
67.8642,-47.7053,-2.35756,0
67.8315,-47.6282,-2.35417,0
67.7972,-47.5517,-2.35051,0
67.7612,-47.4759,-2.34659,0
67.7234,-47.4009,-2.34241,0
67.6841,-47.3267,-2.33797,0
67.643,-47.2533,-2.33327,0
67.6005,-47.1808,-2.32831,0
67.5563,-47.1092,-2.3231,0
67.5105,-47.0385,-2.31763,0
67.463,-46.9687,-2.31191,0
67.4141,-46.9,-2.30594,0
67.3609,-46.8346,-2.30056,0
67.306,-46.7706,-2.29501,0
67.2497,-46.7078,-2.28925,0
67.1919,-46.6465,-2.28328,0
67.1327,-46.5865,-2.27712,0
67.0721,-46.5279,-2.27077,0
67.0103,-46.4707,-2.26423,0
66.9471,-46.415,-2.25749,0
66.884,-46.3593,-2.25008,0
66.8198,-46.305,-2.24243,0
66.7541,-46.2522,-2.2346,0
66.6874,-46.2009,-2.22659,0
66.6195,-46.1511,-2.21841,0
66.5504,-46.103,-2.21006,0
66.4801,-46.0565,-2.20153,0
66.4087,-46.0117,-2.19286,0
66.3364,-45.9685,-2.18402,0
66.2643,-45.9248,-2.17435,0
66.1934,-45.8787,-2.16327,0
66.1212,-45.8345,-2.15208,0
66.7417,-52.1795,-2.06671,0
66.8041,-52.1238,-2.07842,0
66.8649,-52.0666,-2.09007,0
66.9241,-52.0079,-2.10164,0
66.9817,-51.9478,-2.11312,0
67.0376,-51.8862,-2.12451,0
67.0918,-51.8233,-2.13579,0
67.1442,-51.7592,-2.14696,0
66.4393,-51.0378,-2.43434,174
66.5335,-51.0376,-2.42156,174
67.2909,-51.5596,-2.17974,0
67.3363,-51.4908,-2.19041,0
67.3797,-51.4211,-2.20092,0
67.4208,-51.3501,-2.21139,0
67.4589,-51.2775,-2.22208,0
67.4952,-51.2042,-2.23257,0
67.5295,-51.1302,-2.24287,0
67.562,-51.0556,-2.25294,0
67.5927,-50.9805,-2.26281,0
67.6215,-50.9048,-2.27246,0
67.6538,-50.8314,-2.28036,0
67.687,-50.7584,-2.28739,0
67.7184,-50.6848,-2.29423,0
67.748,-50.6105,-2.30085,0
67.7761,-50.5355,-2.30726,0
67.8041,-50.4607,-2.31302,0
67.8314,-50.3855,-2.3183,0
67.8572,-50.3098,-2.32334,0
67.8814,-50.2335,-2.32813,0
67.9041,-50.1567,-2.33267,0
67.9251,-50.0794,-2.33698,0
67.9445,-50.0017,-2.34102,0
67.9623,-49.9235,-2.34482,0
67.9784,-49.845,-2.34837,0
67.9929,-49.7661,-2.35166,0
68.0057,-49.6868,-2.3547,0
68.017,-49.6073,-2.35747,0
68.0265,-49.5275,-2.36,0
68.0343,-49.4474,-2.36225,0
68.0405,-49.3672,-2.36424,0
68.0451,-49.2868,-2.36597,0
68.0479,-49.2062,-2.36744,0
68.049,-49.1256,-2.36864,0
68.0485,-49.0448,-2.36958,0
68.0462,-48.9641,-2.37024,0
68.0423,-48.8833,-2.37064,0
68.0366,-48.8026,-2.37076,0
68.0293,-48.7219,-2.37062,0
68.0202,-48.6414,-2.37022,0
68.0095,-48.561,-2.36953,0
67.997,-48.4807,-2.36857,0
67.9829,-48.4006,-2.36732,0
67.9677,-48.3206,-2.36568,0
67.9508,-48.2409,-2.36375,0
67.9321,-48.1614,-2.36156,0
67.9117,-48.0823,-2.35909,0
67.8897,-48.0035,-2.35635,0
67.8652,-47.9254,-2.35352,0
67.8373,-47.8484,-2.35084,0
67.8077,-47.772,-2.34789,0
67.7764,-47.6962,-2.34468,0
67.7434,-47.621,-2.34121,0
67.7089,-47.5466,-2.33748,0
67.6727,-47.4729,-2.33349,0
67.6348,-47.3999,-2.32926,0
67.5954,-47.3278,-2.32477,0
67.5544,-47.2564,-2.32002,0
67.5117,-47.186,-2.31503,0
67.4676,-47.1164,-2.30978,0
67.4219,-47.0478,-2.30429,0
67.3724,-46.9818,-2.29919,0
67.3209,-46.9174,-2.29406,0
67.2679,-46.8542,-2.28873,0
67.2135,-46.7923,-2.2832,0
67.1577,-46.7317,-2.27746,0
67.1005,-46.6724,-2.27152,0
67.042,-46.6145,-2.2654,0
66.982,-46.558,-2.25908,0
66.9209,-46.5029,-2.25259,0
66.8591,-46.4487,-2.2457,0
66.7968,-46.3949,-2.2383,0
66.7333,-46.3426,-2.23074,0
66.6685,-46.2919,-2.22299,0
66.6026,-46.2426,-2.21507,0
66.5355,-46.1948,-2.20698,0
66.4673,-46.1487,-2.19872,0
66.3981,-46.1042,-2.19031,0
66.3279,-46.0613,-2.18174,0
66.2566,-46.02,-2.17303,0
66.1844,-45.9805,-2.16416,0
66.1113,-45.9426,-2.15516,0
66.6925,-52.2214,-2.0576,0
66.756,-52.167,-2.06937,0
66.8181,-52.1109,-2.08108,0
66.8785,-52.0534,-2.09271,0
66.9373,-51.9943,-2.10426,0
66.9945,-51.9339,-2.11572,0
67.05,-51.872,-2.12709,0
67.1038,-51.8089,-2.13835,0
66.4292,-51.0914,-2.42119,174
66.4495,-51.0284,-2.43546,174
66.5687,-51.0482,-2.41388,174
67.3014,-51.544,-2.18218,0
67.3462,-51.475,-2.1928,0
67.3892,-51.4051,-2.20328,0
67.4296,-51.3337,-2.21384,0
67.4673,-51.2609,-2.22449,0
67.5031,-51.1874,-2.23493,0
67.5371,-51.1133,-2.24518,0
67.5692,-51.0386,-2.25521,0
67.5994,-50.9633,-2.26503,0
67.6277,-50.8875,-2.27463,0
67.6616,-50.8149,-2.28197,0
67.6943,-50.7418,-2.28896,0
67.7252,-50.6679,-2.29575,0
67.7546,-50.5935,-2.30232,0
67.7822,-50.5184,-2.30869,0
67.8104,-50.4436,-2.31424,0
67.8374,-50.3683,-2.31946,0
67.8629,-50.2925,-2.32445,0
67.8867,-50.2161,-2.32918,0
67.909,-50.1392,-2.33368,0
67.9296,-50.0618,-2.33792,0
67.9487,-49.984,-2.34191,0
67.9661,-49.9057,-2.34565,0
67.9819,-49.8271,-2.34915,0
67.9959,-49.7481,-2.35237,0
68.0084,-49.6687,-2.35535,0
68.0192,-49.5891,-2.35806,0
68.0284,-49.5093,-2.36052,0
68.0359,-49.4292,-2.36273,0
68.0417,-49.3489,-2.36466,0
68.0459,-49.2684,-2.36633,0
68.0483,-49.1879,-2.36773,0
68.049,-49.1072,-2.36887,0
68.0481,-49.0265,-2.36975,0
68.0455,-48.9457,-2.37035,0
68.0412,-48.865,-2.37069,0
68.0352,-48.7842,-2.37076,0
68.0273,-48.7036,-2.37055,0
68.018,-48.6231,-2.37008,0
68.0068,-48.5427,-2.36934,0
67.9939,-48.4625,-2.36832,0
67.9796,-48.3824,-2.36697,0
67.964,-48.3025,-2.36527,0
67.9466,-48.2228,-2.36328,0
67.9277,-48.1434,-2.36102,0
67.9069,-48.0643,-2.35849,0
67.8845,-47.9856,-2.35569,0
67.8589,-47.9078,-2.35294,0
67.8307,-47.8309,-2.35019,0
67.8006,-47.7547,-2.34718,0
67.769,-47.679,-2.34391,0
67.7358,-47.6041,-2.34038,0
67.7008,-47.5298,-2.3366,0
67.6642,-47.4562,-2.33256,0
67.6259,-47.3834,-2.32827,0
67.5862,-47.3115,-2.32371,0
67.5448,-47.2403,-2.31891,0
67.5018,-47.17,-2.31386,0
67.4573,-47.1007,-2.30856,0
67.4112,-47.0323,-2.30301,0
67.3609,-46.967,-2.29804,0
67.309,-46.9029,-2.29287,0
67.2557,-46.84,-2.28749,0
67.2009,-46.7784,-2.28191,0
67.1448,-46.7181,-2.27612,0
67.0873,-46.6591,-2.27015,0
67.0284,-46.6015,-2.26398,0
66.9682,-46.5453,-2.25762,0
66.9068,-46.4906,-2.25109,0
66.8449,-46.4363,-2.24404,0
66.7824,-46.3829,-2.2366,0
66.7187,-46.3309,-2.229,0
66.6536,-46.2805,-2.2212,0
66.5874,-46.2316,-2.21324,0
66.5202,-46.1842,-2.20511,0
66.4517,-46.1384,-2.19682,0
66.3823,-46.0943,-2.18837,0
66.3117,-46.0517,-2.17977,0
66.2402,-46.0109,-2.17101,0
66.1678,-45.9717,-2.16212,0
66.0951,-45.9331,-2.15275,0
66.7071,-52.2092,-2.06029,0
66.7703,-52.1544,-2.07205,0
66.832,-52.098,-2.08373,0
66.892,-52.0401,-2.09535,0
66.9505,-51.9807,-2.10688,0
67.0073,-51.9199,-2.11831,0
67.0624,-51.8578,-2.12966,0
67.1159,-51.7943,-2.1409,0
66.4303,-51.0739,-2.4258,174
66.4636,-51.0224,-2.43516,174
66.6047,-51.0591,-2.406,174
67.3118,-51.5284,-2.18461,0
67.3562,-51.4592,-2.19521,0
67.3988,-51.389,-2.20565,0
67.4384,-51.3172,-2.21628,0
67.4756,-51.2442,-2.22688,0
67.5111,-51.1706,-2.23728,0
67.5445,-51.0963,-2.24748,0
67.5762,-51.0215,-2.25746,0
67.606,-50.9461,-2.26723,0
67.6352,-50.8709,-2.27643,0
67.6691,-50.7983,-2.28358,0
67.7014,-50.725,-2.29052,0
67.732,-50.6511,-2.29726,0
67.761,-50.5765,-2.30379,0
67.7884,-50.5014,-2.31004,0
67.8167,-50.4265,-2.31545,0
67.8434,-50.3511,-2.32062,0
67.8684,-50.2751,-2.32554,0
67.8919,-50.1986,-2.33023,0
67.9138,-50.1216,-2.33466,0
67.9341,-50.0441,-2.33885,0
67.9527,-49.9662,-2.34279,0
67.9698,-49.8878,-2.34647,0
67.9852,-49.8091,-2.34989,0
67.999,-49.73,-2.35307,0
68.011,-49.6507,-2.35599,0
68.0215,-49.571,-2.35865,0
68.0302,-49.4911,-2.36105,0
68.0374,-49.4109,-2.36319,0
68.0428,-49.3306,-2.36507,0
68.0466,-49.2501,-2.36667,0
68.0487,-49.1695,-2.36802,0
68.049,-49.0888,-2.3691,0
68.0477,-49.0081,-2.36991,0
68.0446,-48.9273,-2.37046,0
68.0399,-48.8466,-2.37073,0
68.0335,-48.7659,-2.37074,0
68.0253,-48.6853,-2.37047,0
68.0155,-48.6048,-2.36993,0
68.004,-48.5244,-2.36913,0
67.9907,-48.4442,-2.36805,0
67.9762,-48.3642,-2.36661,0
67.9602,-48.2843,-2.36484,0
67.9425,-48.2047,-2.36279,0
67.923,-48.1254,-2.36047,0
67.902,-48.0464,-2.35788,0
67.8791,-47.9677,-2.35502,0
67.8527,-47.8902,-2.35234,0
67.824,-47.8135,-2.34953,0
67.7937,-47.7374,-2.34646,0
67.7616,-47.6619,-2.34313,0
67.7279,-47.5871,-2.33955,0
67.6927,-47.513,-2.3357,0
67.6557,-47.4396,-2.33161,0
67.6171,-47.367,-2.32725,0
67.5769,-47.2952,-2.32264,0
67.5352,-47.2242,-2.31778,0
67.4919,-47.1542,-2.31267,0
67.447,-47.085,-2.30732,0
67.3998,-47.0174,-2.3019,0
67.3492,-46.9523,-2.29689,0
67.297,-46.8885,-2.29166,0
67.2434,-46.8259,-2.28623,0
67.1883,-46.7645,-2.28061,0
67.1318,-46.7045,-2.27478,0
67.074,-46.6459,-2.26876,0
67.0148,-46.5886,-2.26256,0
66.9544,-46.5328,-2.25615,0
66.8927,-46.4783,-2.24957,0
66.8309,-46.424,-2.24237,0
66.768,-46.371,-2.23489,0
66.704,-46.3194,-2.22723,0
66.6387,-46.2692,-2.2194,0
66.5723,-46.2207,-2.21141,0
66.5047,-46.1737,-2.20324,0
66.436,-46.1282,-2.19492,0
66.3663,-46.0844,-2.18643,0
66.2955,-46.0423,-2.17779,0
66.2238,-46.0018,-2.16901,0
66.1512,-45.963,-2.16007,0
66.0789,-45.9235,-2.15026,0
66.6866,-52.1056,-2.06567,0
66.7473,-52.0515,-2.0771,0
66.8068,-51.9958,-2.08846,0
66.8646,-51.9387,-2.09974,0
66.9209,-51.8801,-2.11094,0
66.9755,-51.8203,-2.12205,0
67.0284,-51.7591,-2.13307,0
66.4151,-51.0943,-2.4008,174
66.4315,-51.0281,-2.41682,174
66.5262,-51.0286,-2.40327,174
67.2233,-51.5023,-2.17596,0
67.2676,-51.4353,-2.18637,0
67.3102,-51.3674,-2.19664,0
67.3509,-51.2985,-2.20675,0
67.3898,-51.2288,-2.21672,0
67.4262,-51.1579,-2.22671,0
67.4599,-51.0858,-2.23677,0
67.492,-51.013,-2.24665,0
67.5221,-50.9398,-2.25631,0
67.552,-50.8668,-2.26527,0
67.5861,-50.7962,-2.27236,0
67.6185,-50.7248,-2.27924,0
67.6493,-50.6528,-2.28594,0
67.6802,-50.5809,-2.29192,0
67.7101,-50.5085,-2.29756,0
67.7384,-50.4354,-2.30297,0
67.7652,-50.3618,-2.30814,0
67.7905,-50.2876,-2.31307,0
67.8142,-50.2129,-2.31777,0
67.8364,-50.1376,-2.32222,0
67.8569,-50.0619,-2.32643,0
67.876,-49.9857,-2.3304,0
67.8934,-49.9091,-2.33411,0
67.9091,-49.8322,-2.33758,0
67.9234,-49.7548,-2.34081,0
67.9359,-49.6772,-2.34378,0
67.9469,-49.5992,-2.3465,0
67.9561,-49.5211,-2.34895,0
67.9638,-49.4426,-2.35116,0
67.9698,-49.364,-2.35311,0
67.9742,-49.2852,-2.3548,0
67.977,-49.2063,-2.35623,0
67.978,-49.1273,-2.35739,0
67.9775,-49.0482,-2.3583,0
67.9752,-48.9691,-2.35895,0
67.9712,-48.89,-2.35932,0
67.9657,-48.8109,-2.35945,0
67.9584,-48.7319,-2.35929,0
67.9495,-48.653,-2.35888,0
67.9388,-48.5742,-2.3582,0
67.9266,-48.4956,-2.35725,0
67.9127,-48.4172,-2.35604,0
67.8977,-48.3389,-2.35442,0
67.8809,-48.2608,-2.35253,0
67.8627,-48.183,-2.35037,0
67.8426,-48.1055,-2.34794,0
67.8209,-48.0284,-2.34524,0
67.7958,-47.9523,-2.34271,0
67.7684,-47.8769,-2.34007,0
67.7394,-47.8021,-2.33717,0
67.7087,-47.7279,-2.33402,0
67.6764,-47.6544,-2.33062,0
67.6426,-47.5815,-2.32696,0
67.607,-47.5094,-2.32305,0
67.5699,-47.438,-2.3189,0
67.5312,-47.3674,-2.31449,0
67.4911,-47.2976,-2.30984,0
67.4493,-47.2286,-2.30494,0
67.4056,-47.1608,-2.29989,0
67.3583,-47.0955,-2.29529,0
67.3094,-47.0314,-2.29048,0
67.259,-46.9685,-2.28546,0
67.2072,-46.9067,-2.28025,0
67.1541,-46.8462,-2.27483,0
67.0994,-46.7869,-2.26922,0
67.0435,-46.7289,-2.26342,0
66.9863,-46.6723,-2.25743,0
66.9277,-46.6171,-2.25127,0
66.868,-46.5632,-2.24491,0
66.8073,-46.5103,-2.23822,0
66.7465,-46.4577,-2.231,0
66.6844,-46.4067,-2.22359,0
66.621,-46.357,-2.21601,0
66.5566,-46.3089,-2.20825,0
66.491,-46.2622,-2.20035,0
66.4243,-46.2171,-2.19228,0
66.3566,-46.1736,-2.18404,0
66.2879,-46.1317,-2.17567,0
66.2183,-46.0914,-2.16715,0
66.1476,-46.0527,-2.15848,0
66.0761,-46.0157,-2.14968,0
66.6384,-52.1464,-2.0568,0
66.7005,-52.0934,-2.06828,0
66.761,-52.0389,-2.07969,0
66.8201,-51.9829,-2.09104,0
66.8776,-51.9255,-2.1023,0
66.9334,-51.8666,-2.11349,0
66.9877,-51.8064,-2.12457,0
67.0403,-51.7449,-2.13555,0
66.4163,-51.0769,-2.40551,174
66.444,-51.0208,-2.41707,174
66.5611,-51.0391,-2.39541,174
67.2335,-51.4871,-2.17835,0
67.2775,-51.4199,-2.18872,0
67.3195,-51.3518,-2.19895,0
67.3599,-51.2828,-2.20903,0
67.3984,-51.2128,-2.21897,0
67.434,-51.1415,-2.22902,0
67.4674,-51.0693,-2.23904,0
67.4989,-50.9964,-2.24886,0
67.5287,-50.923,-2.25847,0
67.5599,-50.8508,-2.2669,0
67.5936,-50.78,-2.27395,0
67.6257,-50.7085,-2.28079,0
67.6561,-50.6364,-2.2874,0
67.6871,-50.5645,-2.29322,0
67.7166,-50.4919,-2.29881,0
67.7446,-50.4187,-2.30417,0
67.7711,-50.345,-2.30928,0
67.7961,-50.2706,-2.31416,0
67.8195,-50.1958,-2.3188,0
67.8412,-50.1204,-2.32319,0
67.8614,-50.0446,-2.32736,0
67.8801,-49.9683,-2.33126,0
67.8971,-49.8917,-2.33492,0
67.9126,-49.8146,-2.33834,0
67.9263,-49.7372,-2.3415,0
67.9386,-49.6595,-2.34442,0
67.9491,-49.5815,-2.34708,0
67.958,-49.5032,-2.34948,0
67.9653,-49.4248,-2.35162,0
67.971,-49.3461,-2.35352,0
67.975,-49.2673,-2.35514,0
67.9774,-49.1883,-2.35652,0
67.978,-49.1093,-2.35762,0
67.9771,-49.0302,-2.35847,0
67.9744,-48.9511,-2.35905,0
67.9702,-48.872,-2.35938,0
67.9642,-48.7929,-2.35944,0
67.9565,-48.7139,-2.35923,0
67.9473,-48.635,-2.35875,0
67.9362,-48.5563,-2.35801,0
67.9236,-48.4777,-2.357,0
67.9094,-48.3994,-2.3557,0
67.894,-48.3211,-2.35402,0
67.877,-48.2431,-2.35206,0
67.8582,-48.1653,-2.34984,0
67.8378,-48.0879,-2.34735,0
67.8158,-48.0108,-2.34459,0
67.7898,-47.9351,-2.34212,0
67.762,-47.8598,-2.33943,0
67.7326,-47.7852,-2.33648,0
67.7015,-47.7111,-2.33327,0
67.6689,-47.6378,-2.32981,0
67.6346,-47.5651,-2.3261,0
67.5987,-47.4931,-2.32213,0
67.5612,-47.4219,-2.31792,0
67.5223,-47.3514,-2.31346,0
67.4817,-47.2818,-2.30875,0
67.4396,-47.2131,-2.30379,0
67.395,-47.1459,-2.29887,0
67.3473,-47.0808,-2.29422,0
67.298,-47.017,-2.28936,0
67.2474,-46.9543,-2.28429,0
67.1952,-46.8928,-2.27903,0
67.1417,-46.8326,-2.27357,0
67.0868,-46.7736,-2.26792,0
67.0305,-46.7159,-2.26208,0
66.973,-46.6596,-2.25605,0
66.9142,-46.6047,-2.24984,0
66.8541,-46.5511,-2.24345,0
66.7936,-46.4982,-2.2366,0
66.7324,-46.446,-2.22932,0
66.67,-46.3952,-2.22188,0
66.6065,-46.3459,-2.21425,0
66.5418,-46.2981,-2.20647,0
66.4759,-46.2518,-2.19853,0
66.409,-46.2071,-2.19042,0
66.3411,-46.1639,-2.18216,0
66.2722,-46.1224,-2.17374,0
66.2023,-46.0824,-2.16519,0
66.1315,-46.0442,-2.15649,0
66.0597,-46.0075,-2.14765,0
66.6527,-52.1345,-2.05942,0
66.7145,-52.0812,-2.07088,0
66.7746,-52.0263,-2.08229,0
66.8334,-51.97,-2.09361,0
66.8904,-51.9122,-2.10486,0
66.9459,-51.8531,-2.11601,0
66.9998,-51.7926,-2.12708,0
67.052,-51.7308,-2.13804,0
66.4175,-51.0595,-2.41015,174
66.4604,-51.0168,-2.41586,174
66.5968,-51.0498,-2.38734,174
67.2437,-51.4719,-2.18073,0
67.2872,-51.4045,-2.19106,0
67.3289,-51.3362,-2.20126,0
67.3688,-51.2669,-2.21131,0
67.4068,-51.1968,-2.2212,0
67.4418,-51.1252,-2.23132,0
67.4747,-51.0528,-2.24129,0
67.5059,-50.9798,-2.25106,0
67.5352,-50.9062,-2.26063,0
67.5677,-50.8348,-2.26853,0
67.601,-50.7638,-2.27552,0
67.6327,-50.6921,-2.28232,0
67.6633,-50.6201,-2.28875,0
67.694,-50.548,-2.29451,0
67.7231,-50.4753,-2.30005,0
67.7509,-50.402,-2.30534,0
67.7769,-50.3281,-2.31041,0
67.8015,-50.2537,-2.31523,0
67.8245,-50.1787,-2.31982,0
67.846,-50.1032,-2.32416,0
67.8658,-50.0273,-2.32826,0
67.8841,-49.9509,-2.33212,0
67.9007,-49.8741,-2.33572,0
67.9158,-49.797,-2.33908,0
67.9293,-49.7195,-2.34219,0
67.941,-49.6418,-2.34504,0
67.9513,-49.5637,-2.34765,0
67.9598,-49.4854,-2.34999,0
67.9668,-49.4069,-2.35208,0
67.972,-49.3282,-2.35391,0
67.9756,-49.2493,-2.35548,0
67.9777,-49.1703,-2.35679,0
67.978,-49.0913,-2.35784,0
67.9766,-49.0122,-2.35862,0
67.9736,-48.9331,-2.35915,0
67.969,-48.854,-2.35942,0
67.9626,-48.7749,-2.35941,0
67.9545,-48.696,-2.35914,0
67.9449,-48.6171,-2.35861,0
67.9335,-48.5384,-2.3578,0
67.9205,-48.4599,-2.35674,0
67.906,-48.3815,-2.35534,0
67.8902,-48.3033,-2.3536,0
67.8728,-48.2253,-2.35157,0
67.8537,-48.1477,-2.34929,0
67.833,-48.0703,-2.34674,0
67.81,-47.9935,-2.34403,0
67.7835,-47.9179,-2.34154,0
67.7554,-47.8428,-2.33878,0
67.7256,-47.7683,-2.33577,0
67.6942,-47.6944,-2.33251,0
67.6612,-47.6212,-2.32899,0
67.6266,-47.5486,-2.32522,0
67.5904,-47.4768,-2.32119,0
67.5525,-47.4058,-2.31693,0
67.5132,-47.3355,-2.3124,0
67.4723,-47.2661,-2.30764,0
67.4298,-47.1976,-2.30263,0
67.3843,-47.131,-2.29782,0
67.3363,-47.0662,-2.29312,0
67.2867,-47.0026,-2.28822,0
67.2356,-46.9402,-2.28311,0
67.1832,-46.879,-2.27781,0
67.1293,-46.819,-2.2723,0
67.0741,-46.7604,-2.2666,0
67.0176,-46.703,-2.26072,0
66.9598,-46.647,-2.25465,0
66.9006,-46.5924,-2.2484,0
66.8403,-46.5391,-2.24197,0
66.7798,-46.4862,-2.23496,0
66.7184,-46.4343,-2.22765,0
66.6557,-46.3839,-2.22016,0
66.5918,-46.3349,-2.2125,0
66.5269,-46.2874,-2.20467,0
66.4608,-46.2415,-2.1967,0
66.3937,-46.1971,-2.18855,0
66.3255,-46.1543,-2.18026,0
66.2563,-46.1131,-2.17181,0
66.1862,-46.0736,-2.16322,0
66.1152,-46.0357,-2.15449,0
66.0433,-45.9994,-2.14563,0
66.6337,-52.035,-2.06468,0
66.6932,-51.9823,-2.07583,0
66.7513,-51.9281,-2.08692,0
66.8077,-51.8724,-2.09793,0
66.8627,-51.8154,-2.10887,0
66.9161,-51.7571,-2.11971,0
66.9679,-51.6975,-2.13046,0
66.4023,-51.0797,-2.38525,174
66.4255,-51.02,-2.39876,174
66.5202,-51.0207,-2.38457,174
67.1586,-51.4474,-2.17236,0
67.202,-51.3822,-2.18252,0
67.2437,-51.316,-2.19255,0
67.2835,-51.2489,-2.20243,0
67.3216,-51.181,-2.21217,0
67.358,-51.1122,-2.22175,0
67.3925,-51.0427,-2.23117,0
67.4247,-50.9722,-2.24059,0
67.4543,-50.9007,-2.25006,0
67.4875,-50.8314,-2.25772,0
67.5214,-50.7625,-2.2645,0
67.555,-50.6936,-2.27071,0
67.5873,-50.624,-2.27668,0
67.618,-50.5536,-2.28243,0
67.6473,-50.4827,-2.28796,0
67.6752,-50.4111,-2.29325,0
67.7013,-50.3389,-2.29832,0
67.7261,-50.2662,-2.30317,0
67.7494,-50.1929,-2.30776,0
67.771,-50.1192,-2.31213,0
67.7913,-50.045,-2.31625,0
67.8098,-49.9703,-2.32014,0
67.8268,-49.8952,-2.32378,0
67.8423,-49.8198,-2.32717,0
67.8562,-49.744,-2.33033,0
67.8684,-49.6679,-2.33323,0
67.8791,-49.5915,-2.33589,0
67.8883,-49.5149,-2.3383,0
67.8957,-49.438,-2.34045,0
67.9016,-49.3609,-2.34236,0
67.9059,-49.2837,-2.34401,0
67.9085,-49.2064,-2.3454,0
67.9095,-49.129,-2.34654,0
67.9088,-49.0515,-2.34742,0
67.9066,-48.9739,-2.34804,0
67.9027,-48.8964,-2.34841,0
67.8973,-48.8189,-2.34852,0
67.89,-48.7415,-2.34836,0
67.8812,-48.6642,-2.34795,0
67.8708,-48.587,-2.34727,0
67.8587,-48.51,-2.34634,0
67.845,-48.4332,-2.34513,0
67.83,-48.3565,-2.34357,0
67.8136,-48.28,-2.3417,0
67.7955,-48.2038,-2.33957,0
67.7759,-48.1279,-2.33717,0
67.7541,-48.0525,-2.33461,0
67.7289,-47.9782,-2.33227,0
67.702,-47.9044,-2.32968,0
67.6736,-47.8312,-2.32684,0
67.6435,-47.7586,-2.32375,0
67.6119,-47.6866,-2.32041,0
67.5786,-47.6152,-2.31682,0
67.5437,-47.5446,-2.31299,0
67.5074,-47.4747,-2.30891,0
67.4695,-47.4056,-2.30458,0
67.4301,-47.3372,-2.30002,0
67.3878,-47.2706,-2.29561,0
67.343,-47.2057,-2.29131,0
67.2966,-47.1419,-2.2868,0
67.2487,-47.0792,-2.28209,0
67.1995,-47.0176,-2.27719,0
67.1488,-46.9572,-2.27209,0
67.0969,-46.898,-2.26679,0
67.0434,-46.84,-2.26131,0
66.9887,-46.7833,-2.25564,0
66.9328,-46.7279,-2.24979,0
66.8755,-46.6738,-2.24375,0
66.817,-46.6211,-2.23754,0
66.7577,-46.5695,-2.23103,0
66.698,-46.5181,-2.22396,0
66.6373,-46.4682,-2.21671,0
66.5754,-46.4197,-2.20929,0
66.5123,-46.3726,-2.20172,0
66.4481,-46.327,-2.19397,0
66.383,-46.2829,-2.18608,0
66.3167,-46.2403,-2.17803,0
66.2495,-46.1994,-2.16983,0
66.1814,-46.16,-2.1615,0
66.1123,-46.1222,-2.15302,0
66.0423,-46.086,-2.14441,0
66.5867,-52.0747,-2.05603,0
66.6473,-52.0231,-2.06723,0
66.7065,-51.9701,-2.07837,0
66.7642,-51.9155,-2.08944,0
66.8204,-51.8596,-2.10043,0
66.875,-51.8023,-2.11134,0
66.928,-51.7437,-2.12216,0
66.3978,-51.1393,-2.36876,174
66.4036,-51.0624,-2.38998,174
66.4409,-51.0152,-2.39784,174
66.5535,-51.0299,-2.37702,174
67.1686,-51.4326,-2.17468,0
67.2116,-51.3672,-2.18481,0
67.2528,-51.3008,-2.19481,0
67.2923,-51.2335,-2.20466,0
67.3301,-51.1654,-2.21436,0
67.366,-51.0964,-2.22391,0
67.4001,-51.0268,-2.23329,0
67.4316,-50.956,-2.24277,0
67.4608,-50.8843,-2.25218,0
67.4952,-50.8157,-2.25933,0
67.5291,-50.7469,-2.26593,0
67.5625,-50.6778,-2.27208,0
67.5944,-50.608,-2.27801,0
67.6248,-50.5375,-2.28371,0
67.6538,-50.4664,-2.28919,0
67.6813,-50.3947,-2.29443,0
67.7072,-50.3224,-2.29945,0
67.7316,-50.2496,-2.30423,0
67.7544,-50.1762,-2.30877,0
67.7758,-50.1023,-2.31309,0
67.7956,-50.028,-2.31715,0
67.8138,-49.9532,-2.32098,0
67.8305,-49.8781,-2.32457,0
67.8456,-49.8026,-2.32791,0
67.8591,-49.7267,-2.33101,0
67.871,-49.6505,-2.33386,0
67.8814,-49.5741,-2.33646,0
67.8901,-49.4974,-2.33881,0
67.8973,-49.4205,-2.34091,0
67.9027,-49.3434,-2.34275,0
67.9066,-49.2661,-2.34435,0
67.9088,-49.1888,-2.34568,0
67.9095,-49.1113,-2.34676,0
67.9086,-49.0338,-2.34759,0
67.9059,-48.9563,-2.34815,0
67.9016,-48.8788,-2.34845,0
67.8957,-48.8013,-2.3485,0
67.8882,-48.7239,-2.34829,0
67.879,-48.6466,-2.34781,0
67.8681,-48.5695,-2.34708,0
67.8557,-48.4925,-2.34609,0
67.8416,-48.4157,-2.34483,0
67.8265,-48.3391,-2.34317,0
67.8096,-48.2627,-2.34123,0
67.7913,-48.1865,-2.33904,0
67.7711,-48.1107,-2.33659,0
67.7486,-48.0355,-2.33409,0
67.723,-47.9614,-2.3317,0
67.6957,-47.8877,-2.32906,0
67.6669,-47.8146,-2.32615,0
67.6365,-47.7421,-2.32301,0
67.6044,-47.6703,-2.31962,0
67.5709,-47.5991,-2.31597,0
67.5356,-47.5286,-2.31208,0
67.4989,-47.4589,-2.30795,0
67.4607,-47.39,-2.30357,0
67.4209,-47.3218,-2.29895,0
67.3777,-47.2558,-2.29465,0
67.3325,-47.1911,-2.2903,0
67.2859,-47.1275,-2.28575,0
67.2377,-47.065,-2.281,0
67.1881,-47.0037,-2.27605,0
67.1372,-46.9436,-2.2709,0
67.0848,-46.8846,-2.26556,0
67.0311,-46.827,-2.26004,0
66.9761,-46.7706,-2.25432,0
66.9198,-46.7155,-2.24842,0
66.8623,-46.6617,-2.24235,0
66.8035,-46.6093,-2.2361,0
66.7442,-46.5577,-2.22944,0
66.6844,-46.5067,-2.22232,0
66.6234,-46.457,-2.21504,0
66.5612,-46.4088,-2.20758,0
66.4978,-46.3621,-2.19997,0
66.4334,-46.3168,-2.19219,0
66.368,-46.2731,-2.18426,0
66.3015,-46.2309,-2.17618,0
66.2341,-46.1903,-2.16795,0
66.1657,-46.1512,-2.15958,0
66.0964,-46.1138,-2.15108,0
66.0262,-46.078,-2.14243,0
66.6006,-52.0631,-2.05859,0
66.6609,-52.0112,-2.06977,0
66.7198,-51.9578,-2.08089,0
66.7771,-51.9029,-2.09194,0
66.833,-51.8467,-2.10292,0
66.8873,-51.7891,-2.11381,0
66.9398,-51.7302,-2.12462,0
66.3992,-51.1216,-2.37369,174
66.4093,-51.0492,-2.39289,174
66.4572,-51.0111,-2.39656,174
66.589,-51.0405,-2.36877,174
67.1786,-51.4178,-2.177,0
67.2212,-51.3522,-2.1871,0
67.262,-51.2856,-2.19706,0
67.3011,-51.2181,-2.20688,0
67.3384,-51.1498,-2.21655,0
67.3739,-51.0807,-2.22606,0
67.4077,-51.0108,-2.23541,0
67.4384,-50.9397,-2.24492,0
67.4686,-50.8687,-2.25386,0
67.5028,-50.8,-2.26091,0
67.5369,-50.7313,-2.26736,0
67.5698,-50.662,-2.27344,0
67.6015,-50.592,-2.27932,0
67.6316,-50.5214,-2.28497,0
67.6602,-50.4502,-2.29039,0
67.6873,-50.3783,-2.2956,0
67.7128,-50.3059,-2.30055,0
67.7369,-50.2329,-2.30528,0
67.7595,-50.1594,-2.30978,0
67.7805,-50.0854,-2.31403,0
67.7998,-50.011,-2.31804,0
67.8178,-49.9362,-2.32182,0
67.8341,-49.8609,-2.32535,0
67.8488,-49.7853,-2.32864,0
67.862,-49.7094,-2.33168,0
67.8736,-49.6332,-2.33447,0
67.8835,-49.5566,-2.33702,0
67.8919,-49.4799,-2.33931,0
67.8986,-49.4029,-2.34135,0
67.9037,-49.3258,-2.34314,0
67.9073,-49.2485,-2.34467,0
67.9091,-49.1712,-2.34595,0
67.9095,-49.0937,-2.34697,0
67.9081,-49.0162,-2.34774,0
67.9051,-48.9386,-2.34824,0
67.9004,-48.8611,-2.34849,0
67.8941,-48.7837,-2.34847,0
67.8862,-48.7063,-2.34821,0
67.8766,-48.629,-2.34767,0
67.8655,-48.5519,-2.34687,0
67.8527,-48.475,-2.34582,0
67.8383,-48.3983,-2.34448,0
67.8227,-48.3216,-2.34275,0
67.8055,-48.2453,-2.34076,0
67.7868,-48.1692,-2.33851,0
67.7663,-48.0935,-2.33599,0
67.7428,-48.0186,-2.33358,0
67.7169,-47.9445,-2.33112,0
67.6893,-47.871,-2.32841,0
67.6602,-47.798,-2.32546,0
67.6293,-47.7257,-2.32225,0
67.597,-47.654,-2.31882,0
67.563,-47.583,-2.31511,0
67.5274,-47.5127,-2.31116,0
67.4904,-47.4431,-2.30697,0
67.4518,-47.3744,-2.30254,0
67.4116,-47.3064,-2.29787,0
67.3676,-47.241,-2.29367,0
67.322,-47.1765,-2.28928,0
67.275,-47.1132,-2.28468,0
67.2265,-47.051,-2.27989,0
67.1766,-46.9899,-2.27489,0
67.1253,-46.9301,-2.2697,0
67.0727,-46.8714,-2.26432,0
67.0187,-46.814,-2.25875,0
66.9634,-46.7579,-2.253,0
66.9069,-46.7031,-2.24706,0
66.849,-46.6497,-2.24095,0
66.7901,-46.5976,-2.23466,0
66.7307,-46.546,-2.22783,0
66.6705,-46.4952,-2.22068,0
66.6092,-46.4459,-2.21336,0
66.5468,-46.3981,-2.20587,0
66.4833,-46.3516,-2.19822,0
66.4187,-46.3067,-2.1904,0
66.353,-46.2633,-2.18243,0
66.2862,-46.2215,-2.17431,0
66.2186,-46.1812,-2.16606,0
66.15,-46.1426,-2.15765,0
66.0805,-46.1055,-2.14912,0
66.0102,-46.0701,-2.14045,0
66.5831,-51.9674,-2.06373,0
66.6413,-51.916,-2.07463,0
66.698,-51.8632,-2.08545,0
66.7532,-51.809,-2.0962,0
66.807,-51.7535,-2.10687,0
66.8592,-51.6967,-2.11746,0
66.3836,-51.1418,-2.34826,174
66.3897,-51.0652,-2.36985,174
66.4216,-51.0136,-2.37991,174
66.5152,-51.0137,-2.36551,174
67.0966,-51.3948,-2.16888,0
67.1391,-51.3313,-2.17882,0
67.1798,-51.2667,-2.18862,0
67.219,-51.2013,-2.19828,0
67.2564,-51.1351,-2.20781,0
67.292,-51.068,-2.21718,0
67.3258,-51.0002,-2.22639,0
67.3581,-50.9318,-2.23541,0
67.3916,-50.8645,-2.24328,0
67.4287,-50.799,-2.2494,0
67.4632,-50.7321,-2.25569,0
67.4962,-50.6645,-2.26176,0
67.5278,-50.5962,-2.26762,0
67.558,-50.5273,-2.27327,0
67.5867,-50.4577,-2.27868,0
67.6139,-50.3876,-2.28388,0
67.6396,-50.3168,-2.28884,0
67.6639,-50.2455,-2.29359,0
67.6866,-50.1737,-2.2981,0
67.7079,-50.1014,-2.30237,0
67.7277,-50.0286,-2.3064,0
67.7459,-49.9554,-2.31022,0
67.7626,-49.8818,-2.31379,0
67.7777,-49.8078,-2.31711,0
67.7913,-49.7335,-2.3202,0
67.8033,-49.6589,-2.32304,0
67.8138,-49.584,-2.32565,0
67.8227,-49.5089,-2.328,0
67.83,-49.4335,-2.33011,0
67.8357,-49.358,-2.33197,0
67.8398,-49.2823,-2.33358,0
67.8423,-49.2065,-2.33494,0
67.8434,-49.1306,-2.33606,0
67.8427,-49.0546,-2.33691,0
67.8404,-48.9786,-2.33751,0
67.8366,-48.9026,-2.33786,0
67.831,-48.8267,-2.33796,0
67.8241,-48.7508,-2.3378,0
67.8153,-48.675,-2.33739,0
67.805,-48.5994,-2.33672,0
67.7931,-48.5239,-2.33578,0
67.7795,-48.4486,-2.3346,0
67.7648,-48.3735,-2.33308,0
67.7486,-48.2986,-2.33124,0
67.7309,-48.2239,-2.32914,0
67.7115,-48.1495,-2.32678,0
67.6891,-48.076,-2.32451,0
67.6644,-48.0032,-2.32221,0
67.638,-47.9309,-2.31966,0
67.6102,-47.8592,-2.31687,0
67.5805,-47.7881,-2.31384,0
67.5495,-47.7176,-2.31055,0
67.517,-47.6477,-2.30704,0
67.4828,-47.5786,-2.30328,0
67.4471,-47.5101,-2.29927,0
67.4098,-47.4425,-2.29506,0
67.3689,-47.377,-2.29126,0
67.3265,-47.3125,-2.28725,0
67.2826,-47.249,-2.28304,0
67.2372,-47.1865,-2.27863,0
67.1905,-47.1251,-2.27403,0
67.1423,-47.0648,-2.26924,0
67.0927,-47.0057,-2.26424,0
67.0418,-46.9478,-2.25906,0
66.9895,-46.8911,-2.25369,0
66.936,-46.8356,-2.24815,0
66.8812,-46.7814,-2.24242,0
66.8252,-46.7285,-2.23651,0
66.768,-46.6769,-2.23044,0
66.7098,-46.6265,-2.22411,0
66.6516,-46.5762,-2.21719,0
66.592,-46.5274,-2.21009,0
66.5314,-46.4799,-2.20284,0
66.4698,-46.4339,-2.19542,0
66.407,-46.3893,-2.18784,0
66.3432,-46.3462,-2.18011,0
66.2784,-46.3046,-2.17224,0
66.2126,-46.2645,-2.16422,0
66.1459,-46.226,-2.15606,0
66.0783,-46.189,-2.14777,0
66.0098,-46.1536,-2.13934,0
66.5372,-52.0061,-2.05529,0
66.5964,-51.9558,-2.06622,0
66.6543,-51.9041,-2.07709,0
66.7106,-51.851,-2.0879,0
66.7656,-51.7965,-2.09863,0
66.819,-51.7407,-2.10929,0
66.5183,-51.3392,-2.27088,174
66.385,-51.1242,-2.35327,174
66.3956,-51.0523,-2.37272,174
66.4377,-51.0096,-2.37861,174
66.5465,-51.0213,-2.35851,174
67.1063,-51.3804,-2.17116,0
67.1485,-51.3167,-2.18107,0
67.1889,-51.2519,-2.19083,0
67.2277,-51.1863,-2.20047,0
67.2646,-51.1199,-2.20994,0
67.2998,-51.0527,-2.21928,0
67.3333,-50.9847,-2.22846,0
67.3653,-50.9163,-2.23739,0
67.4005,-50.8498,-2.24461,0
67.4367,-50.7838,-2.25085,0
67.4708,-50.7168,-2.25709,0
67.5035,-50.649,-2.26312,0
67.5348,-50.5806,-2.26893,0
67.5646,-50.5115,-2.27452,0
67.593,-50.4418,-2.27989,0
67.6198,-50.3715,-2.28503,0
67.6452,-50.3006,-2.28994,0
67.6692,-50.2292,-2.29463,0
67.6916,-50.1573,-2.29908,0
67.7126,-50.0848,-2.30331,0
67.7319,-50.012,-2.3073,0
67.7498,-49.9387,-2.31105,0
67.7661,-49.865,-2.31456,0
67.781,-49.7909,-2.31783,0
67.7941,-49.7166,-2.32087,0
67.8059,-49.6419,-2.32366,0
67.8159,-49.5669,-2.3262,0
67.8245,-49.4917,-2.3285,0
67.8314,-49.4163,-2.33055,0
67.8368,-49.3408,-2.33236,0
67.8405,-49.265,-2.33391,0
67.8427,-49.1892,-2.33522,0
67.8434,-49.1133,-2.33627,0
67.8423,-49.0373,-2.33707,0
67.8396,-48.9613,-2.33762,0
67.8354,-48.8853,-2.33791,0
67.8296,-48.8094,-2.33795,0
67.8222,-48.7335,-2.33773,0
67.8131,-48.6578,-2.33726,0
67.8025,-48.5822,-2.33652,0
67.7902,-48.5067,-2.33554,0
67.7763,-48.4315,-2.33429,0
67.7612,-48.3564,-2.33269,0
67.7447,-48.2816,-2.33078,0
67.7266,-48.207,-2.32862,0
67.7068,-48.1327,-2.32621,0
67.6837,-48.0594,-2.32401,0
67.6585,-47.9867,-2.32165,0
67.6319,-47.9146,-2.31905,0
67.6035,-47.843,-2.3162,0
67.5737,-47.772,-2.31311,0
67.5423,-47.7016,-2.30978,0
67.5093,-47.6319,-2.3062,0
67.4748,-47.5629,-2.30239,0
67.4388,-47.4946,-2.29833,0
67.4007,-47.4275,-2.29422,0
67.3594,-47.3622,-2.29037,0
67.3166,-47.2979,-2.28631,0
67.2724,-47.2346,-2.28206,0
67.2267,-47.1724,-2.27761,0
67.1796,-47.1113,-2.27295,0
67.1311,-47.0513,-2.26811,0
67.0812,-46.9924,-2.26308,0
67.03,-46.9348,-2.25786,0
66.9775,-46.8783,-2.25245,0
66.9237,-46.8231,-2.24685,0
66.8686,-46.7692,-2.2411,0
66.8123,-46.7166,-2.23514,0
66.7548,-46.6654,-2.22903,0
66.6967,-46.6149,-2.22255,0
66.6381,-46.565,-2.21559,0
66.5784,-46.5165,-2.20846,0
66.5175,-46.4693,-2.20117,0
66.4555,-46.4236,-2.19371,0
66.3926,-46.3794,-2.1861,0
66.3284,-46.3366,-2.17834,0
66.2635,-46.2953,-2.17043,0
66.1974,-46.2556,-2.16238,0
66.1305,-46.2174,-2.15419,0
66.0628,-46.1808,-2.14586,0
65.9941,-46.1458,-2.1374,0
66.5508,-51.9947,-2.05779,0
66.6097,-51.9442,-2.0687,0
66.6673,-51.8922,-2.07956,0
66.7234,-51.8387,-2.09034,0
66.7779,-51.7839,-2.10107,0
66.8309,-51.7278,-2.1117,0
66.4775,-51.2788,-2.29455,174
