45.7141,-40.5158,0.140687,0
45.8331,-40.4932,0.133753,0
45.9513,-40.468,0.126898,0
46.0688,-40.4402,0.120101,0
46.1854,-40.4097,0.113382,0
46.3011,-40.3767,0.106741,0
46.4159,-40.3411,0.100189,0
46.5295,-40.303,0.0937141,0
46.6423,-40.2623,0.0873371,0
46.7538,-40.2192,0.0810383,0
46.8642,-40.1737,0.0748371,0
46.9734,-40.1258,0.0687238,0
47.0812,-40.0756,0.0627277,0
47.1879,-40.023,0.0568195,0
47.293,-39.9681,0.0510188,0
47.3969,-39.911,0.0453156,0
47.4993,-39.8516,0.0397297,0
47.6002,-39.7901,0.0342609,0
47.6983,-39.7242,0.028343,0
47.7935,-39.6545,0.0220734,0
47.887,-39.5829,0.0159602,0
47.9787,-39.5094,0.0099836,0
48.0687,-39.4342,0.00415352,0
48.1568,-39.3573,-0.00152031,0
48.243,-39.2787,-0.00705742,0
48.3274,-39.1984,-0.0124285,0
48.4098,-39.1166,-0.0176531,0
48.4904,-39.0332,-0.0227215,0
48.569,-38.9483,-0.0276238,0
48.6456,-38.862,-0.0323699,0
48.7202,-38.7742,-0.0369793,0
48.7929,-38.6851,-0.0414031,0
48.8634,-38.5946,-0.0456902,0
48.9327,-38.5035,-0.049616,0
49.0017,-38.4125,-0.052907,0
49.0687,-38.3202,-0.056032,0
49.1338,-38.2267,-0.058991,0
49.1968,-38.132,-0.0617742,0
49.2579,-38.0361,-0.0644012,0
49.317,-37.939,-0.0668523,0
49.3739,-37.8409,-0.0691375,0
49.4289,-37.7416,-0.0712469,0
49.4818,-37.6414,-0.0731902,0
49.5325,-37.5401,-0.0749676,0
49.5811,-37.438,-0.0765594,0
49.6277,-37.3349,-0.0779852,0
49.6721,-37.2309,-0.0792449,0
49.7144,-37.1261,-0.0803387,0
49.7545,-37.0205,-0.0812469,0
49.7924,-36.9141,-0.0819891,0
49.8282,-36.807,-0.0825555,0
49.8617,-36.6992,-0.0829461,0
49.8931,-36.5908,-0.0831707,0
49.9223,-36.4817,-0.0832293,0
49.9492,-36.3721,-0.0831023,0
49.9739,-36.2619,-0.0828094,0
49.9954,-36.1511,-0.0825555,0
50.0126,-36.0395,-0.0825262,0
50.0284,-35.9278,-0.082116,0
50.042,-35.8158,-0.0815594,0
50.0533,-35.7036,-0.0808465,0
50.0621,-35.5911,-0.0799773,0
42.3577,-39.5896,0.302161,0
42.4548,-39.6571,0.298568,0
42.5536,-39.7223,0.294925,0
42.6539,-39.7854,0.291234,0
42.7567,-39.8444,0.286995,0
42.8617,-39.8993,0.282171,0
42.968,-39.9517,0.277298,0
43.0755,-40.0015,0.272376,0
43.1843,-40.0488,0.267415,0
43.2941,-40.0935,0.262415,0
43.405,-40.1356,0.257366,0
43.5168,-40.1751,0.252288,0
43.63,-40.2103,0.246741,0
43.7441,-40.2426,0.241126,0
43.8588,-40.2723,0.235501,0
43.9742,-40.2992,0.229857,0
44.0902,-40.3234,0.224202,0
44.2066,-40.3449,0.218548,0
44.3234,-40.3636,0.212884,0
44.4407,-40.3796,0.20723,0
44.5582,-40.3928,0.201575,0
44.676,-40.4033,0.195911,0
44.7939,-40.411,0.190277,0
44.912,-40.4159,0.184642,0
45.0301,-40.4181,0.179017,0
45.1481,-40.4175,0.173431,0
45.2659,-40.4107,0.167034,0
45.3834,-40.4002,0.160413,0
45.5005,-40.3869,0.153831,0
45.6171,-40.371,0.147298,0
45.7331,-40.3524,0.140814,0
45.8485,-40.331,0.134368,0
45.963,-40.306,0.127728,0
46.0769,-40.2784,0.121146,0
46.1898,-40.2483,0.114652,0
46.3019,-40.2157,0.108226,0
46.413,-40.1807,0.101878,0
46.5231,-40.1431,0.0956184,0
46.6323,-40.1032,0.0894367,0
46.7402,-40.0608,0.0833527,0
46.8471,-40.0162,0.0773566,0
46.9528,-39.9691,0.0714484,0
47.0573,-39.9199,0.0656477,0
47.1605,-39.8683,0.0599348,0
47.2623,-39.8145,0.0543293,0
47.3627,-39.7586,0.0488215,0
47.4618,-39.7005,0.0434211,0
47.5595,-39.6403,0.0381281,0
47.6554,-39.5777,0.0328547,0
47.7476,-39.5096,0.0267902,0
47.8381,-39.4397,0.0208723,0
47.9269,-39.3681,0.015091,0
48.0139,-39.2947,0.00945625,0
48.0992,-39.2197,0.00396797,0
48.1827,-39.143,-0.00137383,0
48.2643,-39.0648,-0.00656914,0
48.3441,-38.9849,-0.0116082,0
48.422,-38.9036,-0.0165105,0
48.498,-38.8208,-0.0212566,0
48.572,-38.7366,-0.0258465,0
48.6442,-38.6511,-0.0302801,0
48.7144,-38.5641,-0.0345574,0
48.784,-38.4771,-0.0382977,0
48.8526,-38.3896,-0.041618,0
48.9192,-38.3007,-0.0447918,0
48.984,-38.2106,-0.0477898,0
49.0468,-38.1193,-0.0506316,0
49.1077,-38.0268,-0.0532977,0
49.1666,-37.9332,-0.0558074,0
49.2235,-37.8384,-0.0581512,0
49.2785,-37.7426,-0.0603289,0
49.3314,-37.6458,-0.0623406,0
49.3823,-37.5479,-0.0641863,0
49.4312,-37.4491,-0.0658562,0
49.4779,-37.3494,-0.0673797,0
49.5227,-37.2488,-0.0687176,0
49.5653,-37.1474,-0.0698894,0
49.6059,-37.0451,-0.0709051,0
49.6443,-36.9421,-0.0717449,0
49.6805,-36.8383,-0.072409,0
49.7148,-36.7338,-0.0729168,0
49.7468,-36.6287,-0.0732488,0
49.7767,-36.5229,-0.0734246,0
49.8044,-36.4166,-0.0734148,0
49.8287,-36.3095,-0.0735125,0
49.8491,-36.2015,-0.0737957,0
49.8673,-36.0932,-0.0739129,0
49.8841,-35.9848,-0.0737078,0
49.8988,-35.8761,-0.0732586,0
49.9113,-35.767,-0.0726824,0
49.9216,-35.6578,-0.0719402,0
42.3429,-39.579,0.302708,0
42.4398,-39.6468,0.299124,0
42.5383,-39.7124,0.295482,0
42.6384,-39.7758,0.29181,0
42.7406,-39.8358,0.287737,0
42.8455,-39.891,0.282913,0
42.9516,-39.9438,0.27805,0
43.059,-39.994,0.273128,0
43.1675,-40.0417,0.268177,0
43.2772,-40.0868,0.263187,0
43.3878,-40.1293,0.258157,0
43.4995,-40.1692,0.253079,0
43.6125,-40.2051,0.247611,0
43.7265,-40.2378,0.241995,0
43.8411,-40.2679,0.23637,0
43.9564,-40.2952,0.230726,0
44.0723,-40.3199,0.225071,0
44.1886,-40.3417,0.219417,0
44.3054,-40.3609,0.213753,0
44.4227,-40.3773,0.208089,0
44.5402,-40.3909,0.202435,0
44.6579,-40.4018,0.19678,0
44.7758,-40.41,0.191136,0
44.8938,-40.4153,0.185501,0
45.0119,-40.4179,0.179886,0
45.1299,-40.4177,0.17428,0
45.2479,-40.4121,0.16806,0
45.3654,-40.402,0.161429,0
45.4825,-40.3891,0.154847,0
45.5992,-40.3736,0.148294,0
45.7153,-40.3554,0.14181,0
45.8309,-40.3345,0.135364,0
45.9455,-40.31,0.128734,0
46.0594,-40.2829,0.122152,0
46.1725,-40.2531,0.115648,0
46.2847,-40.2209,0.109212,0
46.3959,-40.1862,0.102845,0
46.5062,-40.1491,0.0965754,0
46.6155,-40.1095,0.090384,0
46.7237,-40.0675,0.0842902,0
46.8308,-40.0232,0.0782746,0
46.9366,-39.9765,0.0723566,0
47.0412,-39.9276,0.0665363,0
47.1446,-39.8764,0.0608137,0
47.2467,-39.823,0.0551789,0
47.3473,-39.7674,0.0496613,0
47.4466,-39.7096,0.0442414,0
47.5445,-39.6497,0.0389289,0
47.6409,-39.5878,0.0337336,0
47.7334,-39.5202,0.027718,0
47.8242,-39.4506,0.0217707,0
47.9134,-39.3792,0.0159797,0
48.0007,-39.3061,0.0103156,0
48.0862,-39.2313,0.00479805,0
48.1699,-39.1549,-0.000563278,0
48.2518,-39.0769,-0.00577812,0
48.3319,-38.9973,-0.0108465,0
48.4101,-38.9162,-0.0157684,0
48.4864,-38.8337,-0.020534,0
48.5608,-38.7497,-0.0251434,0
48.6333,-38.6643,-0.0296062,0
48.7038,-38.5776,-0.0339129,0
48.7733,-38.4905,-0.0377703,0
48.8421,-38.4031,-0.0411199,0
48.9091,-38.3145,-0.0443035,0
48.9741,-38.2246,-0.0473309,0
49.0373,-38.1334,-0.0502019,0
49.0984,-38.0411,-0.052907,0
49.1577,-37.9477,-0.0554363,0
49.2149,-37.8531,-0.0577996,0
49.2702,-37.7574,-0.0600066,0
49.3234,-37.6607,-0.0620477,0
49.3746,-37.5631,-0.0639129,0
49.4237,-37.4644,-0.0656121,0
49.4709,-37.3648,-0.0671551,0
49.5159,-37.2644,-0.0685223,0
49.5589,-37.163,-0.0697234,0
49.5998,-37.0609,-0.0707586,0
49.6385,-36.958,-0.0716277,0
49.6752,-36.8543,-0.0723211,0
49.7097,-36.75,-0.0728484,0
49.742,-36.6449,-0.0732195,0
49.7722,-36.5393,-0.0734051,0
49.8002,-36.433,-0.0734246,0
49.8253,-36.326,-0.0734637,0
49.8462,-36.2182,-0.0737566,0
49.8647,-36.1099,-0.0738934,0
49.8816,-36.0015,-0.0737566,0
49.8967,-35.8928,-0.0733367,0
49.9096,-35.7838,-0.0727801,0
49.9202,-35.6746,-0.0720574,0
42.3281,-39.5684,0.303255,0
42.4248,-39.6365,0.299681,0
42.523,-39.7025,0.296048,0
42.6229,-39.7662,0.292366,0
42.7247,-39.827,0.28847,0
42.8292,-39.8827,0.283655,0
42.9352,-39.9358,0.278802,0
43.0423,-39.9864,0.27389,0
43.1507,-40.0345,0.268948,0
43.2602,-40.08,0.263958,0
43.3707,-40.1229,0.258919,0
43.4823,-40.1632,0.253861,0
43.5951,-40.1998,0.24847,0
43.7089,-40.233,0.242864,0
43.8234,-40.2634,0.237239,0
43.9386,-40.2912,0.231595,0
44.0545,-40.3162,0.225941,0
44.1707,-40.3386,0.220296,0
44.2874,-40.3581,0.214622,0
44.4045,-40.3749,0.208958,0
44.522,-40.389,0.203304,0
44.6398,-40.4003,0.19765,0
44.7577,-40.4089,0.192005,0
44.8756,-40.4147,0.18637,0
44.9937,-40.4177,0.180745,0
45.1118,-40.4179,0.17515,0
45.2298,-40.4134,0.169075,0
45.3473,-40.4037,0.162445,0
45.4645,-40.3913,0.155853,0
45.5812,-40.3762,0.1493,0
45.6975,-40.3584,0.142806,0
45.813,-40.3379,0.136351,0
45.9279,-40.314,0.129759,0
46.0419,-40.2872,0.123167,0
46.1552,-40.2579,0.116644,0
46.2674,-40.226,0.110189,0
46.3789,-40.1917,0.103821,0
46.4894,-40.1549,0.0975422,0
46.5987,-40.1157,0.0913313,0
46.7071,-40.0741,0.0852277,0
46.8144,-40.0302,0.0791926,0
46.9204,-39.9839,0.0732551,0
47.0252,-39.9353,0.067425,0
47.1287,-39.8844,0.0616828,0
47.2311,-39.8313,0.0560383,0
47.332,-39.7761,0.0505012,0
47.4315,-39.7186,0.0450715,0
47.5295,-39.659,0.0397395,0
47.6261,-39.5974,0.0345246,0
47.7194,-39.5308,0.0286457,0
47.8104,-39.4615,0.0226789,0
47.8997,-39.3903,0.0168586,0
47.9873,-39.3175,0.011175,0
48.0731,-39.243,0.00564766,0
48.1571,-39.1668,0.000257034,0
48.2394,-39.089,-0.00498711,0
48.3197,-39.0097,-0.0100848,0
48.3981,-38.9288,-0.0150164,0
48.4748,-38.8465,-0.0198113,0
48.5495,-38.7627,-0.0244402,0
48.6223,-38.6775,-0.0289324,0
48.693,-38.591,-0.0332586,0
48.7625,-38.5038,-0.037243,0
48.8317,-38.4167,-0.0406121,0
48.8989,-38.3282,-0.0438348,0
48.9642,-38.2385,-0.0468719,0
49.0277,-38.1476,-0.0497723,0
49.0891,-38.0554,-0.0524969,0
49.1488,-37.9621,-0.0550555,0
49.2062,-37.8677,-0.057448,0
49.2618,-37.7722,-0.0596746,0
49.3154,-37.6757,-0.0617352,0
49.3669,-37.5782,-0.0636297,0
49.4163,-37.4796,-0.065368,0
49.4637,-37.3802,-0.0669305,0
49.5091,-37.2799,-0.0683172,0
49.5524,-37.1787,-0.0695477,0
49.5936,-37.0767,-0.0706121,0
49.6327,-36.9738,-0.0715105,0
49.6696,-36.8703,-0.0722234,0
49.7045,-36.7661,-0.0727801,0
49.7372,-36.6611,-0.0731707,0
49.7677,-36.5556,-0.0733855,0
49.7961,-36.4494,-0.0734344,0
49.822,-36.3426,-0.0734051,0
49.8431,-36.2348,-0.0737273,0
49.862,-36.1266,-0.0738836,0
49.879,-36.0182,-0.0738055,0
49.8945,-35.9095,-0.0734148,0
49.9077,-35.8006,-0.0728777,0
49.9187,-35.6915,-0.0721844,0
49.9273,-35.5821,-0.0713445,0
42.4395,-39.4632,0.29971,0
42.5339,-39.5286,0.296224,0
42.6298,-39.5918,0.292679,0
42.7277,-39.6522,0.28889,0
42.8284,-39.7078,0.284251,0
42.9302,-39.761,0.279573,0
43.0334,-39.8117,0.274847,0
43.1377,-39.8601,0.270081,0
43.2432,-39.9059,0.265257,0
43.3498,-39.9493,0.260404,0
43.4573,-39.9901,0.255511,0
43.5658,-40.0284,0.250589,0
43.6753,-40.0637,0.24553,0
43.7859,-40.0952,0.240081,0
43.8973,-40.124,0.234622,0
44.0093,-40.1501,0.229144,0
44.1217,-40.1737,0.223655,0
44.2347,-40.1945,0.218167,0
44.3482,-40.2128,0.212669,0
44.462,-40.2283,0.207181,0
44.5759,-40.2412,0.201683,0
44.6902,-40.2514,0.196195,0
44.8047,-40.2589,0.190716,0
44.9193,-40.2638,0.185257,0
45.0339,-40.2659,0.179798,0
45.1484,-40.2654,0.174368,0
45.2628,-40.2591,0.168167,0
45.3769,-40.249,0.161741,0
45.4905,-40.2364,0.155355,0
45.6037,-40.2211,0.149007,0
45.7163,-40.2032,0.142708,0
45.8284,-40.1827,0.136468,0
45.9397,-40.1597,0.130277,0
46.0505,-40.1341,0.124105,0
46.1602,-40.105,0.117786,0
46.2691,-40.0736,0.111536,0
46.3771,-40.0397,0.105374,0
46.4841,-40.0034,0.0992805,0
46.5902,-39.9649,0.0932844,0
46.6951,-39.9239,0.0873566,0
46.799,-39.8807,0.0815363,0
46.9018,-39.8352,0.0757844,0
47.0034,-39.7875,0.0701398,0
47.1037,-39.7376,0.0645832,0
47.2027,-39.6856,0.059134,0
47.3004,-39.6314,0.0537727,0
47.3967,-39.5751,0.0485188,0
47.4917,-39.5168,0.0433723,0
47.5852,-39.4564,0.0383234,0
47.6765,-39.393,0.0330695,0
47.7647,-39.3252,0.0272981,0
47.8512,-39.2558,0.0216633,0
47.9361,-39.1847,0.0161652,0
48.0191,-39.1119,0.0108137,0
48.1005,-39.0375,0.00559883,0
48.1801,-38.9616,0.000530472,0
48.2578,-38.8841,-0.0043914,0
48.3337,-38.8052,-0.00916679,0
48.408,-38.7248,-0.0137957,0
48.4802,-38.6431,-0.0182684,0
48.5505,-38.56,-0.0226043,0
48.6204,-38.4768,-0.0263836,0
48.6891,-38.3929,-0.0298016,0
48.7559,-38.3077,-0.033034,0
48.821,-38.2213,-0.0361297,0
48.8841,-38.1336,-0.0390691,0
48.9454,-38.0448,-0.041823,0
49.0048,-37.9547,-0.04445,0
49.0623,-37.8636,-0.0468914,0
49.1177,-37.7714,-0.0491863,0
49.1713,-37.6781,-0.0513152,0
49.223,-37.5838,-0.0532781,0
49.2726,-37.4886,-0.055075,0
49.3202,-37.3924,-0.0567156,0
49.3659,-37.2953,-0.0581902,0
49.4095,-37.1973,-0.0595086,0
49.4511,-37.0985,-0.0606512,0
49.4905,-36.9989,-0.0616473,0
49.528,-36.8985,-0.0624676,0
49.5635,-36.7975,-0.0631219,0
49.5967,-36.6957,-0.0636102,0
49.628,-36.5933,-0.0639422,0
49.6562,-36.49,-0.064323,0
49.6806,-36.3859,-0.0648699,0
49.7029,-36.2813,-0.0652898,0
49.7229,-36.1762,-0.0655633,0
49.7406,-36.0709,-0.0656805,0
49.7572,-35.9654,-0.0654363,0
49.7716,-35.8596,-0.0650066,0
49.7837,-35.7535,-0.0644305,0
49.7937,-35.6472,-0.0637176,0
42.4251,-39.4529,0.300247,0
42.5193,-39.5187,0.296771,0
42.6149,-39.5822,0.293226,0
42.7123,-39.6434,0.289593,0
42.8127,-39.6994,0.284974,0
42.9145,-39.7529,0.280296,0
43.0174,-39.8041,0.275579,0
43.1216,-39.8528,0.270814,0
43.2269,-39.899,0.266009,0
43.3333,-39.9428,0.261155,0
43.4407,-39.984,0.256273,0
43.5491,-40.0227,0.251351,0
43.6584,-40.0587,0.246361,0
43.7689,-40.0905,0.240911,0
43.8801,-40.1197,0.235462,0
43.992,-40.1463,0.229984,0
44.1045,-40.1702,0.224505,0
44.2173,-40.1915,0.219017,0
44.3307,-40.2101,0.213509,0
44.4444,-40.2261,0.208011,0
44.5584,-40.2394,0.202532,0
44.6727,-40.25,0.197044,0
44.787,-40.258,0.191566,0
44.9016,-40.2632,0.186087,0
45.0163,-40.2658,0.180648,0
45.1308,-40.2657,0.175208,0
45.2452,-40.2604,0.169163,0
45.3593,-40.2508,0.162738,0
45.473,-40.2385,0.156341,0
45.5863,-40.2236,0.149984,0
45.699,-40.2061,0.143685,0
45.8112,-40.186,0.137425,0
45.9227,-40.1634,0.131214,0
46.0334,-40.1383,0.125071,0
46.1434,-40.1097,0.118753,0
46.2523,-40.0786,0.112503,0
46.3605,-40.0451,0.106321,0
46.4677,-40.0092,0.100218,0
46.5739,-39.9709,0.0942023,0
46.6791,-39.9304,0.0882648,0
46.7831,-39.8875,0.082425,0
46.8861,-39.8424,0.0766633,0
46.9878,-39.795,0.0709992,0
47.0883,-39.7455,0.0654328,0
47.1875,-39.6937,0.0599641,0
47.2855,-39.6399,0.054593,0
47.382,-39.5839,0.0493195,0
47.4772,-39.5259,0.0441535,0
47.5709,-39.4659,0.0390949,0
47.6627,-39.4032,0.033968,0
47.7512,-39.3358,0.028177,0
47.838,-39.2666,0.0225227,0
47.9231,-39.1957,0.0170051,0
48.0065,-39.1232,0.011634,0
48.088,-39.0491,0.00639961,0
48.1679,-38.9734,0.00130196,0
48.246,-38.8962,-0.00363945,0
48.3223,-38.8175,-0.00843437,0
48.3966,-38.7373,-0.0130926,0
48.4692,-38.6558,-0.0175945,0
48.5398,-38.5728,-0.0219402,0
48.6097,-38.4895,-0.0258562,0
48.6786,-38.4059,-0.029284,0
48.7457,-38.3209,-0.0325555,0
48.811,-38.2347,-0.0356707,0
48.8745,-38.1472,-0.0386199,0
48.9361,-38.0585,-0.0414129,0
48.9958,-37.9687,-0.0440496,0
49.0535,-37.8777,-0.0465301,0
49.1094,-37.7856,-0.0488445,0
49.1632,-37.6925,-0.050993,0
49.2152,-37.5984,-0.0529852,0
49.2651,-37.5033,-0.0548113,0
49.313,-37.4072,-0.0564715,0
49.359,-37.3103,-0.0579754,0
49.4029,-37.2124,-0.0593133,0
49.4448,-37.1137,-0.0604852,0
49.4846,-37.0143,-0.0615105,0
49.5224,-36.914,-0.0623504,0
49.5581,-36.8131,-0.063034,0
49.5918,-36.7114,-0.0635516,0
49.6233,-36.6091,-0.0639031,0
49.6522,-36.506,-0.0642156,0
49.677,-36.4019,-0.0648016,0
49.6996,-36.2974,-0.065241,0
49.7199,-36.1924,-0.065534,0
49.738,-36.0871,-0.0656707,0
49.7547,-35.9816,-0.0654851,0
49.7695,-35.8759,-0.0650848,0
49.782,-35.7698,-0.0645281,0
49.7923,-35.6636,-0.0638348,0
42.4108,-39.4426,0.300775,0
42.5047,-39.5087,0.297308,0
42.6002,-39.5726,0.293773,0
42.6971,-39.6343,0.290208,0
42.7972,-39.6909,0.285687,0
42.8988,-39.7448,0.281019,0
43.0015,-39.7964,0.276302,0
43.1055,-39.8455,0.271546,0
43.2106,-39.8921,0.266751,0
43.3168,-39.9362,0.261907,0
43.4241,-39.9778,0.257025,0
43.5323,-40.0169,0.252113,0
43.6414,-40.0534,0.247161,0
43.7519,-40.0858,0.241761,0
43.863,-40.1154,0.236292,0
43.9748,-40.1424,0.230833,0
44.0871,-40.1667,0.225345,0
44.1999,-40.1884,0.219857,0
44.3132,-40.2075,0.214359,0
44.4269,-40.2238,0.20887,0
44.5408,-40.2375,0.203372,0
44.655,-40.2486,0.197884,0
44.7695,-40.2569,0.192405,0
44.884,-40.2626,0.186937,0
44.9986,-40.2656,0.181478,0
45.1131,-40.2659,0.176048,0
45.2277,-40.2616,0.17015,0
45.3418,-40.2524,0.163724,0
45.4555,-40.2405,0.157318,0
45.5688,-40.2261,0.15096,0
45.6817,-40.209,0.144642,0
45.7939,-40.1893,0.138382,0
45.9055,-40.1671,0.132171,0
46.0165,-40.1423,0.126009,0
46.1265,-40.1142,0.11973,0
46.2356,-40.0835,0.11346,0
46.3439,-40.0504,0.107269,0
46.4512,-40.0149,0.101146,0
46.5576,-39.977,0.0951203,0
46.6629,-39.9368,0.0891828,0
46.7672,-39.8943,0.0833137,0
46.8702,-39.8495,0.0775422,0
46.9722,-39.8025,0.0718684,0
47.0729,-39.7532,0.0662824,0
47.1723,-39.7018,0.0607941,0
47.2705,-39.6483,0.0554133,0
47.3673,-39.5927,0.0501203,0
47.4627,-39.535,0.0449445,0
47.5566,-39.4752,0.0398566,0
47.6491,-39.4134,0.0348762,0
47.7377,-39.3463,0.0290559,0
47.8248,-39.2773,0.023382,0
47.9102,-39.2067,0.0178449,0
47.9937,-39.1345,0.0124445,0
48.0756,-39.0606,0.00719063,0
48.1558,-38.9851,0.00207344,0
48.2341,-38.9081,-0.0028875,0
48.3106,-38.8297,-0.00771172,0
48.3853,-38.7497,-0.0123894,0
48.4582,-38.6684,-0.0169109,0
48.5291,-38.5857,-0.0212859,0
48.5988,-38.5023,-0.0253094,0
48.668,-38.4188,-0.0287664,0
48.7355,-38.3341,-0.0320574,0
48.8012,-38.248,-0.0352019,0
48.8648,-38.1607,-0.0381805,0
48.9268,-38.0722,-0.040993,0
48.9867,-37.9826,-0.043659,0
49.0448,-37.8918,-0.046159,0
49.1009,-37.7999,-0.048493,0
49.1551,-37.7069,-0.0506707,0
49.2073,-37.6129,-0.0526922,0
49.2575,-37.518,-0.0545379,0
49.3058,-37.4221,-0.0562273,0
49.3521,-37.3252,-0.0577605,0
49.3962,-37.2275,-0.059118,0
49.4385,-37.129,-0.0603289,0
49.4787,-37.0296,-0.0613641,0
49.5167,-36.9295,-0.0622332,0
49.5528,-36.8287,-0.0629363,0
49.5867,-36.7271,-0.0634832,0
49.6186,-36.6249,-0.0638543,0
49.6481,-36.522,-0.064118,0
49.6734,-36.418,-0.0647234,0
49.6962,-36.3135,-0.0651824,0
49.717,-36.2086,-0.0654949,0
49.7354,-36.1033,-0.0656609,0
49.7523,-35.9979,-0.0655242,0
49.7673,-35.8922,-0.0651531,0
49.7802,-35.7862,-0.0646258,0
49.7909,-35.68,-0.0639519,0
49.7991,-35.5735,-0.0631316,0
42.517,-39.3435,0.297386,0
42.6087,-39.4069,0.294007,0
42.702,-39.4683,0.29057,0
42.7984,-39.5246,0.286155,0
42.896,-39.5785,0.281663,0
42.995,-39.6302,0.277122,0
43.0952,-39.6794,0.272523,0
43.1965,-39.7264,0.267894,0
43.2989,-39.7709,0.263226,0
43.4024,-39.813,0.258509,0
43.5068,-39.8526,0.253763,0
43.6122,-39.8897,0.248978,0
43.7184,-39.9244,0.244163,0
43.8256,-39.9556,0.239075,0
43.9338,-39.9837,0.233773,0
44.0424,-40.0091,0.22846,0
44.1517,-40.032,0.223138,0
44.2614,-40.0523,0.217796,0
44.3715,-40.0701,0.212464,0
44.482,-40.0853,0.207132,0
44.5927,-40.0978,0.2018,0
44.7038,-40.1078,0.196468,0
44.8148,-40.1151,0.191146,0
44.9262,-40.1199,0.185833,0
45.0374,-40.1221,0.18055,0
45.1488,-40.1216,0.175277,0
45.2598,-40.1156,0.169251,0
45.3706,-40.106,0.163001,0
45.481,-40.0939,0.1568,0
45.5909,-40.0792,0.150628,0
45.7003,-40.062,0.144515,0
45.8092,-40.0423,0.138441,0
45.9175,-40.0201,0.132415,0
46.0251,-39.9954,0.126448,0
46.1319,-39.9684,0.12054,0
46.238,-39.9388,0.114681,0
46.343,-39.9061,0.108695,0
46.4471,-39.8711,0.102767,0
46.5502,-39.8337,0.096927,0
46.6523,-39.7941,0.0911652,0
46.7534,-39.7523,0.0854914,0
46.8534,-39.7083,0.0799055,0
46.9522,-39.6621,0.0743977,0
47.0498,-39.6137,0.0689973,0
47.1462,-39.5633,0.0636848,0
47.2412,-39.5107,0.0584699,0
47.3351,-39.4562,0.0533527,0
47.4275,-39.3996,0.048343,0
47.5185,-39.3411,0.0434211,0
47.608,-39.2806,0.0386164,0
47.6949,-39.2164,0.0334016,0
47.7793,-39.1491,0.0279133,0
47.862,-39.0801,0.0225422,0
47.943,-39.0094,0.0173176,0
48.0224,-38.9372,0.0122297,0
48.1,-38.8635,0.00728828,0
48.1759,-38.7883,0.0024836,0
48.25,-38.7116,-0.00218437,0
48.3223,-38.6336,-0.00669609,0
48.3928,-38.5541,-0.0110711,0
48.4628,-38.4746,-0.0148894,0
48.5316,-38.3943,-0.018366,0
48.5987,-38.3127,-0.0216961,0
48.6638,-38.2298,-0.0248699,0
48.7273,-38.1456,-0.0278875,0
48.789,-38.0602,-0.0307586,0
48.8488,-37.9737,-0.0334539,0
48.9067,-37.8861,-0.0360027,0
48.9628,-37.7973,-0.0384051,0
49.017,-37.7075,-0.0406414,0
49.0693,-37.6166,-0.0427215,0
49.1196,-37.5248,-0.0446453,0
49.1681,-37.432,-0.0464031,0
49.2145,-37.3383,-0.0480047,0
49.2591,-37.2437,-0.0494402,0
49.3016,-37.1482,-0.0507293,0
49.3422,-37.0519,-0.0518523,0
49.3808,-36.9549,-0.0528191,0
49.4173,-36.8571,-0.0536297,0
49.4518,-36.7586,-0.0542644,0
49.4833,-36.6591,-0.0549871,0
49.5116,-36.5586,-0.0558172,0
49.5377,-36.4577,-0.0565105,0
49.5615,-36.3563,-0.0570574,0
49.5832,-36.2544,-0.0574676,0
49.6027,-36.1522,-0.057741,0
49.6202,-36.0496,-0.0578289,0
49.6364,-35.9469,-0.0575555,0
49.6505,-35.8439,-0.0571453,0
49.6623,-35.7406,-0.0565984,0
49.672,-35.6371,-0.0558953,0
42.503,-39.3336,0.297913,0
42.5945,-39.3973,0.294525,0
42.6876,-39.459,0.291097,0
42.7834,-39.5161,0.286849,0
42.8809,-39.5704,0.282357,0
42.9797,-39.6224,0.277825,0
43.0797,-39.672,0.273236,0
43.1808,-39.7193,0.268607,0
43.283,-39.7642,0.263948,0
43.3864,-39.8066,0.259232,0
43.4907,-39.8466,0.254495,0
43.5959,-39.8842,0.24971,0
43.702,-39.9192,0.244905,0
43.809,-39.9511,0.239896,0
43.917,-39.9795,0.234593,0
44.0256,-40.0054,0.22928,0
44.1348,-40.0287,0.223948,0
44.2445,-40.0494,0.218616,0
44.3545,-40.0675,0.213284,0
44.4649,-40.0831,0.207952,0
44.5757,-40.096,0.202611,0
44.6866,-40.1064,0.197288,0
44.7977,-40.1142,0.191966,0
44.9091,-40.1193,0.186654,0
45.0203,-40.1219,0.181361,0
45.1316,-40.1218,0.176077,0
45.2427,-40.1168,0.170208,0
45.3536,-40.1076,0.163958,0
45.4641,-40.0959,0.157757,0
45.5741,-40.0816,0.151575,0
45.6835,-40.0648,0.145443,0
45.7925,-40.0455,0.139378,0
45.9009,-40.0237,0.133343,0
46.0085,-39.9994,0.127366,0
46.1155,-39.9727,0.121448,0
46.2217,-39.9435,0.115579,0
46.3269,-39.9113,0.109613,0
46.4312,-39.8766,0.103675,0
46.5345,-39.8396,0.0978156,0
46.6367,-39.8004,0.0920441,0
46.738,-39.7589,0.0863606,0
46.8381,-39.7152,0.0807551,0
46.937,-39.6693,0.0752473,0
47.0349,-39.6213,0.0698176,0
47.1314,-39.5712,0.0644953,0
47.2267,-39.519,0.0592609,0
47.3208,-39.4647,0.054134,0
47.4134,-39.4085,0.0491047,0
47.5045,-39.3502,0.0441731,0
47.5944,-39.2901,0.0393488,0
47.6818,-39.2267,0.0342609,0
47.7664,-39.1596,0.0287434,0
47.8494,-39.0908,0.0233625,0
47.9307,-39.0204,0.0181184,0
48.0102,-38.9485,0.0130012,0
48.0881,-38.875,0.00804024,0
48.1643,-38.8,0.00321602,0
48.2387,-38.7235,-0.00147148,0
48.3113,-38.6457,-0.0060125,0
48.3821,-38.5664,-0.0104168,0
48.4521,-38.4868,-0.0143426,0
48.5212,-38.4067,-0.0178484,0
48.5884,-38.3253,-0.021198,0
48.654,-38.2426,-0.0243816,0
48.7177,-38.1586,-0.0274285,0
48.7796,-38.0735,-0.0303191,0
48.8397,-37.9871,-0.0330535,0
48.898,-37.8996,-0.0356316,0
48.9543,-37.811,-0.0380437,0
49.0088,-37.7214,-0.0403094,0
49.0613,-37.6307,-0.042409,0
49.112,-37.539,-0.0443621,0
49.1608,-37.4463,-0.0461394,0
49.2076,-37.3527,-0.0477703,0
49.2524,-37.2583,-0.0492352,0
49.2952,-37.1629,-0.0505437,0
49.3361,-37.0668,-0.0516863,0
49.375,-36.9698,-0.0526824,0
49.4118,-36.8722,-0.0535027,0
49.4466,-36.7738,-0.0541766,0
49.4787,-36.6745,-0.0548504,0
49.5073,-36.5741,-0.0557,0
49.5337,-36.4733,-0.0564129,0
49.558,-36.3719,-0.0569891,0
49.58,-36.2701,-0.0574187,0
49.5998,-36.1679,-0.0577019,0
49.6176,-36.0654,-0.0578484,0
49.6341,-35.9628,-0.0576141,0
49.6484,-35.8598,-0.0572234,0
49.6607,-35.7565,-0.0566863,0
49.6706,-35.6531,-0.0560125,0
42.4891,-39.3236,0.298431,0
42.5804,-39.3876,0.295052,0
42.6732,-39.4496,0.291624,0
42.7685,-39.5075,0.287532,0
42.8658,-39.5622,0.28305,0
42.9645,-39.6145,0.278519,0
43.0642,-39.6645,0.273948,0
43.1652,-39.7122,0.269329,0
43.2673,-39.7574,0.264661,0
43.3705,-39.8002,0.259954,0
43.4745,-39.8406,0.255228,0
43.5797,-39.8786,0.250452,0
43.6856,-39.914,0.245657,0
43.7924,-39.9465,0.240716,0
43.9004,-39.9753,0.235413,0
44.0089,-40.0016,0.230091,0
44.118,-40.0252,0.224769,0
44.2275,-40.0464,0.219437,0
44.3376,-40.0649,0.214114,0
44.4479,-40.0809,0.208773,0
44.5586,-40.0942,0.203431,0
44.6696,-40.105,0.198099,0
44.7806,-40.1132,0.192786,0
44.892,-40.1187,0.187464,0
45.0032,-40.1217,0.182171,0
45.1145,-40.122,0.176898,0
45.2256,-40.118,0.171175,0
45.3366,-40.1092,0.164925,0
45.4471,-40.0979,0.158704,0
45.5572,-40.084,0.152532,0
45.6667,-40.0676,0.1464,0
45.7758,-40.0486,0.140306,0
45.8842,-40.0272,0.134271,0
45.992,-40.0033,0.128284,0
46.0991,-39.977,0.122357,0
46.2054,-39.9482,0.116478,0
46.3108,-39.9164,0.11053,0
46.4152,-39.8821,0.104583,0
46.5186,-39.8455,0.0987141,0
46.6211,-39.8066,0.092923,0
46.7225,-39.7654,0.0872297,0
46.8227,-39.7221,0.0816145,0
46.9219,-39.6765,0.0760871,0
47.0199,-39.6288,0.0706477,0
47.1166,-39.579,0.0653059,0
47.2122,-39.5271,0.0600617,0
47.3063,-39.4732,0.0549152,0
47.3991,-39.4172,0.0498664,0
47.4906,-39.3593,0.044925,0
47.5806,-39.2994,0.0400813,0
47.6686,-39.2368,0.0351203,0
47.7535,-39.17,0.0295832,0
47.8367,-39.1015,0.024173,0
47.9183,-39.0313,0.0189094,0
47.9981,-38.9596,0.0137824,0
48.0763,-38.8864,0.00879219,0
48.1527,-38.8116,0.00394844,0
48.2274,-38.7354,-0.000758591,0
48.3002,-38.6577,-0.0053289,0
48.3713,-38.5787,-0.00974297,0
48.4412,-38.499,-0.0137859,0
48.5105,-38.4191,-0.0173211,0
48.5782,-38.3379,-0.0206902,0
48.6441,-38.2554,-0.0239129,0
48.708,-38.1716,-0.0269793,0
48.7702,-38.0867,-0.0298797,0
48.8305,-38.0005,-0.0326434,0
48.8891,-37.9132,-0.035241,0
48.9458,-37.8247,-0.0376824,0
49.0005,-37.7352,-0.0399773,0
49.0534,-37.6447,-0.0421062,0
49.1043,-37.5532,-0.0440691,0
49.1534,-37.4606,-0.0458758,0
49.2005,-37.3672,-0.0475262,0
49.2456,-37.2729,-0.0490203,0
49.2887,-37.1776,-0.0503582,0
49.3299,-37.0816,-0.0515301,0
49.3691,-36.9848,-0.0525359,0
49.4062,-36.8872,-0.0533953,0
49.4414,-36.789,-0.0540789,0
49.4741,-36.6899,-0.0547039,0
49.5031,-36.5896,-0.0555828,0
49.5298,-36.4888,-0.0563152,0
49.5544,-36.3875,-0.0569109,0
49.5768,-36.2858,-0.0573602,0
49.597,-36.1837,-0.0576629,0
49.615,-36.0812,-0.0578289,0
49.6316,-35.9786,-0.0576629,0
49.6463,-35.8756,-0.0572918,0
49.6589,-35.7724,-0.056784,0
49.6693,-35.669,-0.0561297,0
49.6774,-35.5653,-0.0553387,0
42.5905,-39.2301,0.295198,0
42.6797,-39.2916,0.291898,0
42.7716,-39.3492,0.287904,0
42.8652,-39.4038,0.283577,0
42.9602,-39.4562,0.279212,0
43.0563,-39.5063,0.274788,0
43.1537,-39.5541,0.270335,0
43.2521,-39.5997,0.265833,0
43.3516,-39.6429,0.261292,0
43.4522,-39.6838,0.256712,0
43.5537,-39.7223,0.252093,0
43.656,-39.7584,0.247454,0
43.7592,-39.7921,0.242777,0
43.8632,-39.8233,0.23807,0
43.9682,-39.8507,0.232982,0
44.0738,-39.8755,0.227816,0
44.18,-39.8978,0.22264,0
44.2866,-39.9176,0.217454,0
44.3937,-39.9349,0.212269,0
44.501,-39.9497,0.207083,0
44.6087,-39.9619,0.201898,0
44.7165,-39.9716,0.196722,0
44.8245,-39.9788,0.191546,0
44.9327,-39.9835,0.18639,0
45.0409,-39.9857,0.181253,0
45.1491,-39.9853,0.176126,0
45.257,-39.9796,0.170267,0
45.3647,-39.9705,0.164202,0
45.472,-39.9588,0.158167,0
45.5788,-39.9447,0.152161,0
45.6852,-39.9282,0.146224,0
45.7911,-39.9092,0.140306,0
45.8963,-39.8878,0.134456,0
46.001,-39.864,0.128655,0
46.1049,-39.8378,0.122904,0
46.208,-39.8092,0.11721,0
46.3105,-39.7784,0.111575,0
46.412,-39.7452,0.106009,0
46.5123,-39.7093,0.100374,0
46.6118,-39.6709,0.0947687,0
46.7102,-39.6304,0.0892512,0
46.8074,-39.5877,0.083802,0
46.9037,-39.5429,0.0784504,0
46.9987,-39.496,0.0731867,0
47.0925,-39.4471,0.0680109,0
47.1851,-39.3962,0.0629328,0
47.2765,-39.3432,0.0579426,0
47.3664,-39.2883,0.0530695,0
47.4551,-39.2315,0.0482746,0
47.5423,-39.1728,0.0435871,0
47.6281,-39.1122,0.039007,0
47.7109,-39.0475,0.0338508,0
47.7915,-38.9805,0.0286066,0
47.8706,-38.9119,0.0235188,0
47.948,-38.8418,0.0185383,0
48.0238,-38.7702,0.0137141,0
48.0979,-38.6971,0.00902657,0
48.1702,-38.6225,0.00446602,0
48.2408,-38.5466,5.19562e-05,0
48.3109,-38.4707,-0.0037664,0
48.3798,-38.3938,-0.00732109,0
48.447,-38.3156,-0.0107195,0
48.5124,-38.2361,-0.0139812,0
48.5761,-38.1554,-0.017077,0
48.638,-38.0734,-0.0200262,0
48.6982,-37.9903,-0.0228289,0
48.7566,-37.906,-0.0254754,0
48.8132,-37.8206,-0.0279656,0
48.868,-37.7341,-0.0303094,0
48.9209,-37.6465,-0.0324969,0
48.972,-37.558,-0.0345184,0
49.0211,-37.4685,-0.0364031,0
49.0684,-37.378,-0.0381316,0
49.1138,-37.2866,-0.0396941,0
49.1573,-37.1944,-0.0411004,0
49.1987,-37.1013,-0.0423602,0
49.2384,-37.0075,-0.0434637,0
49.276,-36.9128,-0.0444012,0
49.3102,-36.8169,-0.0455437,0
49.342,-36.7203,-0.0466277,0
49.3717,-36.623,-0.0475848,0
49.3993,-36.5252,-0.0484051,0
49.4247,-36.4269,-0.0490789,0
49.448,-36.3281,-0.049616,0
49.4692,-36.2289,-0.0500262,0
49.4883,-36.1293,-0.0502801,0
49.5055,-36.0294,-0.0503387,0
49.5214,-35.9293,-0.0500652,0
49.5352,-35.829,-0.0496648,0
49.5466,-35.7283,-0.049118,0
49.5561,-35.6275,-0.0484441,0
42.5768,-39.2204,0.295706,0
42.6659,-39.2823,0.292415,0
42.7573,-39.3406,0.288558,0
42.8507,-39.3955,0.284241,0
42.9455,-39.4482,0.279896,0
43.0415,-39.4987,0.275472,0
43.1387,-39.5469,0.271019,0
43.2369,-39.5928,0.266527,0
43.3363,-39.6364,0.261995,0
43.4366,-39.6777,0.257415,0
43.538,-39.7165,0.252806,0
43.6402,-39.753,0.248167,0
43.7433,-39.787,0.243499,0
43.8472,-39.8186,0.238802,0
43.952,-39.8467,0.233773,0
44.0575,-39.8719,0.228607,0
44.1636,-39.8946,0.223431,0
44.2702,-39.9147,0.218255,0
44.3771,-39.9324,0.21307,0
44.4845,-39.9475,0.207874,0
44.5921,-39.9602,0.202689,0
44.6999,-39.9703,0.197513,0
44.808,-39.9779,0.192337,0
44.9161,-39.983,0.187191,0
45.0241,-39.9855,0.182034,0
45.1323,-39.9855,0.176907,0
45.2404,-39.9808,0.171204,0
45.348,-39.972,0.16513,0
45.4555,-39.9608,0.159095,0
45.5624,-39.9471,0.153099,0
45.6689,-39.9309,0.147142,0
45.7748,-39.9123,0.141224,0
45.8802,-39.8912,0.135355,0
45.9849,-39.8678,0.129544,0
46.089,-39.842,0.123792,0
46.1922,-39.8138,0.118079,0
46.2948,-39.7833,0.112445,0
46.3964,-39.7505,0.106868,0
46.497,-39.715,0.101243,0
46.5966,-39.677,0.0956379,0
46.6951,-39.6368,0.090091,0
46.7926,-39.5944,0.084632,0
46.889,-39.5499,0.0792707,0
46.9841,-39.5034,0.0739875,0
47.0782,-39.4548,0.068802,0
47.1709,-39.4041,0.0637043,0
47.2625,-39.3515,0.0587043,0
47.3527,-39.2969,0.0538117,0
47.4416,-39.2404,0.049007,0
47.529,-39.182,0.0443,0
47.615,-39.1217,0.0397004,0
47.6984,-39.0577,0.0346613,0
47.7792,-38.9909,0.0294074,0
47.8585,-38.9226,0.0242902,0
47.9362,-38.8527,0.0193,0
48.0122,-38.7813,0.0144465,0
48.0866,-38.7084,0.00973946,0
48.1591,-38.6341,0.00515938,0
48.23,-38.5584,0.000725784,0
48.3002,-38.4824,-0.00320976,0
48.3693,-38.4058,-0.00678398,0
48.4368,-38.3278,-0.0102117,0
48.5024,-38.2485,-0.0134832,0
48.5665,-38.1679,-0.0166082,0
48.6287,-38.0861,-0.0195867,0
48.6891,-38.0032,-0.0223992,0
48.7478,-37.919,-0.0250652,0
48.8046,-37.8338,-0.0275945,0
48.8597,-37.7475,-0.0299578,0
48.9128,-37.6601,-0.0321746,0
48.9641,-37.5717,-0.0342254,0
49.0136,-37.4823,-0.0361297,0
49.0612,-37.392,-0.0378777,0
49.1069,-37.3008,-0.0394598,0
49.1507,-37.2086,-0.0408953,0
49.1925,-37.1157,-0.0421746,0
49.2323,-37.022,-0.0432977,0
49.2703,-36.9274,-0.0442645,0
49.3051,-36.8318,-0.0453582,0
49.3372,-36.7352,-0.0464715,0
49.3673,-36.638,-0.047448,0
49.3952,-36.5403,-0.0482879,0
49.4209,-36.442,-0.048991,0
49.4446,-36.3433,-0.0495477,0
49.4662,-36.2442,-0.0499676,0
49.4855,-36.1446,-0.0502508,0
49.503,-36.0448,-0.0503582,0
49.5191,-35.9448,-0.0501238,0
49.5332,-35.8444,-0.0497332,0
49.5451,-35.7438,-0.0492254,0
49.5548,-35.643,-0.0485516,0
42.5632,-39.2107,0.296204,0
42.652,-39.2729,0.292923,0
42.743,-39.3319,0.289212,0
42.8363,-39.3872,0.284915,0
42.9308,-39.4403,0.28056,0
43.0266,-39.4911,0.276165,0
43.1236,-39.5397,0.271712,0
43.2217,-39.5859,0.26723,0
43.3209,-39.6299,0.262689,0
43.4212,-39.6715,0.258128,0
43.5223,-39.7107,0.253519,0
43.6245,-39.7475,0.24888,0
43.7273,-39.7819,0.244212,0
43.8311,-39.8139,0.239525,0
43.9358,-39.8426,0.234564,0
44.0412,-39.8681,0.229398,0
44.1473,-39.8912,0.224232,0
44.2537,-39.9118,0.219056,0
44.3607,-39.9298,0.21387,0
44.4679,-39.9454,0.208675,0
44.5755,-39.9584,0.203499,0
44.6833,-39.9689,0.198314,0
44.7912,-39.9769,0.193148,0
44.8994,-39.9824,0.187982,0
45.0076,-39.9853,0.182835,0
45.1157,-39.9857,0.177698,0
45.2237,-39.9819,0.172142,0
45.3316,-39.9735,0.166058,0
45.439,-39.9627,0.160023,0
45.546,-39.9493,0.154007,0
45.6525,-39.9335,0.14805,0
45.7585,-39.9153,0.142132,0
45.864,-39.8946,0.136253,0
45.9688,-39.8715,0.130443,0
46.073,-39.8461,0.124671,0
46.1764,-39.8183,0.118958,0
46.279,-39.7881,0.113304,0
46.3808,-39.7557,0.107718,0
46.4816,-39.7206,0.102122,0
46.5812,-39.6829,0.0964875,0
46.6799,-39.6431,0.0909309,0
46.7777,-39.6011,0.0854719,0
46.8741,-39.5569,0.080091,0
46.9695,-39.5107,0.074798,0
47.0638,-39.4624,0.069593,0
47.1568,-39.4121,0.0644855,0
47.2485,-39.3597,0.059466,0
47.3389,-39.3054,0.0545539,0
47.428,-39.2492,0.0497395,0
47.5156,-39.1911,0.0450227,0
47.6019,-39.1311,0.0404035,0
47.6857,-39.0678,0.0354816,0
47.7669,-39.0013,0.0302082,0
47.8465,-38.9332,0.0250715,0
47.9244,-38.8635,0.0200617,0
48.0007,-38.7924,0.0151887,0
48.0752,-38.7197,0.0104523,0
48.148,-38.6456,0.00585274,0
48.2192,-38.5702,0.00139961,0
48.2895,-38.4941,-0.00264336,0
48.3588,-38.4177,-0.00623711,0
48.4265,-38.3398,-0.00969414,0
48.4925,-38.2607,-0.0129852,0
48.5567,-38.1804,-0.0161297,0
48.6192,-38.0988,-0.0191375,0
48.6799,-38.016,-0.0219793,0
48.7389,-37.9321,-0.0246746,0
48.7959,-37.847,-0.0272137,0
48.8513,-37.7608,-0.0296062,0
48.9048,-37.6736,-0.0318328,0
48.9564,-37.5853,-0.0339129,0
49.0062,-37.4961,-0.0358465,0
49.0541,-37.4059,-0.0376141,0
49.1,-37.3148,-0.0392254,0
49.1441,-37.2229,-0.0406902,0
49.1862,-37.1301,-0.0419891,0
49.2264,-37.0364,-0.0431414,0
49.2646,-36.942,-0.0441277,0
49.3,-36.8466,-0.0451727,0
49.3325,-36.7501,-0.0463152,0
49.3628,-36.653,-0.0473016,0
49.391,-36.5554,-0.0481609,0
49.417,-36.4572,-0.0488934,0
49.4411,-36.3586,-0.0494695,0
49.463,-36.2595,-0.049909,0
49.4827,-36.16,-0.0502117,0
49.5003,-36.0602,-0.0503777,0
49.5167,-35.9602,-0.0501629,0
49.5312,-35.8599,-0.0498016,0
49.5434,-35.7593,-0.0493035,0
49.5534,-35.6586,-0.0486687,0
49.5614,-35.5576,-0.0478875,0
42.6602,-39.1223,0.293118,0
42.7478,-39.1809,0.289476,0
42.8376,-39.2361,0.285335,0
42.9287,-39.2892,0.281136,0
43.021,-39.3401,0.276888,0
43.1145,-39.3888,0.272591,0
43.2091,-39.4353,0.268255,0
43.3049,-39.4796,0.26387,0
43.4017,-39.5216,0.259456,0
43.4995,-39.5613,0.255003,0
43.5981,-39.5987,0.250521,0
43.6977,-39.6338,0.246009,0
43.798,-39.6665,0.241458,0
43.8991,-39.6969,0.236888,0
44.0009,-39.7246,0.23223,0
44.1037,-39.7487,0.2272,0
44.2069,-39.7705,0.222171,0
44.3105,-39.7897,0.217132,0
44.4147,-39.8066,0.212083,0
44.519,-39.821,0.207044,0
44.6237,-39.833,0.201995,0
44.7286,-39.8425,0.196956,0
44.8337,-39.8495,0.191937,0
44.9389,-39.8541,0.186917,0
45.0441,-39.8563,0.181917,0
45.1492,-39.8559,0.176927,0
45.2543,-39.8505,0.171243,0
45.359,-39.8418,0.165335,0
45.4634,-39.8306,0.159466,0
45.5674,-39.8171,0.153636,0
45.6709,-39.8011,0.147835,0
45.7739,-39.7828,0.142093,0
45.8763,-39.7621,0.1364,0
45.9781,-39.7391,0.130745,0
46.0793,-39.7137,0.12515,0
46.1796,-39.6861,0.119613,0
46.2793,-39.6562,0.114124,0
46.378,-39.6241,0.108704,0
46.476,-39.5898,0.103353,0
46.573,-39.5532,0.0980598,0
46.669,-39.5145,0.0928156,0
46.7638,-39.4731,0.0875129,0
46.8575,-39.4296,0.082298,0
46.9501,-39.3841,0.0771711,0
47.0415,-39.3366,0.072132,0
47.1317,-39.2872,0.0671809,0
47.2207,-39.2358,0.0623176,0
47.3084,-39.1824,0.057552,0
47.3948,-39.1272,0.052884,0
47.4798,-39.0702,0.0483137,0
47.5634,-39.0114,0.0438508,0
47.6456,-38.9507,0.0394855,0
47.7245,-38.8857,0.0343879,0
47.8016,-38.819,0.0294172,0
47.8772,-38.7508,0.0245637,0
47.9512,-38.6812,0.0198371,0
48.0234,-38.6101,0.015257,0
48.0941,-38.5376,0.0108039,0
48.1645,-38.4652,0.00698555,0
48.2334,-38.3917,0.00337227,0
48.3006,-38.3168,-9.45282e-05,0
48.3662,-38.2406,-0.00342461,0
48.4301,-38.1631,-0.00659843,0
48.4923,-38.0844,-0.00963554,0
48.5528,-38.0045,-0.0125164,0
48.6116,-37.9235,-0.0152605,0
48.6686,-37.8413,-0.0178387,0
48.7239,-37.758,-0.0202801,0
48.7774,-37.6737,-0.022575,0
48.8291,-37.5883,-0.0247137,0
48.8789,-37.502,-0.0266961,0
48.927,-37.4147,-0.028532,0
48.9731,-37.3264,-0.0302215,0
49.0175,-37.2373,-0.0317547,0
49.0599,-37.1474,-0.0331316,0
49.0999,-37.0563,-0.0345184,0
49.137,-36.9641,-0.0359832,0
49.1722,-36.8712,-0.0373211,0
49.2052,-36.7776,-0.038532,0
49.2362,-36.6835,-0.0395867,0
49.2653,-36.5887,-0.040534,0
49.2922,-36.4933,-0.0413348,0
49.3171,-36.3975,-0.0419988,0
49.3398,-36.3012,-0.0425164,0
49.3606,-36.2045,-0.0429168,0
49.3793,-36.1074,-0.0431805,0
49.3963,-36.0101,-0.0431805,0
49.4118,-35.9126,-0.0429266,0
49.4252,-35.8147,-0.0425262,0
49.4365,-35.7166,-0.0420086,0
49.4456,-35.6183,-0.0413348,0
42.647,-39.113,0.293597,0
42.7341,-39.1722,0.290111,0
42.8237,-39.2278,0.28598,0
42.9146,-39.2811,0.28178,0
43.0067,-39.3324,0.277542,0
43.1001,-39.3814,0.273245,0
43.1945,-39.4283,0.268919,0
43.2902,-39.4729,0.264554,0
43.3867,-39.5153,0.26014,0
43.4844,-39.5554,0.255696,0
43.5829,-39.5931,0.251204,0
43.6823,-39.6286,0.246702,0
43.7825,-39.6617,0.242161,0
43.8835,-39.6924,0.237581,0
43.9852,-39.7207,0.233001,0
44.0878,-39.7452,0.227982,0
44.1909,-39.7673,0.222943,0
44.2945,-39.7869,0.217894,0
44.3986,-39.8042,0.212864,0
44.503,-39.819,0.207825,0
44.6076,-39.8313,0.202777,0
44.7125,-39.8412,0.197738,0
44.8175,-39.8486,0.192708,0
44.9227,-39.8536,0.187689,0
45.0279,-39.8561,0.182679,0
45.133,-39.8561,0.177689,0
45.2381,-39.8517,0.172152,0
45.343,-39.8433,0.166243,0
45.4473,-39.8325,0.160364,0
45.5514,-39.8193,0.154525,0
45.655,-39.8037,0.148734,0
45.758,-39.7858,0.142982,0
45.8606,-39.7654,0.137269,0
45.9625,-39.7428,0.131614,0
46.0637,-39.7178,0.125999,0
46.1642,-39.6905,0.120462,0
46.264,-39.661,0.114974,0
46.3629,-39.6292,0.109534,0
46.461,-39.5952,0.104163,0
46.5581,-39.559,0.0988703,0
46.6543,-39.5206,0.0936359,0
46.7492,-39.4796,0.0883234,0
46.8431,-39.4364,0.0830891,0
46.9359,-39.3913,0.0779523,0
47.0275,-39.3441,0.0728938,0
47.118,-39.2949,0.0679328,0
47.2071,-39.2438,0.06305,0
47.295,-39.1908,0.0582746,0
47.3816,-39.1359,0.0535969,0
47.4668,-39.0791,0.0490168,0
47.5506,-39.0205,0.0445344,0
47.6331,-38.9602,0.0401496,0
47.7124,-38.8958,0.0351691,0
47.7898,-38.8294,0.0301691,0
47.8656,-38.7614,0.0252961,0
47.9399,-38.692,0.0205598,0
48.0124,-38.6211,0.0159504,0
48.0833,-38.5489,0.0114875,0
48.1537,-38.4764,0.00755196,0
48.2228,-38.4031,0.00391914,0
48.2903,-38.3284,0.000432816,0
48.3562,-38.2524,-0.00291679,0
48.4203,-38.1751,-0.00611992,0
48.4828,-38.0966,-0.00917656,0
48.5436,-38.0169,-0.0120867,0
48.6027,-37.936,-0.0148406,0
48.6599,-37.854,-0.0174578,0
48.7155,-37.7709,-0.0199187,0
48.7693,-37.6867,-0.0222332,0
48.8212,-37.6015,-0.0244012,0
48.8713,-37.5153,-0.0264031,0
48.9197,-37.4282,-0.0282586,0
48.9661,-37.3401,-0.0299773,0
49.0108,-37.2511,-0.0315301,0
49.0535,-37.1613,-0.0329363,0
49.094,-37.0705,-0.0342644,0
49.1315,-36.9784,-0.0357684,0
49.1669,-36.8856,-0.0371258,0
49.2003,-36.7921,-0.0383562,0
49.2316,-36.698,-0.0394402,0
49.2609,-36.6033,-0.0403973,0
49.2882,-36.508,-0.0412176,0
49.3134,-36.4123,-0.0419012,0
49.3366,-36.3161,-0.0424578,0
49.3576,-36.2194,-0.042868,0
49.3765,-36.1224,-0.0431414,0
49.3937,-36.0251,-0.0432,0
49.4095,-35.9276,-0.0429754,0
49.4233,-35.8298,-0.0426043,0
49.4348,-35.7318,-0.0420867,0
49.4444,-35.6335,-0.0414519,0
42.6338,-39.1036,0.294095,0
42.7205,-39.1635,0.290745,0
42.8098,-39.2193,0.286614,0
42.9005,-39.2731,0.282435,0
42.9925,-39.3246,0.278196,0
43.0856,-39.374,0.273909,0
43.1799,-39.4212,0.269593,0
43.2754,-39.4662,0.265228,0
43.3718,-39.5089,0.260823,0
43.4693,-39.5493,0.25638,0
43.5677,-39.5875,0.251907,0
43.6669,-39.6233,0.247396,0
43.767,-39.6567,0.242855,0
43.8679,-39.6878,0.238284,0
43.9695,-39.7165,0.233704,0
44.072,-39.7416,0.228753,0
44.1751,-39.764,0.223714,0
44.2786,-39.7841,0.218675,0
44.3826,-39.8017,0.213636,0
44.4869,-39.8168,0.208597,0
44.5915,-39.8296,0.203548,0
44.6963,-39.8398,0.198509,0
44.8014,-39.8476,0.19348,0
44.9065,-39.853,0.18846,0
45.0117,-39.8559,0.18345,0
45.1169,-39.8563,0.17846,0
45.222,-39.8527,0.17306,0
45.3268,-39.8447,0.167142,0
45.4313,-39.8343,0.161273,0
45.5355,-39.8215,0.155423,0
45.6391,-39.8063,0.149622,0
45.7423,-39.7887,0.143851,0
45.8448,-39.7687,0.138138,0
45.9469,-39.7464,0.132474,0
46.0482,-39.7218,0.126868,0
46.1488,-39.6949,0.121312,0
46.2487,-39.6657,0.115804,0
46.3477,-39.6342,0.110364,0
46.446,-39.6006,0.104984,0
46.5433,-39.5647,0.0996809,0
46.6395,-39.5267,0.0944465,0
46.7347,-39.486,0.0891438,0
46.8288,-39.4432,0.0838898,0
46.9216,-39.3983,0.0787336,0
47.0135,-39.3515,0.0736652,0
47.1041,-39.3026,0.0686848,0
47.1935,-39.2518,0.063802,0
47.2816,-39.1991,0.059007,0
47.3684,-39.1444,0.0543098,0
47.4538,-39.0879,0.0497102,0
47.5378,-39.0297,0.045218,0
47.6205,-38.9696,0.0408137,0
47.7004,-38.9059,0.0359504,0
47.778,-38.8397,0.0309309,0
47.8541,-38.772,0.026048,0
47.9286,-38.7028,0.0212824,0
48.0013,-38.6321,0.0166633,0
48.0725,-38.5601,0.0121613,0
48.1429,-38.4876,0.00812813,0
48.2123,-38.4144,0.00446602,0
48.28,-38.34,0.000950394,0
48.3462,-38.2641,-0.00241875,0
48.4106,-38.1871,-0.0056414,0
48.4734,-38.1088,-0.00870781,0
48.5344,-38.0292,-0.0116473,0
48.5937,-37.9485,-0.0144305,0
48.6512,-37.8667,-0.0170672,0
48.707,-37.7838,-0.0195477,0
48.7611,-37.6997,-0.0218914,0
48.8134,-37.6147,-0.0240691,0
48.8638,-37.5286,-0.0261102,0
48.9123,-37.4416,-0.0279852,0
48.9591,-37.3537,-0.0297137,0
49.0041,-37.2648,-0.0312957,0
49.047,-37.1751,-0.0327312,0
49.0881,-37.0846,-0.0340203,0
49.1258,-36.9926,-0.0355437,0
49.1616,-36.8999,-0.0369305,0
49.1952,-36.8065,-0.0381707,0
49.227,-36.7125,-0.039284,0
49.2566,-36.6179,-0.0402605,0
49.2841,-36.5227,-0.0411004,0
49.3096,-36.4271,-0.0418035,0
49.333,-36.3309,-0.0423797,0
49.3545,-36.2343,-0.0428094,0
49.3737,-36.1374,-0.0431121,0
49.3911,-36.0401,-0.0432293,0
49.4073,-35.9426,-0.0430144,0
49.4213,-35.8449,-0.0426727,0
49.4332,-35.7469,-0.0421746,0
49.443,-35.6486,-0.0415594,0
49.4508,-35.5502,-0.0407977,0
42.7269,-39.0193,0.290921,0
42.813,-39.075,0.286937,0
42.9003,-39.1287,0.282904,0
42.989,-39.1803,0.278812,0
43.0788,-39.2298,0.274681,0
43.1698,-39.2772,0.270501,0
43.262,-39.3224,0.266273,0
43.3551,-39.3655,0.262025,0
43.4492,-39.4064,0.257718,0
43.5444,-39.445,0.253392,0
43.6403,-39.4814,0.249017,0
43.7372,-39.5155,0.244622,0
43.8348,-39.5473,0.240208,0
43.9332,-39.5768,0.235755,0
44.0322,-39.604,0.231282,0
44.132,-39.6283,0.226624,0
44.2324,-39.6494,0.221712,0
44.3333,-39.6682,0.21682,0
44.4346,-39.6847,0.211907,0
44.5362,-39.6987,0.206995,0
44.638,-39.7104,0.202093,0
44.7402,-39.7197,0.197191,0
44.8424,-39.7266,0.192298,0
44.9448,-39.7311,0.187415,0
45.0472,-39.7332,0.182542,0
45.1495,-39.733,0.177689,0
45.2517,-39.7278,0.172161,0
45.3537,-39.7195,0.166409,0
45.4553,-39.7087,0.160696,0
45.5565,-39.6957,0.155023,0
45.6573,-39.6803,0.149378,0
45.7576,-39.6626,0.143782,0
45.8573,-39.6426,0.138236,0
45.9564,-39.6203,0.132738,0
46.0548,-39.5958,0.127279,0
46.1527,-39.5691,0.121888,0
46.2497,-39.5401,0.116556,0
46.3459,-39.509,0.111263,0
46.4412,-39.4757,0.106048,0
46.5357,-39.4402,0.100902,0
46.6293,-39.4026,0.0958039,0
46.7218,-39.363,0.0907941,0
46.8134,-39.3213,0.0858527,0
46.9038,-39.2776,0.0809602,0
46.9929,-39.2314,0.0760383,0
47.0809,-39.1834,0.0712238,0
47.1677,-39.1334,0.0664777,0
47.2531,-39.0816,0.0618293,0
47.3373,-39.0279,0.0572785,0
47.4202,-38.9725,0.0528254,0
47.5018,-38.9153,0.0484699,0
47.582,-38.8563,0.0442121,0
47.6604,-38.7952,0.0399055,0
47.7358,-38.7304,0.0350422,0
47.8096,-38.664,0.0303059,0
47.8819,-38.5963,0.0256867,0
47.9525,-38.5271,0.0212238,0
48.0229,-38.4582,0.0174055,0
48.0918,-38.3878,0.0137434,0
48.1591,-38.3161,0.0101984,0
48.2248,-38.2431,0.00680977,0
48.2889,-38.1688,0.00355782,0
48.3514,-38.0933,0.000452347,0
48.4122,-38.0166,-0.0025164,0
48.4714,-37.9386,-0.00534843,0
48.5287,-37.8596,-0.00802422,0
48.5845,-37.7795,-0.0105437,0
48.6385,-37.6982,-0.0129461,0
48.6908,-37.6159,-0.0151727,0
48.7413,-37.5327,-0.0172723,0
48.79,-37.4484,-0.0192156,0
48.837,-37.3632,-0.0210223,0
48.8816,-37.2769,-0.0227898,0
48.9237,-37.1893,-0.0246258,0
48.9638,-37.1009,-0.0263348,0
49.0021,-37.0118,-0.0278973,0
49.0384,-36.9219,-0.0293426,0
49.0727,-36.8313,-0.0306609,0
49.105,-36.7401,-0.0318328,0
49.1354,-36.6483,-0.0328777,0
49.1637,-36.5559,-0.0337957,0
49.1901,-36.4629,-0.0345867,0
49.2143,-36.3695,-0.0352312,0
49.2366,-36.2756,-0.0357488,0
49.257,-36.1813,-0.0361395,0
49.2751,-36.0866,-0.0363934,0
49.292,-35.9917,-0.0363543,0
49.307,-35.8966,-0.0361004,0
49.3201,-35.8011,-0.0357195,0
49.3312,-35.7055,-0.0352019,0
49.3401,-35.6096,-0.0345574,0
42.7137,-39.0106,0.291527,0
42.7996,-39.0666,0.287552,0
42.8868,-39.1206,0.283519,0
42.9753,-39.1725,0.279437,0
43.0649,-39.2223,0.275316,0
43.1557,-39.27,0.271136,0
43.2477,-39.3156,0.266927,0
43.3406,-39.359,0.262679,0
43.4347,-39.4002,0.258382,0
43.5297,-39.4392,0.254056,0
43.6255,-39.4759,0.249691,0
43.7223,-39.5104,0.245296,0
43.8197,-39.5426,0.240882,0
43.918,-39.5724,0.236439,0
44.0169,-39.6,0.231966,0
44.1166,-39.6248,0.227376,0
44.2169,-39.6463,0.222484,0
44.3178,-39.6655,0.217571,0
44.419,-39.6823,0.212669,0
44.5205,-39.6967,0.207757,0
44.6224,-39.7088,0.202845,0
44.7245,-39.7184,0.197943,0
44.8266,-39.7257,0.19306,0
44.9291,-39.7306,0.188167,0
45.0314,-39.7331,0.183304,0
45.1338,-39.7332,0.178441,0
45.236,-39.7289,0.17305,0
45.338,-39.7209,0.167298,0
45.4397,-39.7105,0.161566,0
45.5409,-39.6978,0.155892,0
45.6417,-39.6828,0.150247,0
45.7421,-39.6655,0.144642,0
45.842,-39.6458,0.139095,0
45.9412,-39.6239,0.133577,0
46.0398,-39.5997,0.128118,0
46.1377,-39.5733,0.122718,0
46.2348,-39.5447,0.117366,0
46.3311,-39.5139,0.112073,0
46.4266,-39.4809,0.106849,0
46.5212,-39.4458,0.101683,0
46.615,-39.4086,0.0965852,0
46.7077,-39.3692,0.0915559,0
46.7993,-39.3279,0.0865949,0
46.8899,-39.2845,0.0817219,0
46.9793,-39.2386,0.0767902,0
47.0674,-39.1909,0.0719563,0
47.1544,-39.1412,0.0672004,0
47.24,-39.0897,0.0625422,0
47.3245,-39.0363,0.0579719,0
47.4076,-38.9811,0.053509,0
47.4893,-38.9242,0.049134,0
47.5697,-38.8655,0.0448566,0
47.6487,-38.805,0.0406672,0
47.7243,-38.7404,0.0357844,0
47.7983,-38.6743,0.0310188,0
47.8709,-38.6068,0.0263898,0
47.9417,-38.5378,0.0218879,0
48.0122,-38.4689,0.0179914,0
48.0813,-38.3987,0.0143,0
48.1489,-38.3272,0.0107453,0
48.2148,-38.2544,0.00731758,0
48.2792,-38.1803,0.0040461,0
48.342,-38.105,0.000921097,0
48.403,-38.0284,-0.00206718,0
48.4623,-37.9507,-0.00491875,0
48.5201,-37.8718,-0.00761406,0
48.576,-37.7918,-0.0101727,0
48.6303,-37.7108,-0.012575,0
48.6829,-37.6287,-0.0148406,0
48.7336,-37.5455,-0.0169598,0
48.7826,-37.4615,-0.0189227,0
48.8298,-37.3764,-0.0207488,0
48.875,-37.2903,-0.0225066,0
48.9173,-37.2029,-0.0243523,0
48.9578,-37.1146,-0.0260809,0
48.9963,-37.0256,-0.0276629,0
49.0329,-36.9358,-0.0291277,0
49.0675,-36.8453,-0.0304656,0
49.1002,-36.7542,-0.031657,0
49.1309,-36.6624,-0.0327312,0
49.1595,-36.5701,-0.033659,0
49.1861,-36.4772,-0.0344695,0
49.2107,-36.3839,-0.0351434,0
49.2334,-36.2901,-0.0356805,0
49.2539,-36.1958,-0.0360809,0
49.2724,-36.1012,-0.0363641,0
49.2895,-36.0063,-0.0363836,0
49.3048,-35.9112,-0.0361492,0
49.3183,-35.8158,-0.0357879,0
49.3296,-35.7202,-0.0352898,0
49.3389,-35.6244,-0.0346648,0
42.7008,-39.0016,0.292083,0
42.7863,-39.0581,0.288167,0
