68.6734,-48.2349,-2.47807,0
68.6426,-47.8871,-2.47649,0
68.6052,-47.5391,-2.47389,0
68.5556,-47.1923,-2.47005,0
68.4728,-46.8525,-2.46419,0
68.3834,-46.5145,-2.45731,0
68.2873,-46.1782,-2.44941,0
68.2439,-45.8243,-2.44267,0
68.3391,-45.4176,-2.44009,0
68.0329,-45.1534,-2.42222,174
66.8741,-45.2492,-2.3739,174
68.5916,-44.1405,-2.42513,0
68.6638,-43.6954,-2.41756,0
68.7621,-43.224,-2.40966,0
68.8877,-42.7225,-2.40137,0
69.0085,-42.2053,-2.39152,0
69.1034,-41.6839,-2.37938,0
67.6184,-42.1217,-2.3197,174
69.3572,-40.5407,-2.3522,0
69.7967,-39.7191,-2.34424,0
70.1625,-38.903,-2.33157,0
71.0693,-37.6312,-2.32886,0
62.1768,-74.5696,-0.247507,0
63.1409,-75.4857,-0.249562,0
64.1471,-76.357,-0.25905,0
65.3116,-77.465,-0.258244,0
62.0237,-66.3356,-1.0705,174
62.3269,-66.0231,-1.12792,174
64.4169,-66.2123,-1.28372,174
64.5627,-65.6494,-1.34723,174
65.0298,-65.5591,-1.3913,174
65.6637,-65.6716,-1.42865,174
68.8537,-68.9398,-1.37242,174
69.6811,-69.065,-1.42055,174
76.8407,-69.9845,-1.80764,174
64.9094,-59.3377,-1.90173,174
65.0894,-59.0627,-1.9321,174
65.3115,-58.8204,-1.96178,174
70.3667,-61.9848,-2.01838,174
72.7842,-63.0435,-2.07581,174
72.9506,-62.5231,-2.11869,174
73.4725,-62.2252,-2.16429,174
78.4823,-64.4833,-2.27375,0
78.3178,-63.6429,-2.31619,0
78.0168,-62.7613,-2.35307,0
68.66,-57.5407,-2.20993,174
68.3711,-56.9918,-2.22645,174
68.4238,-56.6135,-2.24852,174
68.7748,-56.359,-2.27665,174
73.2849,-57.6391,-2.40931,0
70.0693,-56.0194,-2.34779,174
69.2612,-55.3442,-2.34382,174
69.9299,-55.1498,-2.37926,174
71.3773,-55.1355,-2.43811,0
71.2148,-54.6625,-2.44939,0
71.0145,-54.1942,-2.4581,0
70.799,-53.7371,-2.46492,0
70.5634,-53.2907,-2.46975,0
70.2489,-52.8475,-2.47062,0
70.0426,-52.4351,-2.47385,0
69.8191,-52.033,-2.47534,0
69.5409,-51.6392,-2.47379,0
66.3946,-51.1166,-2.36804,174
69.0747,-50.8967,-2.47069,0
69.0006,-50.5433,-2.47349,0
68.9253,-50.1934,-2.47544,0
68.8431,-49.847,-2.4763,0
68.7605,-49.5037,-2.47635,0
68.744,-49.1572,-2.47811,0
68.7209,-48.8107,-2.47886,0
68.6917,-48.4643,-2.47861,0
68.6637,-48.1168,-2.47765,0
68.6306,-47.7689,-2.47572,0
68.5911,-47.4208,-2.47278,0
68.5282,-47.0767,-2.46818,0
68.4432,-46.7375,-2.46197,0
68.3514,-46.4,-2.45474,0
68.2532,-46.0645,-2.4465,0
68.2769,-45.6872,-2.44192,0
68.3703,-45.2773,-2.43895,0
67.8848,-45.0832,-2.41446,174
66.8527,-45.1382,-2.37056,174
68.6169,-43.9905,-2.42271,0
68.6869,-43.5419,-2.41466,0
68.8052,-43.0555,-2.40702,0
68.9293,-42.5486,-2.3982,0
69.0484,-42.0259,-2.38781,0
69.106,-41.5201,-2.37404,0
67.5091,-42.0403,-2.31125,174
69.5044,-40.2682,-2.34975,0
66.3017,-41.9736,-2.24548,174
70.282,-38.6191,-2.3265,0
71.5663,-37.0337,-2.33125,0
61.5541,-73.9092,-0.25259,0
62.5083,-74.9116,-0.245573,0
63.4852,-75.8061,-0.25068,0
64.562,-76.8027,-0.253737,0
61.9726,-66.8597,-1.014,174
76.5479,-70.3346,-1.54832,174
64.7746,-59.5027,-1.78127,174
64.952,-59.2253,-1.81244,174
65.157,-58.971,-1.84247,174
65.4307,-58.7663,-1.87143,174
70.4494,-61.8448,-1.88955,174
72.7958,-62.8321,-1.92974,174
73.0445,-62.3679,-1.97314,174
67.1189,-58.2397,-1.98641,174
75.1848,-62.3681,-2.06687,0
66.8007,-57.2651,-2.03513,174
69.1713,-58.0773,-2.08279,174
68.4309,-57.2887,-2.09951,174
68.3237,-56.8332,-2.12106,174
68.4859,-56.5044,-2.14505,174
69.0404,-56.3272,-2.17476,174
69.2713,-56.0099,-2.19891,174
70.5205,-56.0296,-2.24205,0
69.3481,-55.2391,-2.23743,174
70.1585,-55.0793,-2.27174,0
69.9914,-54.63,-2.28452,0
69.793,-54.1866,-2.29514,0
69.543,-53.7465,-2.30307,0
69.4198,-53.3458,-2.31276,0
69.189,-52.9371,-2.31847,0
68.9573,-52.542,-2.32287,0
68.7246,-52.1602,-2.32606,0
68.5366,-51.7953,-2.32932,0
66.5084,-51.3197,-2.27916,174
66.4083,-51.0222,-2.28205,174
68.0373,-50.7623,-2.33488,0
67.9762,-50.4341,-2.338,0
67.9561,-50.1076,-2.34152,0
67.9499,-49.7808,-2.34468,0
67.9378,-49.454,-2.3469,0
67.9195,-49.1272,-2.34815,0
67.8953,-48.8005,-2.34845,0
67.865,-48.4739,-2.34778,0
67.835,-48.1464,-2.34635,0
67.7845,-47.8216,-2.34351,0
67.7152,-47.5005,-2.3393,0
67.6397,-47.1808,-2.33414,0
67.5578,-46.8627,-2.32801,0
67.4696,-46.5463,-2.3209,0
67.3659,-46.2347,-2.31257,0
67.2598,-45.9241,-2.30338,0
67.3459,-45.5415,-2.29882,0
67.4229,-45.1518,-2.293,0
65.2823,-45.7018,-2.22651,174
67.5351,-44.3577,-2.27701,0
67.5815,-43.9486,-2.2671,0
67.621,-43.5315,-2.25583,0
67.6795,-43.092,-2.24377,0
67.6782,-42.6728,-2.22902,0
66.8072,-42.7709,-2.19459,174
66.9584,-42.2587,-2.18134,174
67.6117,-41.3853,-2.17561,0
67.6085,-40.918,-2.15532,0
67.8155,-40.2786,-2.13664,0
67.9791,-39.6407,-2.1149,0
64.0448,-42.3325,-2.04256,174
68.4437,-38.1493,-2.06506,0
69.1152,-36.9453,-2.03869,0
60.9112,-71.2878,-0.301379,0
61.7192,-72.0348,-0.298669,0
60.9561,-68.5312,-0.609683,174
63.5432,-73.6763,-0.293293,0
64.5176,-74.4469,-0.299826,0
65.6095,-75.3495,-0.301403,0
61.9759,-66.5217,-0.91887,174
62.2024,-66.0531,-0.987469,174
62.7261,-66.153,-1.02081,174
64.4554,-65.725,-1.19924,174
64.8243,-65.5001,-1.24819,174
65.4159,-65.5688,-1.28373,174
68.7147,-69.0365,-1.1839,174
69.2186,-68.7788,-1.24191,174
76.6552,-70.112,-1.57224,174
64.8175,-59.3939,-1.79218,174
65.0211,-59.1386,-1.82273,174
65.2274,-58.8852,-1.85249,174
65.5534,-58.7167,-1.88107,174
70.5739,-61.7379,-1.90312,174
67.7613,-59.3588,-1.93949,174
73.2338,-62.2752,-1.9879,174
75.4052,-62.9308,-2.04002,0
75.1156,-62.1096,-2.08036,0
67.3578,-57.4263,-2.04823,174
69.2833,-57.9824,-2.09292,174
68.3653,-57.1188,-2.10665,174
68.372,-56.7187,-2.1292,174
68.5642,-56.4019,-2.15337,174
71.136,-56.9873,-2.21758,0
70.7619,-56.4003,-2.23301,0
69.2869,-55.48,-2.22449,174
70.2663,-55.3828,-2.26241,0
70.1023,-54.9253,-2.27626,0
69.9336,-54.4802,-2.28851,0
69.7084,-54.0354,-2.29801,0
66.2952,-52.963,-2.22729,174
69.3416,-53.2054,-2.31485,0
69.1104,-52.8014,-2.32011,0
68.8783,-52.4109,-2.32409,0
68.6536,-52.0343,-2.32709,0
68.476,-51.6741,-2.33028,0
66.3511,-51.2109,-2.2767,174
68.1125,-50.9818,-2.33339,0
68.0173,-50.6505,-2.33606,0
67.9568,-50.3233,-2.33891,0
67.9547,-49.9966,-2.34271,0
67.9465,-49.6698,-2.34555,0
67.9323,-49.343,-2.34743,0
67.912,-49.0162,-2.34836,0
67.8857,-48.6895,-2.34833,0
67.8545,-48.3628,-2.34737,0
67.824,-48.035,-2.34565,0
67.7617,-47.7124,-2.34218,0
67.6903,-47.3917,-2.33766,0
67.6126,-47.0726,-2.33216,0
67.5286,-46.755,-2.3257,0
67.4382,-46.4393,-2.31827,0
67.324,-46.1311,-2.30937,0
67.2898,-45.7951,-2.30196,0
67.3737,-45.4097,-2.297,0
66.7812,-45.2911,-2.27251,174
65.0836,-45.6826,-2.21848,174
67.5516,-44.2196,-2.27379,0
67.5956,-43.8078,-2.26342,0
67.6436,-43.3823,-2.25194,0
67.6802,-42.9503,-2.23892,0
67.6755,-42.5292,-2.22368,0
66.8589,-42.5992,-2.19028,174
67.6348,-41.6723,-2.18858,0
66.3398,-42.0996,-2.14602,174
67.7027,-40.6871,-2.14963,0
67.8721,-40.0646,-2.12953,0
68.0323,-39.4188,-2.10694,0
65.1312,-41.2931,-2.04788,174
68.6659,-37.7545,-2.05666,0
69.3641,-36.4983,-2.02862,0
61.1559,-71.469,-0.305676,0
62.0791,-72.4937,-0.28322,0
63.0023,-73.3537,-0.277536,0
63.8287,-73.8442,-0.301638,0
64.9369,-74.8787,-0.291476,0
65.9816,-75.627,-0.304797,0
62.0221,-66.2977,-0.946466,174
62.3254,-65.9876,-1.00465,174
64.3161,-66.0307,-1.15863,174
64.5544,-65.6108,-1.21774,174
65.0101,-65.5062,-1.26095,174
65.59,-65.5499,-1.29771,174
68.8491,-68.9042,-1.20545,174
69.6391,-68.9858,-1.25067,174
65.2823,-60.0749,-1.76285,174
64.8867,-59.3071,-1.80264,174
65.0905,-59.052,-1.83293,174
65.3186,-58.8146,-1.86232,174
66.1582,-59.0053,-1.88926,174
70.8578,-61.7367,-1.91654,174
72.8937,-62.4714,-1.95925,174
67.0478,-58.33,-1.97729,174
75.2491,-62.6149,-2.05378,0
66.8174,-57.3974,-2.0276,174
67.443,-57.3358,-2.05721,174
68.5592,-57.4832,-2.09332,174
68.33,-56.965,-2.11396,174
68.4306,-56.6086,-2.13739,174
68.7429,-56.3388,-2.16326,174
69.2972,-56.1493,-2.19299,174
70.6372,-56.208,-2.23777,0
69.2449,-55.3326,-2.22972,174
70.2112,-55.226,-2.2673,0
70.0455,-54.7728,-2.28059,0
69.8724,-54.3311,-2.29226,0
69.6235,-53.886,-2.3007,0
66.347,-52.8717,-2.23201,174
69.2631,-53.0666,-2.31678,0
69.0316,-52.6672,-2.3216,0
68.7993,-52.2812,-2.32517,0
68.5936,-51.9109,-2.32829,0
68.415,-51.5538,-2.33111,0
66.3706,-51.1135,-2.2792,174
68.0554,-50.8681,-2.33367,0
67.9965,-50.5391,-2.33711,0
67.9567,-50.2124,-2.3403,0
67.9526,-49.8856,-2.34377,0
67.9423,-49.5588,-2.3463,0
67.9261,-49.232,-2.34785,0
67.9037,-48.9052,-2.34845,0
67.8754,-48.5786,-2.3481,0
67.8448,-48.2515,-2.3469,0
67.8053,-47.9249,-2.34464,0
67.7381,-47.6033,-2.34075,0
67.6646,-47.2831,-2.3359,0
67.5848,-46.9645,-2.33008,0
67.4985,-46.6476,-2.32328,0
67.4047,-46.3328,-2.31548,0
67.2839,-46.0271,-2.30612,0
67.3191,-45.6651,-2.30041,0
67.4007,-45.277,-2.29504,0
66.7318,-45.193,-2.26827,174
65.0794,-45.5794,-2.21557,174
67.5673,-44.0806,-2.27041,0
67.6091,-43.6662,-2.25959,0
67.6736,-43.2275,-2.24808,0
67.6798,-42.8079,-2.2339,0
64.3917,-44.3446,-2.14753,174
67.0126,-42.3607,-2.18785,174
67.6236,-41.5249,-2.18201,0
66.2541,-42.0149,-2.13829,174
67.7612,-40.4783,-2.14308,0
67.9277,-39.8479,-2.12215,0
64.1002,-42.4125,-2.04941,174
65.0435,-41.2171,-2.03935,174
68.894,-37.3455,-2.04768,0
69.7002,-35.9596,-2.01836,0
60.6847,-71.1186,-0.297424,0
61.4053,-71.6521,-0.31009,0
62.4552,-72.9707,-0.267179,0
63.2781,-73.519,-0.285568,0
64.1359,-74.0519,-0.307492,0
65.268,-75.0946,-0.298141,0
61.9609,-66.7986,-0.888296,174
65.2895,-60.3802,-1.63132,174
64.7501,-59.4697,-1.68254,174
64.9571,-59.2175,-1.71329,174
65.1642,-58.9652,-1.74323,174
65.4442,-58.7651,-1.7714,174
67.8732,-60.0465,-1.77586,174
67.9498,-59.6266,-1.8105,174
67.9188,-59.1486,-1.84411,174
66.8939,-58.0964,-1.87925,174
72.7366,-60.9779,-1.89802,0
66.7515,-57.2303,-1.93246,174
69.263,-58.1137,-1.96267,174
66.582,-56.4064,-1.97853,174
68.3785,-56.8495,-2.01024,174
68.5123,-56.5078,-2.03394,174
68.8632,-56.2508,-2.05865,174
69.171,-55.9664,-2.08259,0
68.9323,-55.4889,-2.09966,0
68.7593,-55.0502,-2.11574,0
68.5862,-54.6259,-2.13022,0
68.5196,-54.2429,-2.14483,0
65.4329,-53.16,-2.10932,174
66.297,-53.0614,-2.13467,174
68.2137,-53.1182,-2.17965,0
68.0222,-52.7453,-2.18725,0
67.8778,-52.3907,-2.19456,0
67.7298,-52.0447,-2.2007,0
67.5783,-51.707,-2.20572,0
66.3685,-51.3084,-2.18718,174
66.6159,-51.0292,-2.19839,174
67.1683,-50.7445,-2.21585,0
67.1752,-50.4367,-2.22063,0
67.1747,-50.1288,-2.22446,0
67.167,-49.8208,-2.22736,0
67.152,-49.513,-2.22929,0
67.1296,-49.2056,-2.23028,0
67.0999,-48.8986,-2.23033,0
67.0527,-48.5938,-2.22917,0
66.987,-48.2924,-2.2268,0
66.9141,-47.993,-2.22348,0
66.8337,-47.6959,-2.21921,0
66.7463,-47.4013,-2.21402,0
66.6516,-47.1094,-2.20788,0
66.5499,-46.8203,-2.20082,0
66.4626,-46.5275,-2.19331,0
66.3693,-46.2364,-2.18489,0
66.269,-45.9476,-2.17555,0
66.323,-45.5966,-2.16847,0
65.0517,-45.8042,-2.13505,174
66.4174,-44.8726,-2.15095,0
66.4534,-44.5012,-2.14034,0
66.4512,-44.1391,-2.12794,0
66.4314,-43.778,-2.11415,0
66.0297,-43.6283,-2.09379,174
64.2982,-44.3011,-2.05624,174
66.3389,-42.6625,-2.0652,0
66.2902,-42.2837,-2.04617,0
66.2401,-41.8962,-2.0258,0
66.1844,-41.502,-2.00398,0
66.1172,-41.1058,-1.98065,0
64.0241,-42.358,-1.95068,174
65.0453,-41.0831,-1.92902,174
60.0041,-45.1692,-1.9134,174
66.2455,-39.0179,-1.86925,0
66.2778,-38.4345,-1.83538,0
66.6627,-37.4561,-1.795,0
59.1799,-65.9673,-0.60067,174
60.5152,-68.586,-0.422008,174
60.9179,-68.3821,-0.483729,174
62.2757,-70.5187,-0.361149,0
63.0903,-71.1203,-0.364948,0
63.9623,-71.7479,-0.369479,0
61.9632,-66.4605,-0.795616,174
62.2075,-66.0297,-0.863756,174
62.6605,-66.0024,-0.903055,174
63.8047,-67.1403,-0.868049,174
68.685,-74.2047,-0.475978,0
64.3874,-66.3834,-0.99249,174
64.4463,-65.6846,-1.07004,174
64.8123,-65.4575,-1.11884,174
65.3938,-65.5143,-1.15202,174
66.2605,-65.9018,-1.16938,174
69.2008,-68.7282,-1.07499,174
73.5747,-72.9144,-0.934626,0
73.6418,-71.9567,-1.03008,0
73.6768,-71.0104,-1.12087,0
73.682,-70.0777,-1.20699,0
73.5583,-69.0643,-1.2918,0
73.115,-67.81,-1.37971,0
64.8342,-59.8279,-1.65623,174
64.8204,-59.3841,-1.69307,174
65.0274,-59.1318,-1.72355,174
65.2346,-58.8794,-1.75322,174
65.5971,-58.7371,-1.78015,174
70.558,-61.7123,-1.76128,174
67.74,-59.3335,-1.82365,174
72.9135,-62.0633,-1.82948,0
66.877,-57.9494,-1.8888,174
72.6894,-60.7573,-1.91111,0
66.849,-57.1524,-1.94092,174
69.3801,-58.0206,-1.97245,174
66.5839,-56.286,-1.98584,174
68.3916,-56.7193,-2.01819,174
68.5926,-56.4059,-2.04206,174
67.4412,-55.5754,-2.05235,174
69.0428,-55.7854,-2.0881,0
68.8743,-55.3385,-2.10532,0
68.699,-54.9041,-2.12081,0
68.5645,-54.4952,-2.13532,0
68.4953,-54.1141,-2.14947,0
68.4184,-53.739,-2.16229,0
66.2522,-52.9508,-2.13755,174
68.149,-52.9903,-2.18237,0
67.9734,-52.6239,-2.18986,0
67.828,-52.2722,-2.19677,0
67.6788,-51.9291,-2.20253,0
67.5261,-51.5943,-2.20718,0
66.3664,-51.2099,-2.1892,174
67.193,-50.9486,-2.2129,0
67.1715,-50.64,-2.21758,0
67.1759,-50.3322,-2.22204,0
67.173,-50.0242,-2.22555,0
67.1627,-49.7163,-2.22812,0
67.1452,-49.4086,-2.22974,0
67.1204,-49.1012,-2.23041,0
67.0883,-48.7945,-2.23012,0
67.0312,-48.4912,-2.22847,0
66.963,-48.1904,-2.22578,0
66.8876,-47.8918,-2.22214,0
66.8049,-47.5956,-2.21755,0
66.7149,-47.3019,-2.21203,0
66.6179,-47.0109,-2.20558,0
66.5205,-46.7208,-2.19837,0
66.4317,-46.4284,-2.19055,0
66.3359,-46.1381,-2.18182,0
66.2856,-45.83,-2.17322,0
66.3412,-45.4754,-2.16584,0
65.0392,-45.7057,-2.13184,174
66.4305,-44.7471,-2.14749,0
66.4589,-44.376,-2.13636,0
66.4456,-44.0168,-2.1234,0
66.4223,-43.6548,-2.10916,0
65.9988,-43.519,-2.08827,174
64.2506,-44.2185,-2.05092,174
66.3237,-42.5341,-2.05889,0
66.2711,-42.1547,-2.03938,0
66.2226,-41.7625,-2.01856,0
66.163,-41.3676,-1.99623,0
64.1575,-42.5062,-1.96483,174
65.1177,-41.314,-1.94535,174
66.2172,-39.9069,-1.91983,0
59.9838,-45.1018,-1.90843,174
66.2447,-38.8342,-1.85812,0
66.4068,-38.1111,-1.82224,0
66.797,-37.105,-1.78005,0
59.7182,-67.1551,-0.513241,174
60.6424,-68.4898,-0.445348,174
61.7709,-70.1451,-0.35818,0
62.5454,-70.7181,-0.362526,0
63.38,-71.3309,-0.366364,0
64.2717,-71.9661,-0.371271,0
62.0205,-66.2599,-0.822816,174
62.3247,-65.9539,-0.881627,174
62.8383,-66.0313,-0.913859,174
63.9374,-67.0639,-0.886426,174
69.149,-74.5286,-0.475773,0
64.3069,-65.9886,-1.02832,174
64.5461,-65.5723,-1.08868,174
64.9905,-65.4537,-1.13129,174
65.5409,-65.4608,-1.16707,174
69.1253,-69.2181,-1.02197,174
69.542,-68.8413,-1.08496,174
73.6011,-72.588,-0.96758,0
73.6571,-71.6339,-1.06144,0
66.2942,-63.0803,-1.44283,174
73.6774,-69.7644,-1.23519,0
73.3666,-68.5912,-1.32388,0
73.0375,-67.4662,-1.40574,0
64.6842,-59.5511,-1.67248,174
64.8907,-59.2984,-1.70352,174
65.0977,-59.0461,-1.73371,174
65.332,-58.8134,-1.76272,174
66.2279,-59.0432,-1.78337,174
67.8031,-59.6785,-1.80069,174
67.7627,-59.1946,-1.83467,174
67.0481,-58.3201,-1.86944,174
72.7738,-61.1844,-1.88539,0
66.7497,-57.352,-1.92443,174
67.3819,-57.2959,-1.95014,174
68.6392,-57.5129,-1.97903,174
66.7706,-56.2501,-1.99401,174
68.4369,-56.6035,-2.02622,174
68.6841,-56.308,-2.05019,174
67.5123,-55.4802,-2.05942,174
68.9864,-55.6322,-2.09415,0
68.8155,-55.1896,-2.11077,0
68.6381,-54.7594,-2.1257,0
68.5418,-54.3651,-2.14029,0
68.47,-53.986,-2.15398,0
68.3906,-53.6129,-2.16635,0
66.2957,-52.8583,-2.14187,174
68.0838,-52.8637,-2.18495,0
67.9245,-52.5035,-2.19235,0
67.7777,-52.1547,-2.19885,0
67.6273,-51.8144,-2.20423,0
67.4734,-51.4824,-2.20851,0
66.3838,-51.1124,-2.19155,174
67.1646,-50.8431,-2.21411,0
67.1738,-50.5355,-2.2192,0
67.1757,-50.2276,-2.22333,0
67.1703,-49.9196,-2.22653,0
67.1576,-49.6117,-2.22878,0
67.1376,-49.3041,-2.23008,0
67.1102,-48.997,-2.23042,0
67.0721,-48.691,-2.22972,0
67.0089,-48.3888,-2.22767,0
66.9383,-48.0887,-2.22465,0
66.8603,-47.7909,-2.22069,0
66.7752,-47.4955,-2.21578,0
66.6827,-47.2027,-2.20995,0
66.5833,-46.9127,-2.20319,0
66.491,-46.6213,-2.19581,0
66.3999,-46.3295,-2.18769,0
66.3019,-46.04,-2.17863,0
66.3053,-45.7103,-2.17084,0
65.1746,-45.8501,-2.14015,174
65.0831,-45.5815,-2.12957,174
66.4427,-44.6209,-2.14387,0
66.4555,-44.2544,-2.1321,0
66.4388,-43.8941,-2.11871,0
66.0961,-43.71,-2.09944,174
64.3505,-44.3746,-2.06127,174
66.3522,-42.7836,-2.07101,0
66.307,-42.4054,-2.05242,0
66.2555,-42.022,-2.03248,0
66.2036,-41.6287,-2.01114,0
66.1402,-41.233,-1.9883,0
64.059,-42.454,-1.9575,174
65.0319,-41.2368,-1.93697,174
66.2322,-39.7221,-1.91,0
66.2447,-39.1904,-1.87951,0
66.2421,-38.6493,-1.8467,0
66.5377,-37.7785,-1.80852,0
59.0486,-65.958,-0.58886,174
60.6371,-69.3764,-0.341052,0
60.7748,-68.4094,-0.46719,174
62.0279,-70.3361,-0.359665,0
62.8227,-70.9238,-0.363718,0
63.6763,-71.5441,-0.367907,0
61.9493,-66.7379,-0.763315,174
64.5673,-59.7305,-1.55108,174
64.7595,-59.4653,-1.58326,174
64.9644,-59.2115,-1.61407,174
65.1714,-58.9593,-1.64394,174
65.465,-58.7693,-1.67104,174
65.3583,-58.2952,-1.70566,174
67.7716,-59.4976,-1.69538,174
67.8365,-59.086,-1.72916,174
66.7384,-57.9946,-1.77507,174
69.7166,-59.2703,-1.77482,0
65.4676,-56.5406,-1.83995,174
69.2198,-58.0824,-1.84192,0
68.2474,-57.1848,-1.87391,174
68.3276,-56.8189,-1.89883,174
68.0402,-56.3038,-1.92262,0
67.7099,-55.7953,-1.94401,0
67.641,-55.4058,-1.96382,0
67.6141,-55.0401,-1.98237,0
67.5787,-54.6787,-1.99962,0
67.5354,-54.3219,-2.01557,0
67.4844,-53.9698,-2.03028,0
65.4131,-53.1516,-2.02592,174
67.3446,-53.2769,-2.05586,0
67.2115,-52.9289,-2.06628,0
67.0734,-52.5893,-2.07547,0
66.9309,-52.258,-2.08347,0
66.7839,-51.935,-2.09033,0
66.6366,-51.6206,-2.09613,0
66.5212,-51.3164,-2.10139,0
66.4015,-51.0184,-2.10564,0
66.3505,-50.7278,-2.11003,0
66.3566,-50.4396,-2.11447,0
66.356,-50.1512,-2.11803,0
66.3484,-49.8628,-2.1207,0
66.3341,-49.5745,-2.12249,0
66.2999,-49.2879,-2.12317,0
66.2537,-49.003,-2.12288,0
66.2005,-48.7197,-2.12169,0
66.1403,-48.4381,-2.11961,0
66.0733,-48.1584,-2.11665,0
65.9994,-47.8808,-2.1128,0
65.9187,-47.6055,-2.10809,0
65.8416,-47.3299,-2.10265,0
65.7671,-47.0536,-2.09649,0
65.6861,-46.7792,-2.08945,0
65.5985,-46.5068,-2.08154,0
65.5044,-46.2364,-2.07276,0
65.4039,-45.9683,-2.06313,0
65.0504,-45.8083,-2.04981,174
65.4409,-45.3224,-2.04396,0
65.4302,-45.0021,-2.03253,0
65.4106,-44.6794,-2.01998,0
65.3822,-44.3547,-2.0063,0
65.3445,-44.0282,-1.99145,0
64.2812,-44.317,-1.9709,174
65.244,-43.3696,-1.95822,0
65.1946,-43.0285,-1.93982,0
65.1418,-42.6813,-1.92014,0
65.0789,-42.3325,-1.89915,0
64.3106,-42.5248,-1.87991,174
64.0111,-42.3771,-1.85921,174
64.8185,-41.2879,-1.82817,0
59.9935,-45.1847,-1.8568,174
59.8962,-45.0205,-1.84183,174
64.6476,-40.0602,-1.74172,0
64.5933,-39.6157,-1.70882,0
59.1319,-65.7742,-0.502003,174
60.1999,-67.6496,-0.369523,0
60.7789,-67.9707,-0.383005,0
61.3808,-68.2856,-0.398122,0
61.9841,-68.543,-0.419128,0
62.6493,-68.8807,-0.434465,0
61.9506,-66.3996,-0.673083,174
62.2125,-66.0063,-0.740198,174
62.6133,-65.8854,-0.785042,174
63.1679,-66.0194,-0.810804,174
66.3533,-70.3812,-0.542927,0
67.2699,-70.79,-0.560719,0
64.4389,-65.6467,-0.941144,174
64.8022,-65.4176,-0.989835,174
65.2984,-65.3626,-1.02692,174
66.1821,-65.7777,-1.03638,174
69.1808,-68.6752,-0.908841,174
69.8916,-68.6505,-0.951423,0
65.026,-62.486,-1.30963,174
70.0548,-67.1938,-1.10583,0
69.9976,-66.3737,-1.18265,0
69.9709,-65.6229,-1.25289,0
70.0039,-64.9598,-1.31625,0
64.6737,-59.6758,-1.56071,174
64.8278,-59.378,-1.59387,174
65.0346,-59.1259,-1.62431,174
65.2418,-58.8736,-1.65389,174
65.6833,-58.7878,-1.67764,174
67.993,-59.9542,-1.6672,174
67.7353,-59.3191,-1.70799,174
69.9688,-60.2424,-1.71183,0
66.5081,-57.7252,-1.7875,174
69.6604,-59.0766,-1.78679,0
66.831,-57.1345,-1.83849,174
69.0711,-57.8593,-1.8525,0
68.2369,-57.0426,-1.88263,174
68.2735,-56.6602,-1.90713,0
67.9217,-56.1257,-1.93015,0
67.6715,-55.6562,-1.95088,0
67.6328,-55.2811,-1.97028,0
67.603,-54.9169,-1.98838,0
67.5649,-54.557,-2.00518,0
67.5189,-54.2018,-2.02071,0
65.4581,-53.3488,-2.01858,174
67.4044,-53.5057,-2.04804,0
66.29,-52.9548,-2.04929,174
67.1652,-52.8126,-2.06953,0
67.0255,-52.4758,-2.07832,0
66.8814,-52.1474,-2.08592,0
66.7331,-51.8272,-2.0924,0
66.598,-51.5166,-2.09803,0
66.4811,-51.2145,-2.10294,0
66.3598,-50.9186,-2.10687,0
66.3534,-50.63,-2.11163,0
66.3572,-50.3416,-2.11578,0
66.3542,-50.0532,-2.11904,0
66.3444,-49.7649,-2.1214,0
66.3266,-49.4768,-2.12287,0
66.2851,-49.191,-2.12317,0
66.2364,-48.9066,-2.12258,0
66.1809,-48.6238,-2.12109,0
66.1184,-48.3429,-2.1187,0
66.0489,-48.0639,-2.11544,0
65.9727,-47.787,-2.1113,0
65.8899,-47.5125,-2.10629,0
65.817,-47.2359,-2.10066,0
65.7404,-46.9602,-2.09419,0
65.657,-46.6865,-2.08686,0
65.5673,-46.4147,-2.07866,0
65.471,-46.1451,-2.06958,0
65.4021,-45.864,-2.06006,0
65.1714,-45.6515,-2.04788,174
65.4382,-45.2139,-2.0402,0
65.4245,-44.8927,-2.0284,0
65.402,-44.5693,-2.01547,0
65.3704,-44.244,-2.00138,0
65.3296,-43.9171,-1.98613,0
64.2098,-44.2494,-1.96549,174
65.2262,-43.2553,-1.95211,0
65.1778,-42.9108,-1.93329,0
65.1216,-42.563,-1.91316,0
65.0552,-42.2138,-1.89172,0
64.1247,-42.5404,-1.87336,174
64.8868,-41.5158,-1.84482,0
64.7813,-41.1709,-1.81939,0
59.9552,-45.1339,-1.85185,174
59.8746,-44.9532,-1.83641,174
64.6309,-39.9096,-1.73076,0
64.5713,-39.4642,-1.69721,0
59.2793,-65.8109,-0.511463,174
60.3876,-67.7414,-0.375519,0
60.9858,-68.0913,-0.386818,0
61.5832,-68.3734,-0.405138,0
62.2103,-68.6658,-0.423532,0
60.7155,-64.4403,-0.805876,174
62.0188,-66.2222,-0.699539,174
62.3241,-65.9202,-0.758924,174
62.769,-65.8773,-0.797685,174
62.4185,-64.4833,-0.932053,174
66.7423,-70.652,-0.539709,0
64.2986,-65.9479,-0.898409,174
64.5379,-65.534,-0.960052,174
64.9874,-65.4239,-1.00091,174
65.5057,-65.3901,-1.0367,174
66.4083,-65.812,-1.04615,174
69.4741,-68.7319,-0.919703,174
69.9684,-68.449,-0.976105,0
64.6489,-61.89,-1.3491,174
66.286,-63.0532,-1.31899,174
69.9727,-66.0992,-1.20776,0
69.9891,-65.401,-1.27458,0
64.5271,-59.8351,-1.53974,174
64.6966,-59.5491,-1.5731,174
64.898,-59.2924,-1.6043,174
65.105,-59.0402,-1.63445,174
65.3454,-58.8122,-1.66297,174
66.2984,-59.0814,-1.67634,174
67.7167,-59.6088,-1.68478,174
67.7594,-59.1813,-1.71937,174
67.0947,-58.3381,-1.76107,174
66.5522,-57.6188,-1.79653,174
65.4295,-56.63,-1.83268,174
67.3831,-57.2879,-1.84373,174
68.3246,-57.3526,-1.86522,174
68.2705,-56.9216,-1.89105,174
68.1531,-56.4752,-1.91524,0
67.8041,-55.951,-1.93739,0
67.648,-55.524,-1.95759,0
67.6237,-55.1569,-1.97657,0
67.5909,-54.7942,-1.99423,0
67.5502,-54.4358,-2.01059,0
67.5016,-54.0822,-2.0257,0
65.3674,-53.2307,-2.02183,174
67.382,-53.3894,-2.0522,0
67.2547,-53.0396,-2.06307,0
67.1183,-52.6973,-2.07266,0
66.9771,-52.3634,-2.08103,0
66.8315,-52.0377,-2.08824,0
66.6819,-51.7203,-2.09435,0
66.5587,-51.4133,-2.09981,0
66.4404,-51.1133,-2.10439,0
66.3472,-50.8202,-2.10842,0
66.3555,-50.5321,-2.11314,0
66.3569,-50.2437,-2.11698,0
66.3516,-49.9553,-2.11994,0
66.3395,-49.6669,-2.12201,0
66.3133,-49.3796,-2.12307,0
66.2693,-49.0942,-2.12307,0
66.2183,-48.8104,-2.12216,0
66.1603,-48.5282,-2.12037,0
66.0955,-48.2479,-2.11769,0
66.0238,-47.9696,-2.11413,0
65.9454,-47.6935,-2.10969,0
65.8642,-47.4188,-2.10445,0
65.7917,-47.142,-2.09856,0
65.7128,-46.867,-2.09181,0
65.6273,-46.5939,-2.08418,0
65.5353,-46.3228,-2.07568,0
65.4369,-46.054,-2.06632,0
65.104,-45.8832,-2.05342,174
65.4426,-45.4246,-2.04739,0
65.4345,-45.105,-2.03632,0
65.4178,-44.7831,-2.02414,0
65.3923,-44.459,-2.01081,0
65.3576,-44.1331,-1.99633,0
64.334,-44.3899,-1.97588,174
65.2599,-43.4772,-1.96386,0
65.2094,-43.1395,-1.94586,0
65.1598,-42.7929,-1.9266,0
65.1002,-42.4445,-1.90603,0
65.0302,-42.0949,-1.88413,0
64.0398,-42.4779,-1.86629,174
64.8523,-41.3985,-1.83633,0
60.0422,-45.2213,-1.86127,174
59.9175,-45.0826,-1.84683,174
64.6618,-40.2021,-1.75186,0
64.6123,-39.7586,-1.71958,0
59.025,-65.8357,-0.484033,174
60.025,-67.5625,-0.363971,0
60.5864,-67.8569,-0.379518,0
61.1921,-68.2024,-0.391608,0
61.7881,-68.4608,-0.412277,0
62.4516,-68.8139,-0.426012,0
60.8676,-64.4729,-0.814404,174
64.577,-59.7261,-1.45151,174
64.7751,-59.466,-1.48363,174
64.9717,-59.2056,-1.51478,174
65.1786,-58.9535,-1.54459,174
65.5008,-58.7843,-1.56992,174
65.3359,-58.2695,-1.60882,174
68.3688,-59.878,-1.56374,0
68.1993,-59.3011,-1.60557,0
68.0109,-58.7374,-1.64472,0
67.7931,-58.1814,-1.68146,0
65.3568,-56.4741,-1.74989,174
67.2634,-57.094,-1.74773,0
67.03,-56.6026,-1.77637,0
66.8294,-56.1471,-1.80229,0
66.7072,-55.7428,-1.82545,0
66.7072,-55.3994,-1.84609,0
66.699,-55.0591,-1.86549,0
66.6827,-54.7221,-1.88367,0
66.6586,-54.3887,-1.90066,0
66.6219,-54.0577,-1.91646,0
66.5605,-53.7262,-1.93108,0
66.492,-53.3999,-1.94452,0
66.3912,-53.0736,-1.95673,0
66.2806,-52.7534,-1.96775,0
66.1649,-52.4402,-1.97761,0
66.054,-52.1353,-1.98641,0
65.9635,-51.8399,-1.9943,0
65.868,-51.5499,-2.00118,0
65.7677,-51.2651,-2.00709,0
65.6629,-50.9858,-2.01205,0
65.6291,-50.7131,-2.01668,0
65.6347,-50.4421,-2.02083,0
65.6328,-50.171,-2.02414,0
65.6102,-49.9006,-2.02649,0
65.581,-49.6312,-2.02799,0
65.5451,-49.3628,-2.02866,0
65.5026,-49.0956,-2.02849,0
65.4536,-48.8299,-2.02748,0
65.398,-48.5658,-2.02564,0
65.336,-48.3034,-2.02298,0
65.2698,-48.0425,-2.0195,0
65.2121,-47.7799,-2.01533,0
65.148,-47.5187,-2.01034,0
65.0778,-47.2591,-2.00452,0
65.0014,-47.0012,-1.99788,0
64.9189,-46.7451,-1.99042,0
64.8303,-46.491,-1.98215,0
64.7357,-46.2391,-1.97306,0
64.653,-45.9818,-1.96324,0
64.6327,-45.6948,-1.95277,0
64.6174,-45.4001,-1.94131,0
64.5952,-45.103,-1.92884,0
64.5662,-44.8035,-1.91531,0
63.8879,-44.8706,-1.90224,174
64.3275,-44.2944,-1.88564,174
64.4189,-43.903,-1.86835,0
64.2915,-43.6425,-1.85096,0
64.1806,-43.3681,-1.83248,0
64.1095,-43.0602,-1.81249,0
64.0287,-42.7526,-1.79134,0
63.9376,-42.4457,-1.76904,0
63.8363,-42.1401,-1.74559,0
59.9896,-45.194,-1.8003,174
59.8767,-45.0451,-1.78546,174
63.4332,-41.2715,-1.66938,0
63.2806,-40.9871,-1.64179,0
59.1312,-65.7252,-0.39153,0
59.5978,-65.9161,-0.40943,0
60.1093,-66.1804,-0.42069,0
60.616,-66.3802,-0.438742,0
61.1389,-66.5731,-0.457873,0
60.3128,-63.8352,-0.738416,174
60.9342,-64.3142,-0.726986,174
62.2176,-65.983,-0.616777,174
62.5988,-65.828,-0.66381,174
62.3397,-64.5766,-0.797698,174
62.7204,-64.4676,-0.836775,174
64.3922,-66.3325,-0.72548,174
64.4252,-65.5998,-0.813321,174
65.0685,-65.7619,-0.833797,174
65.3567,-65.4149,-0.890114,174
66.3773,-65.9988,-0.882131,0
66.752,-65.7268,-0.932282,0
66.9534,-65.2538,-0.993893,0
64.9988,-62.4381,-1.19655,174
64.8687,-61.756,-1.26157,174
66.5165,-62.8833,-1.22073,174
67.382,-63.1403,-1.23234,0
64.5185,-59.9642,-1.42625,174
64.6763,-59.6653,-1.46114,174
64.8417,-59.3773,-1.49433,174
65.0419,-59.12,-1.52501,174
65.249,-58.8677,-1.55451,174
65.7898,-58.8528,-1.57308,174
65.3581,-58.1533,-1.61922,174
68.3195,-59.6845,-1.57811,0
68.1362,-59.1074,-1.6192,0
66.5401,-57.7346,-1.68456,174
67.6877,-57.9809,-1.6938,0
67.4186,-57.4315,-1.72741,0
67.1841,-56.9246,-1.75774,0
66.9509,-56.4406,-1.78554,0
66.7749,-56.0026,-1.81048,0
66.7082,-55.6258,-1.83259,0
66.7053,-55.2834,-1.85281,0
66.6943,-54.9443,-1.8718,0
66.6754,-54.6085,-1.88957,0
66.6486,-54.2764,-1.90615,0
66.602,-53.9446,-1.92155,0
65.3619,-53.3208,-1.93481,174
66.4613,-53.289,-1.9488,0
66.3543,-52.9641,-1.9606,0
66.242,-52.6462,-1.97122,0
66.1245,-52.3354,-1.9807,0
66.0238,-52.0344,-1.9892,0
65.9316,-51.7408,-1.99674,0
65.8344,-51.4526,-2.0033,0
65.7326,-51.1696,-2.00888,0
65.6263,-50.8921,-2.01352,0
65.6317,-50.6211,-2.01819,0
65.6352,-50.35,-2.02205,0
65.6259,-50.0791,-2.02503,0
65.601,-49.809,-2.0271,0
65.5695,-49.5399,-2.02832,0
65.5314,-49.2719,-2.02869,0
65.4866,-49.0052,-2.02824,0
65.4354,-48.74,-2.02695,0
65.3777,-48.4765,-2.02483,0
65.3136,-48.2147,-2.02189,0
65.2509,-47.9531,-2.01819,0
65.191,-47.691,-2.01373,0
65.1249,-47.4304,-2.00846,0
65.0526,-47.1713,-2.00236,0
64.9741,-46.914,-1.99544,0
64.8895,-46.6586,-1.9877,0
64.7989,-46.4052,-1.97916,0
64.7041,-46.1533,-1.96981,0
64.6392,-45.8879,-1.95977,0
64.6283,-45.595,-1.94899,0
64.6106,-45.2995,-1.93719,0
64.5862,-45.0016,-1.92436,0
64.5546,-44.7013,-1.91049,0
63.8449,-44.7916,-1.89744,174
64.2523,-44.2288,-1.88041,174
64.3765,-43.8142,-1.86254,0
64.2464,-43.5548,-1.84486,0
64.1576,-43.2635,-1.82581,0
64.0833,-42.9557,-1.80543,0
63.9989,-42.6483,-1.78389,0
63.9043,-42.3417,-1.76121,0
60.0979,-45.2624,-1.80912,174
59.95,-45.1447,-1.79536,174
59.8388,-44.9938,-1.78026,174
63.3816,-41.1755,-1.66015,0
63.2544,-40.8622,-1.63129,0
59.2725,-65.7448,-0.402071,174
59.7625,-65.9875,-0.414963,0
60.2797,-66.249,-0.426696,0
60.0529,-64.6897,-0.608236,174
61.3202,-66.637,-0.464621,0
60.4316,-63.813,-0.750648,174
62.0217,-66.1934,-0.575862,174
62.3234,-65.8867,-0.636525,174
62.7123,-65.746,-0.681946,174
62.4227,-64.4631,-0.817125,174
63.2109,-65.0024,-0.805719,174
64.2743,-65.8831,-0.77075,174
64.5318,-65.4987,-0.831612,174
65.3946,-65.9548,-0.831092,174
65.5221,-65.3867,-0.902709,174
66.508,-65.911,-0.899001,0
66.8334,-65.5796,-0.95258,0
64.8744,-62.6738,-1.16544,174
64.6362,-61.8591,-1.23992,174
66.1494,-62.8943,-1.20312,174
67.2316,-63.3894,-1.201,0
64.044,-59.8179,-1.42117,174
64.5368,-59.8307,-1.43989,174
64.7122,-59.5498,-1.47342,174
64.9083,-59.2887,-1.50492,174
65.1122,-59.0344,-1.53513,174
65.3588,-58.8111,-1.56305,174
66.3754,-59.1241,-1.56795,174
68.3943,-60.049,-1.5504,0
68.2582,-59.4862,-1.59239,0
68.0721,-58.916,-1.63248,0
67.8788,-58.3661,-1.6697,0
65.3177,-56.5619,-1.74266,174
67.3384,-57.2564,-1.73801,0
67.1048,-56.7578,-1.76746,0
66.8805,-56.2851,-1.79435,0
66.7201,-55.8598,-1.81844,0
66.7081,-55.5092,-1.83961,0
66.7025,-55.1679,-1.8594,0
66.6888,-54.8298,-1.87797,0
66.6672,-54.4953,-1.89534,0
66.6378,-54.1644,-1.91152,0
66.581,-53.832,-1.92652,0
66.5147,-53.504,-1.94033,0
66.4255,-53.1778,-1.95295,0
66.3166,-52.8553,-1.96433,0
66.2026,-52.5398,-1.97456,0
66.0836,-52.2315,-1.98367,0
65.993,-51.9341,-1.99188,0
65.8991,-51.6423,-1.99908,0
65.8004,-51.3558,-2.0053,0
65.697,-51.0748,-2.01056,0
65.626,-50.8,-2.01518,0
65.6336,-50.5291,-2.01959,0
65.6348,-50.2579,-2.02317,0
65.6182,-49.9872,-2.02583,0
65.5911,-49.7175,-2.02759,0
65.5573,-49.4487,-2.02854,0
65.517,-49.1812,-2.02863,0
65.47,-48.915,-2.02789,0
65.4166,-48.6503,-2.02632,0
65.3566,-48.3873,-2.02392,0
65.2903,-48.1263,-2.0207,0
65.2313,-47.864,-2.01676,0
65.1692,-47.6024,-2.01203,0
65.101,-47.3422,-2.00647,0
65.0266,-47.0837,-2.00009,0
64.9461,-46.827,-1.9929,0
64.8595,-46.5723,-1.98489,0
64.7667,-46.3196,-1.97608,0
64.6781,-46.065,-1.96648,0
64.6362,-45.7887,-1.95622,0
64.623,-45.4949,-1.9451,0
64.6031,-45.1986,-1.93296,0
64.5762,-44.8998,-1.91977,0
64.5423,-44.5989,-1.90552,0
63.8234,-44.6995,-1.89248,174
64.4522,-43.991,-1.87376,0
64.3332,-43.7257,-1.85664,0
64.2013,-43.4668,-1.83865,0
64.1334,-43.1589,-1.81901,0
64.0557,-42.8512,-1.79824,0
63.9679,-42.544,-1.77632,0
63.8699,-42.2379,-1.75324,0
60.0317,-45.2363,-1.80482,174
59.9123,-45.0935,-1.7903,174
59.824,-44.9199,-1.77439,174
63.3287,-41.0799,-1.65081,0
58.9789,-65.6448,-0.387814,0
59.4466,-65.8553,-0.4036,0
59.9452,-66.1017,-0.416408,0
60.4518,-66.3168,-0.432834,0
60.9694,-66.512,-0.451618,0
61.5046,-66.7025,-0.471271,0
60.7229,-64.1441,-0.731894,174
64.5866,-59.7217,-1.35183,174
62.6584,-57.681,-1.49173,174
64.9868,-59.2058,-1.41506,174
64.8621,-58.7013,-1.45918,174
65.6071,-58.8503,-1.4654,174
65.3828,-58.2917,-1.50986,174
66.6395,-58.7319,-1.50073,0
66.6356,-58.3161,-1.53579,0
66.4797,-57.8224,-1.57312,0
66.3115,-57.3425,-1.60806,0
63.6807,-55.5795,-1.69869,174
66.0477,-56.4782,-1.66885,0
65.929,-56.0765,-1.69577,0
63.1159,-54.4969,-1.76783,174
65.8726,-55.39,-1.74108,0
65.8799,-55.0725,-1.76109,0
65.872,-54.7548,-1.78005,0
65.8454,-54.4365,-1.79799,0
65.8112,-54.122,-1.81477,0
65.7698,-53.8115,-1.83041,0
65.7215,-53.5052,-1.84494,0
65.6532,-53.2002,-1.85844,0
65.5659,-52.8976,-1.87091,0
65.4904,-52.6043,-1.8822,0
65.4226,-52.3181,-1.89241,0
65.3495,-52.0366,-1.90164,0
65.2713,-51.7596,-1.90989,0
65.1882,-51.4873,-1.9172,0
65.1003,-51.2197,-1.92358,0
65.008,-50.9568,-1.92906,0
64.9809,-50.7,-1.93371,0
64.973,-50.4445,-1.93758,0
64.9587,-50.1895,-1.94066,0
64.9384,-49.9351,-1.94295,0
64.9141,-49.6813,-1.94445,0
64.8841,-49.4284,-1.94517,0
64.8484,-49.1763,-1.9451,0
64.8071,-48.9254,-1.94425,0
64.7602,-48.6756,-1.94262,0
64.6975,-48.429,-1.94019,0
64.647,-48.1805,-1.93701,0
64.5924,-47.9329,-1.93305,0
64.5319,-47.6865,-1.92832,0
64.4655,-47.4416,-1.92282,0
64.3932,-47.1983,-1.91654,0
64.3152,-46.9568,-1.90947,0
64.2316,-46.7172,-1.90166,0
64.1594,-46.4727,-1.89302,0
64.0859,-46.2276,-1.88357,0
64.0067,-45.9836,-1.87332,0
63.9752,-45.7151,-1.86193,0
63.9487,-45.4393,-1.84951,0
63.9155,-45.1618,-1.83612,0
63.8756,-44.8826,-1.82174,0
63.8287,-44.6019,-1.80635,0
63.7188,-44.3557,-1.79072,0
63.5982,-44.1145,-1.77433,0
63.4705,-43.8763,-1.75712,0
63.3357,-43.6415,-1.73913,0
63.2095,-43.3982,-1.72,0
63.119,-43.1228,-1.69896,0
60.1722,-45.2879,-1.75618,174
59.9858,-45.2033,-1.74392,174
59.8716,-45.0561,-1.72903,174
59.802,-44.8638,-1.71181,174
62.4842,-41.8216,-1.58049,0
58.6248,-64.1547,-0.446413,0
59.0571,-64.3638,-0.45634,0
59.5045,-64.5677,-0.467248,0
59.9671,-64.7656,-0.479172,0
60.353,-64.7476,-0.512902,0
60.2674,-63.7072,-0.6452,174
60.9573,-64.33,-0.614855,174
61.7152,-64.9956,-0.582824,0
62.3091,-65.2763,-0.588029,0
62.7567,-65.2587,-0.620373,0
63.1246,-65.0935,-0.664997,0
63.4571,-64.8698,-0.713508,0
63.7795,-64.6317,-0.761945,0
64.0911,-64.3797,-0.810197,0
62.3958,-61.4786,-1.06489,174
64.6797,-63.8367,-0.905827,0
64.9554,-63.5463,-0.953044,0
65.2113,-63.2366,-1.00031,0
65.0386,-62.4633,-1.07898,174
64.5345,-61.3909,-1.17516,174
65.981,-62.3325,-1.13212,0
66.214,-62.0134,-1.17459,0
63.9765,-59.4598,-1.35746,174
64.6789,-59.6549,-1.36158,174
64.8574,-59.3781,-1.39452,174
62.8642,-57.3976,-1.5253,174
64.9785,-58.6541,-1.46675,174
65.9616,-58.9642,-1.46417,174
65.4249,-58.1886,-1.51992,174
66.6394,-58.5901,-1.51284,0
66.5885,-58.1496,-1.5486,0
66.423,-57.6574,-1.58527,0
66.2535,-57.1837,-1.61936,0
66.1233,-56.7502,-1.65003,0
66.0079,-56.3404,-1.67821,0
65.8877,-55.9429,-1.70448,0
65.8634,-55.6009,-1.72724,0
65.8759,-55.2819,-1.74801,0
65.8806,-54.9652,-1.76762,0
65.8639,-54.6463,-1.78627,0
65.8346,-54.3292,-1.80382,0
65.798,-54.0161,-1.82021,0
65.7542,-53.707,-1.83547,0
65.7035,-53.4022,-1.84962,0
65.6242,-53.0968,-1.8628,0
65.535,-52.7962,-1.87489,0
65.468,-52.5066,-1.88578,0
65.3984,-52.222,-1.89567,0
65.3235,-51.942,-1.90455,0
65.2436,-51.6666,-1.91248,0
65.1588,-51.3959,-1.91946,0
65.0695,-51.1299,-1.92554,0
64.9813,-50.8688,-1.93072,0
64.979,-50.6131,-1.93511,0
64.9688,-50.3578,-1.93871,0
64.9525,-50.103,-1.94153,0
64.9309,-49.8488,-1.94355,0
64.9045,-49.5953,-1.94479,0
64.8726,-49.3427,-1.94524,0
64.835,-49.091,-1.9449,0
64.7918,-48.8404,-1.94379,0
64.7422,-48.5912,-1.94189,0
64.6799,-48.3447,-1.9392,0
64.6291,-48.0963,-1.93576,0
64.5725,-47.849,-1.93154,0
64.5099,-47.6032,-1.92654,0
64.4416,-47.3588,-1.92077,0
64.3674,-47.1161,-1.91422,0
64.2875,-46.8752,-1.90691,0
64.2048,-46.6351,-1.89882,0
64.1351,-46.3893,-1.88989,0
64.0596,-46.1446,-1.88018,0
63.9892,-45.896,-1.8696,0
63.9669,-45.6216,-1.85782,0
63.9382,-45.3453,-1.84508,0
63.9027,-45.0672,-1.83135,0
63.8605,-44.7874,-1.81663,0
63.7945,-44.5166,-1.80111,0
63.6786,-44.2735,-1.78524,0
63.5556,-44.0332,-1.76857,0
63.4255,-43.7962,-1.75111,0
63.2884,-43.5626,-1.73283,0
63.1798,-43.3045,-1.71298,0
63.0862,-43.0296,-1.69158,0
60.0873,-45.2773,-1.75266,174
59.9451,-45.1551,-1.73899,174
59.8338,-45.0049,-1.72379,174
62.5823,-41.9873,-1.59742,0
62.4341,-41.7351,-1.57154,0
58.7699,-64.2262,-0.449679,0
59.2073,-64.4337,-0.459933,0
59.66,-64.6357,-0.471174,0
60.1024,-64.7712,-0.489513,0
60.482,-64.7332,-0.525046,0
60.3763,-63.6668,-0.658879,174
61.3324,-64.7991,-0.580856,0
61.9151,-65.0934,-0.584284,0
62.4991,-65.3395,-0.592863,0
62.8873,-65.2124,-0.634792,0
63.2387,-65.0191,-0.681481,0
63.5677,-64.7905,-0.729968,0
63.8866,-64.5476,-0.778356,0
64.1944,-64.2911,-0.826535,0
64.4906,-64.0216,-0.874421,0
64.7748,-63.7395,-0.921911,0
65.0437,-63.4423,-0.969177,0
62.7294,-60.2388,-1.22437,174
64.6196,-61.8241,-1.13141,174
64.5715,-61.2574,-1.19113,174
66.0615,-62.2251,-1.14663,0
63.9934,-59.7574,-1.3275,174
64.5471,-59.8267,-1.33991,174
64.7278,-59.5506,-1.37352,174
64.9239,-59.2894,-1.40515,174
62.9289,-57.3355,-1.53301,174
65.4007,-58.8308,-1.46178,174
65.3471,-58.3923,-1.50006,174
65.4123,-58.0494,-1.53174,174
66.638,-58.4489,-1.52473,0
66.5328,-57.9803,-1.56135,0
66.3659,-57.4944,-1.59713,0
63.6158,-55.6371,-1.69327,174
66.0846,-56.6096,-1.65983,0
65.9676,-56.204,-1.68734,0
65.8506,-55.8128,-1.7129,0
65.8686,-55.4923,-1.73443,0
65.8784,-55.1741,-1.75479,0
65.879,-54.8577,-1.77405,0
65.8548,-54.5381,-1.79236,0
65.823,-54.2224,-1.80951,0
65.7839,-53.9106,-1.82552,0
65.7377,-53.603,-1.8404,0
65.6801,-53.2985,-1.8542,0
65.5945,-52.994,-1.86703,0
65.5109,-52.697,-1.87871,0
65.4449,-52.4094,-1.88924,0
65.3735,-52.1264,-1.89879,0
65.297,-51.8479,-1.90736,0
65.2154,-51.5741,-1.91496,0
65.129,-51.305,-1.92163,0
65.038,-51.0406,-1.9274,0
64.9821,-50.782,-1.9323,0
64.9762,-50.5264,-1.93643,0
64.9641,-50.2712,-1.93976,0
64.9455,-50.0166,-1.9423,0
64.9226,-49.7626,-1.94405,0
64.8944,-49.5094,-1.94502,0
64.8605,-49.2571,-1.94521,0
64.821,-49.0057,-1.94461,0
64.7759,-48.7555,-1.94323,0
64.7195,-48.5076,-1.94106,0
64.6634,-48.2602,-1.93812,0
64.6105,-48.0121,-1.93441,0
64.5519,-47.7654,-1.92993,0
64.4873,-47.52,-1.92466,0
64.417,-47.2762,-1.91863,0
64.3409,-47.0341,-1.91182,0
64.259,-46.7938,-1.90425,0
64.1817,-46.5515,-1.89588,0
64.1101,-46.3061,-1.88669,0
64.0327,-46.0617,-1.8767,0
63.9823,-45.803,-1.8657,0
63.9579,-45.528,-1.8536,0
63.9269,-45.251,-1.84052,0
63.8891,-44.9723,-1.82646,0
63.8445,-44.6921,-1.8114,0
63.7559,-44.4337,-1.79581,0
63.6377,-44.1915,-1.77967,0
63.5122,-43.9523,-1.76273,0
63.3797,-43.7164,-1.74498,0
63.2402,-43.484,-1.72647,0
63.1491,-43.211,-1.70582,0
63.0523,-42.9365,-1.68409,0
60.0241,-45.2488,-1.74851,174
59.9072,-45.1044,-1.73391,174
59.8105,-44.9395,-1.71795,174
62.5323,-41.9018,-1.58876,0
58.4893,-64.0866,-0.443425,0
58.9168,-64.2972,-0.453049,0
59.3594,-64.5029,-0.463635,0
59.8171,-64.7029,-0.475231,0
60.1314,-64.5281,-0.524638,174
60.1851,-63.7896,-0.627855,174
60.7047,-64.076,-0.629519,174
63.7928,-59.0127,-1.30354,174
62.6442,-57.6592,-1.41318,174
62.8109,-57.4589,-1.43768,174
63.0146,-57.2864,-1.45943,174
65.5444,-58.7938,-1.36732,0
65.5769,-58.415,-1.40346,0
65.5129,-57.9836,-1.44166,0
65.429,-57.5556,-1.47819,0
65.3623,-57.1539,-1.51167,0
65.2887,-56.7622,-1.54322,0
63.645,-55.5542,-1.62249,174
65.1226,-56.009,-1.60082,0
65.0933,-55.6765,-1.62529,0
63.026,-54.4521,-1.69972,174
65.1121,-55.0687,-1.66789,0
65.1096,-54.7684,-1.68753,0
65.0995,-54.4709,-1.70608,0
65.0822,-54.1763,-1.72355,0
65.0577,-53.8848,-1.73996,0
65.0263,-53.5967,-1.75532,0
64.9848,-53.3112,-1.7697,0
64.9436,-53.0311,-1.78298,0
64.8945,-52.7542,-1.79527,0
64.8392,-52.4812,-1.8066,0
64.7784,-52.2122,-1.81697,0
64.7123,-51.9473,-1.82641,0
64.6409,-51.6865,-1.83491,0
64.5645,-51.43,-1.84253,0
64.498,-51.1787,-1.84915,0
64.4421,-50.9318,-1.85483,0
64.4291,-50.6887,-1.85939,0
64.4227,-50.4463,-1.86312,0
64.4109,-50.2044,-1.8661,0
64.3935,-49.963,-1.86833,0
64.3708,-49.7222,-1.8698,0
64.3427,-49.4821,-1.87054,0
64.3092,-49.2429,-1.87052,0
64.2668,-49.0052,-1.86979,0
64.21,-48.7703,-1.86835,0
64.1478,-48.5372,-1.86618,0
64.0899,-48.304,-1.86323,0
64.038,-48.0697,-1.85946,0
63.9807,-47.8366,-1.85497,0
63.9177,-47.6049,-1.84974,0
63.8493,-47.3747,-1.84378,0
63.7754,-47.1462,-1.83709,0
63.7129,-46.9132,-1.8295,0
63.6475,-46.6802,-1.82114,0
63.5766,-46.4483,-1.81202,0
63.5005,-46.2175,-1.80214,0
63.4187,-45.988,-1.79151,0
63.3772,-45.7366,-1.77939,0
63.3411,-45.4781,-1.7662,0
63.2987,-45.2183,-1.75209,0
63.2155,-44.9783,-1.73774,0
63.1077,-44.7509,-1.72297,0
62.9933,-44.5262,-1.70747,0
62.8724,-44.3045,-1.69121,0
62.745,-44.086,-1.67423,0
62.6112,-43.8708,-1.65653,0
62.471,-43.6592,-1.63813,0
60.1571,-45.3064,-1.6997,174
59.9819,-45.2126,-1.68765,174
59.8665,-45.067,-1.67274,174
59.793,-44.8792,-1.65516,174
61.8479,-42.4889,-1.52731,0
58.1326,-62.6367,-0.518791,0
58.5448,-62.8994,-0.51675,0
58.9741,-63.1565,-0.515978,0
59.3918,-63.3372,-0.524157,0
59.8089,-63.4789,-0.536769,0
60.1895,-63.5105,-0.561017,0
60.533,-63.4476,-0.594621,0
60.8752,-63.3723,-0.628718,0
61.2152,-63.2846,-0.663263,0
61.544,-63.1697,-0.699636,0
61.8578,-63.0247,-0.737966,0
62.1641,-62.8645,-0.776735,0
62.4619,-62.6892,-0.815851,0
62.8079,-62.579,-0.848112,0
62.301,-61.3352,-0.978656,174
63.473,-62.2984,-0.915407,0
62.966,-61.1419,-1.03299,174
62.6834,-60.3277,-1.11812,174
64.3672,-61.713,-1.02313,0
62.5753,-59.3359,-1.22904,174
64.9116,-61.2532,-1.09525,0
63.9917,-59.8906,-1.21535,174
63.9706,-59.4419,-1.26317,174
64.6816,-59.6444,-1.26204,174
62.7378,-57.6217,-1.41943,174
62.8344,-57.3648,-1.44762,174
65.2956,-58.8803,-1.35387,174
65.5566,-58.6648,-1.37978,0
65.583,-58.2855,-1.41549,0
65.4757,-57.8307,-1.4547,0
65.4072,-57.418,-1.48977,0
65.338,-57.0197,-1.52259,0
63.6419,-55.7428,-1.60745,174
65.18,-56.2533,-1.58259,0
65.0921,-55.885,-1.60989,0
65.0989,-55.5728,-1.63283,0
63.0946,-54.3972,-1.7039,174
65.1121,-54.9664,-1.67467,0
65.1069,-54.6671,-1.69394,0
65.0945,-54.3705,-1.71213,0
65.0746,-54.0769,-1.72925,0
65.0477,-53.7866,-1.74529,0
65.0141,-53.4996,-1.7603,0
64.9714,-53.2156,-1.77432,0
64.9276,-52.9366,-1.78726,0
64.8763,-52.661,-1.79923,0
64.8192,-52.3894,-1.81024,0
64.7566,-52.1218,-1.82028,0
64.6886,-51.8582,-1.82939,0
64.6155,-51.5989,-1.8376,0
64.5374,-51.3438,-1.84491,0
64.4795,-51.0945,-1.85117,0
64.4303,-50.8489,-1.85652,0
64.4275,-50.6063,-1.86074,0
64.4193,-50.3641,-1.86421,0
64.4055,-50.1223,-1.86694,0
64.3864,-49.8811,-1.86891,0
64.3618,-49.6405,-1.87014,0
64.3319,-49.4007,-1.87062,0
64.2966,-49.1618,-1.87035,0
64.2481,-48.9252,-1.86938,0
64.1894,-48.6909,-1.8677,0
64.1255,-48.4585,-1.86529,0
64.073,-48.2243,-1.86203,0
64.0192,-47.9903,-1.85802,0
63.9599,-47.7577,-1.85327,0
63.8952,-47.5265,-1.84779,0
63.8248,-47.2969,-1.84159,0
63.7531,-47.0675,-1.83461,0
63.6913,-46.8339,-1.82675,0
63.6241,-46.6013,-1.81813,0
63.5514,-46.3697,-1.80875,0
63.4733,-46.1394,-1.79861,0
63.3975,-45.9066,-1.7876,0
63.3656,-45.649,-1.77502,0
63.3274,-45.39,-1.76152,0
63.2828,-45.1299,-1.74708,0
63.1796,-44.9007,-1.73281,0
63.0696,-44.6743,-1.71779,0
62.953,-44.4506,-1.70202,0
62.8298,-44.2299,-1.68553,0
62.7002,-44.0125,-1.66831,0
62.5643,-43.7985,-1.65036,0
62.423,-43.5874,-1.63168,0
60.0795,-45.2897,-1.69633,174
59.9414,-45.1645,-1.68272,174
59.8288,-45.0159,-1.66745,174
59.8113,-44.7709,-1.64685,174
61.8009,-42.4099,-1.51892,0
58.2707,-62.7265,-0.517966,0
58.6887,-62.9875,-0.516335,0
59.1227,-63.2395,-0.516335,0
59.5322,-63.3862,-0.528337,0
59.9531,-63.5252,-0.541271,0
60.3063,-63.4905,-0.572375,0
60.6495,-63.4234,-0.606144,0
60.9909,-63.3439,-0.640397,0
61.3302,-63.252,-0.675085,0
61.6514,-63.1222,-0.712599,0
61.9627,-62.972,-0.751095,0
62.2661,-62.8066,-0.789987,0
62.579,-62.6522,-0.826857,0
62.1521,-61.4863,-0.952369,174
63.2621,-62.4054,-0.892331,0
63.5784,-62.2387,-0.927512,0
63.8827,-62.053,-0.963327,0
62.6836,-60.1722,-1.13645,174
64.4628,-61.6387,-1.03538,0
64.737,-61.4109,-1.07146,0
64.9895,-61.1602,-1.1082,0
63.9611,-59.714,-1.2336,174
63.7936,-59.1428,-1.28982,174
62.5937,-57.7259,-1.40497,174
64.9396,-59.2901,-1.30514,174
62.8979,-57.3024,-1.45525,174
65.5136,-58.9027,-1.35628,174
65.5677,-58.5362,-1.39204,0
65.5473,-58.1294,-1.42908,0
65.4489,-57.6866,-1.46702,0
65.3845,-57.2816,-1.50114,0
65.313,-56.8867,-1.53331,0
63.6082,-55.6264,-1.61641,174
65.1508,-56.127,-1.59207,0
65.0827,-55.7726,-1.61818,0
65.1034,-55.4692,-1.64025,0
65.1113,-55.1656,-1.66135,0
65.1112,-54.8645,-1.68134,0
65.1036,-54.566,-1.70024,0
65.0885,-54.2704,-1.71806,0
65.0662,-53.9779,-1.73481,0
65.0371,-53.6887,-1.7505,0
65.0011,-53.403,-1.76517,0
64.9574,-53.1205,-1.77882,0
64.9109,-52.8426,-1.79144,0
64.8576,-52.5683,-1.80308,0
64.7985,-52.298,-1.81376,0
64.7341,-52.0318,-1.82348,0
64.6643,-51.7697,-1.83228,0
64.5895,-51.5118,-1.84018,0
64.5149,-51.2585,-1.84716,0
64.4605,-51.0107,-1.8531,0
64.43,-50.7664,-1.85803,0
64.4253,-50.524,-1.862,0
64.4152,-50.2819,-1.86523,0
64.3997,-50.0403,-1.86769,0
64.3787,-49.7993,-1.86941,0
64.3523,-49.559,-1.87039,0
64.3205,-49.3195,-1.87061,0
64.2834,-49.0809,-1.87008,0
64.2288,-48.8454,-1.86888,0
64.1683,-48.6118,-1.86695,0
64.1054,-48.3794,-1.86428,0
64.0553,-48.1447,-1.86075,0
63.9997,-47.9112,-1.8565,0
63.9385,-47.679,-1.8515,0
63.8718,-47.4483,-1.84577,0
63.7997,-47.2193,-1.83931,0
63.7327,-46.9881,-1.83203,0
63.6691,-46.7548,-1.8239,0
63.5999,-46.5225,-1.81502,0
63.5255,-46.2914,-1.80539,0
63.4455,-46.0614,-1.795,0
63.3874,-45.8192,-1.78343,0
63.3534,-45.5611,-1.77053,0
63.313,-45.3018,-1.75672,0
63.2486,-45.0517,-1.74232,0
63.143,-44.8235,-1.72778,0
63.0307,-44.598,-1.71253,0
62.9119,-44.3753,-1.6965,0
62.7866,-44.1557,-1.67976,0
62.6548,-43.9394,-1.66229,0
62.5166,-43.7267,-1.64411,0
62.3744,-43.5159,-1.62515,0
60.0202,-45.258,-1.69225,174
59.902,-45.1152,-1.67766,174
59.805,-44.9513,-1.66144,174
61.8914,-42.5639,-1.53515,0
58.0287,-62.6273,-0.510861,0
58.4107,-62.8157,-0.517262,0
58.8346,-63.0748,-0.516076,0
59.2605,-63.2901,-0.520305,0
59.6738,-63.4343,-0.532619,0
60.0791,-63.5281,-0.550358,0
60.423,-63.4691,-0.583791,0
63.7862,-58.995,-1.21239,174
62.6602,-57.6627,-1.33284,174
62.7906,-57.4333,-1.35971,174
63.0127,-57.2758,-1.37984,174
64.5656,-58.0755,-1.32304,0
64.5385,-57.6905,-1.36038,0
64.5009,-57.3121,-1.39594,0
64.4536,-56.9407,-1.42977,0
64.3972,-56.5767,-1.46186,0
64.362,-56.237,-1.49101,0
64.3481,-55.9188,-1.51752,0
64.3654,-55.6246,-1.54124,0
64.3917,-55.3405,-1.56327,0
63.0079,-54.4391,-1.63063,174
63.2592,-54.2964,-1.64038,174
64.4253,-54.4984,-1.62322,0
64.4221,-54.2219,-1.6412,0
64.4119,-53.9478,-1.65819,0
64.4005,-53.678,-1.67405,0
64.3843,-53.4112,-1.68892,0
64.3567,-53.1457,-1.70297,0
64.3217,-52.8828,-1.71611,0
64.2809,-52.6233,-1.72832,0
64.2345,-52.3671,-1.73961,0
64.1827,-52.1143,-1.75,0
64.1256,-51.8651,-1.75951,0
64.0757,-51.621,-1.76796,0
64.0354,-51.3813,-1.77536,0
63.9902,-51.1441,-1.78196,0
63.9403,-50.9095,-1.78779,0
63.9334,-50.6785,-1.79218,0
63.9277,-50.448,-1.79578,0
63.9168,-50.2179,-1.79866,0
63.9006,-49.9882,-1.80083,0
63.8794,-49.7591,-1.80229,0
63.853,-49.5307,-1.80302,0
63.8114,-49.3043,-1.80317,0
63.7635,-49.0795,-1.80264,0
63.7103,-48.8563,-1.8014,0
63.6522,-48.6348,-1.79946,0
63.589,-48.4151,-1.79683,0
63.5394,-48.1928,-1.79325,0
63.4848,-47.9716,-1.78896,0
63.4249,-47.7517,-1.78399,0
63.3599,-47.5334,-1.77832,0
63.3063,-47.3108,-1.77168,0
63.2483,-47.0887,-1.7643,0
63.1852,-46.8676,-1.75622,0
63.1168,-46.6476,-1.7474,0
63.0434,-46.4287,-1.73787,0
62.9648,-46.211,-1.72763,0
62.881,-45.9948,-1.71667,0
62.8302,-45.7595,-1.70401,0
62.7687,-45.5266,-1.69067,0
62.6723,-45.3116,-1.67734,0
62.5697,-45.0988,-1.66333,0
62.4612,-44.8885,-1.64861,0
62.3488,-44.6794,-1.63313,0
62.2305,-44.4731,-1.61695,0
62.1063,-44.2698,-1.6001,0
61.9764,-44.0696,-1.58258,0
60.148,-45.3197,-1.64324,174
59.9781,-45.2219,-1.63149,174
59.8615,-45.0779,-1.61658,174
