16.4406,-8.48318,0.820023,0
16.6299,-8.14461,0.815013,0
16.8147,-7.80323,0.810023,0
16.9949,-7.45902,0.805052,0
17.1781,-7.1152,0.800804,0
17.3597,-6.76937,0.796839,0
17.5375,-6.42033,0.792923,0
17.6687,-6.05263,0.78514,0
17.7939,-5.68299,0.777327,0
17.9142,-5.31179,0.769554,0
18.0241,-4.93745,0.761361,0
18.1144,-4.55781,0.751927,0
18.2004,-4.17765,0.742659,0
18.2242,-3.7842,0.728577,0
17.8984,-3.32539,0.685511,0
17.5168,-2.87529,0.638987,0
17.1474,-2.44715,0.594671,0
16.4993,-2.00273,0.528626,0
15.8456,-1.58872,0.463655,0
15.3018,-1.21441,0.408978,0
14.9002,-0.873945,0.366878,0
14.5173,-0.552793,0.32723,0
14.1599,-0.249463,0.290482,0
13.8497,0.0381836,0.258236,0
13.5503,0.312539,0.227552,0
13.261,0.574502,0.198333,0
12.9611,0.823496,0.168968,0
12.5543,1.04996,0.132103,0
12.1971,1.26519,0.0996809,0
11.8559,1.46796,0.0690656,0
11.5294,1.65925,0.0401301,0
11.2084,1.83848,0.0121516,0
10.8909,2.00565,-0.0150652,0
10.5869,2.16346,-0.0408172,0
10.3309,2.32155,-0.0626336,0
10.083,2.47231,-0.0834246,0
9.84289,2.61628,-0.103317,0
9.72057,2.7898,-0.114343,0
9.64337,2.97613,-0.121813,0
9.56478,3.16142,-0.129147,0
9.48476,3.34572,-0.136335,0
9.39088,3.52383,-0.144245,0
9.26997,3.68893,-0.153835,0
9.14882,3.85183,-0.16318,0
9.02737,4.01262,-0.172262,0
8.90558,4.17144,-0.181139,0
8.73829,4.30302,-0.192995,0
8.55306,4.41981,-0.205886,0
8.37066,4.53318,-0.218337,0
8.19092,4.64328,-0.230368,0
8.02154,4.75564,-0.241442,0
7.85937,4.86906,-0.251794,0
7.69863,4.97991,-0.261813,0
7.53922,5.08831,-0.27152,0
7.38102,5.19441,-0.280954,0
7.21719,5.29249,-0.290612,0
7.05454,5.38802,-0.299968,0
6.89325,5.48139,-0.30904,0
6.7332,5.57266,-0.317819,0
6.57429,5.66194,-0.326364,0
6.41643,5.74929,-0.334616,0
6.25951,5.83479,-0.342634,0
6.10343,5.91851,-0.350397,0
5.95224,6.00563,-0.357634,0
5.80289,6.09305,-0.364509,0
5.65368,6.17896,-0.371198,0
5.51562,6.27901,-0.376804,0
5.37738,6.37887,-0.382194,0
5.23834,6.4779,-0.387438,0
5.09842,6.57615,-0.392526,0
4.95755,6.67364,-0.397458,0
8.79848,-13.3575,0.673402,0
9.10161,-13.2009,0.676527,0
9.4041,-13.0412,0.679818,0
9.70603,-12.8784,0.683284,0
10.0076,-12.7124,0.686917,0
10.3088,-12.5431,0.690726,0
10.6101,-12.3707,0.694749,0
10.9153,-12.1998,0.699534,0
11.2208,-12.0251,0.704505,0
11.5268,-11.8466,0.709681,0
11.8333,-11.6641,0.715032,0
12.1404,-11.4775,0.720589,0
12.4471,-11.2856,0.726204,0
12.7525,-11.0872,0.731751,0
13.0586,-10.8845,0.737493,0
13.3897,-10.6979,0.746341,0
13.7231,-10.5059,0.755443,0
14.0591,-10.3083,0.764818,0
14.3925,-10.101,0.77388,0
14.7261,-9.88606,0.782943,0
15.0625,-9.66532,0.792318,0
15.4019,-9.43853,0.802015,0
15.7445,-9.20542,0.812034,0
16.0905,-8.96571,0.822386,0
16.3382,-8.66184,0.822689,0
16.53,-8.32475,0.817689,0
16.7171,-7.98484,0.812679,0
16.8998,-7.64213,0.807689,0
17.08,-7.29754,0.802923,0
17.2638,-6.95338,0.798929,0
17.4436,-6.60605,0.794984,0
17.6002,-6.24827,0.78931,0
17.7281,-5.87945,0.781468,0
17.851,-5.50908,0.773665,0
17.9689,-5.13711,0.765911,0
18.067,-4.75944,0.756917,0
18.1552,-4.37956,0.747562,0
18.2392,-3.99911,0.738362,0
18.0958,-3.57176,0.710316,0
17.7178,-3.11145,0.663402,0
17.342,-2.67186,0.617943,0
16.8675,-2.23816,0.565501,0
16.1865,-1.80397,0.497454,0
15.5233,-1.40366,0.432405,0
15.111,-1.05222,0.388909,0
14.7184,-0.721016,0.347991,0
14.3437,-0.408359,0.309437,0
14.013,-0.112822,0.27515,0
13.7079,0.168457,0.243655,0
13.4134,0.436885,0.213675,0
13.1286,0.69335,0.185111,0
12.7684,0.931699,0.151429,0
12.3847,1.15252,0.116663,0
12.0352,1.36177,0.0851008,0
11.701,1.55903,0.0553059,0
11.381,1.74526,0.0271125,0
11.0577,1.91812,-0.000807419,0
10.7466,2.08078,-0.0273211,0
10.4657,2.23854,-0.0511785,0
10.2136,2.39313,-0.0724969,0
9.96946,2.54064,-0.0928582,0
9.76099,2.69037,-0.11028,0
9.68453,2.87733,-0.117868,0
9.60669,3.06317,-0.12528,0
9.52743,3.248,-0.132546,0
9.44673,3.43186,-0.139655,0
9.3342,3.60154,-0.148766,0
9.21318,3.7656,-0.158249,0
9.0919,3.9275,-0.167468,0
8.97029,4.08735,-0.176452,0
8.83785,4.23955,-0.185954,0
8.65105,4.35823,-0.199089,0
8.46717,4.4734,-0.211764,0
8.28604,4.58523,-0.22403,0
8.10826,4.69437,-0.235827,0
7.94529,4.80917,-0.246335,0
7.78381,4.92136,-0.25653,0
7.6237,5.03104,-0.266403,0
7.46487,5.13837,-0.275983,0
7.30414,5.24084,-0.285524,0
7.14073,5.33757,-0.295036,0
6.97873,5.43208,-0.304255,0
6.81803,5.52447,-0.3132,0
6.65853,5.61477,-0.321852,0
6.50013,5.70315,-0.33027,0
6.34271,5.78962,-0.338425,0
6.1862,5.87428,-0.346315,0
6.03162,5.95856,-0.353884,0
5.88217,6.04683,-0.360886,0
5.73289,6.13353,-0.367673,0
5.58873,6.22563,-0.373874,0
5.45088,6.32597,-0.379352,0
5.31227,6.42544,-0.384684,0
5.17282,6.52407,-0.389841,0
5.03247,6.62195,-0.394841,0
8.94075,-13.2844,0.674847,0
9.24356,-13.1264,0.67805,0
9.54577,-12.9653,0.681419,0
9.8475,-12.801,0.684964,0
10.1489,-12.6334,0.688685,0
10.45,-12.4625,0.692571,0
10.7532,-12.291,0.696976,0
11.0586,-12.1183,0.701849,0
11.3643,-11.9418,0.706907,0
11.6705,-11.7614,0.712161,0
11.9772,-11.5771,0.717611,0
12.2847,-11.3885,0.723265,0
12.5903,-11.1931,0.728782,0
12.896,-10.9927,0.734417,0
13.2136,-10.7976,0.741614,0
13.5458,-10.6085,0.750579,0
13.8804,-10.4139,0.759818,0
14.2165,-10.2128,0.769183,0
14.5486,-10.0009,0.778099,0
14.8835,-9.78327,0.787298,0
15.2213,-9.55972,0.796829,0
15.5622,-9.32999,0.806673,0
15.9063,-9.09384,0.816849,0
16.2346,-8.8397,0.825355,0
16.4287,-8.50407,0.820345,0
16.6183,-8.16568,0.815335,0
16.8034,-7.82443,0.810325,0
16.9839,-7.48039,0.805355,0
17.1667,-7.13652,0.801058,0
17.3486,-6.79091,0.797093,0
17.5266,-6.44204,0.793167,0
17.6608,-6.07545,0.785628,0
17.7863,-5.70594,0.777816,0
17.9069,-5.33485,0.770032,0
18.0184,-4.96097,0.761956,0
18.1089,-4.58134,0.752503,0
18.1952,-4.20121,0.743226,0
18.2288,-3.8098,0.729954,0
17.9224,-3.354,0.68847,0
17.54,-2.90249,0.64179,0
17.1699,-2.47307,0.597357,0
16.5414,-2.02963,0.532845,0
15.8847,-1.61332,0.467523,0
15.3274,-1.23619,0.411673,0
14.9246,-0.894482,0.369417,0
14.5405,-0.572168,0.329622,0
14.1795,-0.267725,0.292523,0
13.8686,0.0207617,0.260189,0
13.5685,0.295898,0.229417,0
13.2786,0.558633,0.200111,0
12.9825,0.808643,0.17098,0
12.577,1.03619,0.134173,0
12.2188,1.25223,0.101634,0
11.8766,1.45574,0.0709211,0
8.54354,-12.5822,0.706341,0
8.83683,-12.4422,0.710726,0
9.12971,-12.2986,0.715247,0
9.42229,-12.1512,0.719915,0
9.71459,-12.0001,0.72472,0
10.0067,-11.8451,0.729681,0
10.2964,-11.6832,0.734427,0
10.5812,-11.5119,0.738587,0
10.8697,-11.3413,0.743519,0
11.156,-11.1643,0.748284,0
11.4424,-10.9834,0.753245,0
11.7289,-10.7985,0.758392,0
12.0157,-10.6095,0.763724,0
12.3028,-10.4163,0.769261,0
12.5903,-10.2187,0.774993,0
12.8783,-10.0166,0.780941,0
13.1753,-9.81662,0.788148,0
13.4877,-9.62263,0.797347,0
13.8021,-9.42301,0.80681,0
14.1187,-9.21763,0.816556,0
14.4376,-9.00625,0.826575,0
14.7168,-8.76199,0.832083,0
14.9379,-8.47707,0.831165,0
15.1554,-8.18801,0.830257,0
15.3693,-7.89478,0.829339,0
15.5731,-7.59397,0.827698,0
15.7524,-7.2791,0.823861,0
15.9279,-6.9614,0.820081,0
16.0996,-6.64078,0.816351,0
16.2566,-6.31281,0.811595,0
16.3829,-5.97205,0.804202,0
16.5045,-5.6298,0.796868,0
16.6117,-5.28283,0.788646,0
16.6581,-4.91733,0.775071,0
16.6975,-4.55284,0.761497,0
16.7302,-4.18941,0.747904,0
16.6489,-3.80139,0.72428,0
16.3376,-3.371,0.68012,0
15.8278,-2.91979,0.618939,0
15.3129,-2.49399,0.558841,0
14.8888,-2.10755,0.508362,0
14.716,-1.77411,0.481566,0
14.5316,-1.44896,0.454534,0
14.1765,-1.11939,0.413245,0
13.8364,-0.807588,0.374261,0
13.5413,-0.513281,0.340052,0
13.2628,-0.232744,0.30807,0
12.9763,0.0352734,0.276136,0
12.6499,0.2896,0.241546,0
12.296,0.528418,0.205404,0
11.914,0.750127,0.167611,0
11.552,0.957549,0.13221,0
11.2422,1.15596,0.101761,0
10.9537,1.34467,0.0736359,0
10.6602,1.52094,0.0456672,0
10.4036,1.69231,0.021175,0
10.1639,1.85723,-0.00149101,0
9.93139,2.01467,-0.0231219,0
9.7057,2.16517,-0.0438348,0
9.48639,2.30911,-0.0636394,0
9.3917,2.48262,-0.0731316,0
9.32007,2.66173,-0.0804949,0
9.247,2.83975,-0.0877019,0
9.17246,3.01672,-0.094743,0
9.09645,3.1927,-0.101608,0
9.01893,3.36781,-0.108346,0
8.92557,3.5356,-0.116042,0
8.81096,3.69244,-0.125173,0
8.69589,3.84725,-0.13404,0
8.565,3.99199,-0.143913,0
8.38939,4.10914,-0.157057,0
8.21626,4.22289,-0.169782,0
8.05097,4.33677,-0.181637,0
7.89479,4.45239,-0.192526,0
7.73997,4.56531,-0.203073,0
7.58642,4.67568,-0.213307,0
7.43402,4.78357,-0.22321,0
7.2827,4.88913,-0.232829,0
7.13138,4.99161,-0.242223,0
6.97548,5.08714,-0.251794,0
6.82078,5.18044,-0.261061,0
6.66721,5.2716,-0.270036,0
6.51467,5.36074,-0.278757,0
6.36306,5.44788,-0.287184,0
6.21231,5.53313,-0.295358,0
6.06232,5.61657,-0.303288,0
5.91301,5.69825,-0.310964,0
5.76431,5.77823,-0.318395,0
5.61787,5.85884,-0.325446,0
5.48175,5.95132,-0.331364,0
5.34928,6.04836,-0.336706,0
5.21606,6.14447,-0.341882,0
5.08202,6.23972,-0.346911,0
4.9471,6.33408,-0.351755,0
4.81123,6.42767,-0.356452,0
8.38761,-12.655,0.704066,0
8.68115,-12.517,0.708382,0
8.97426,-12.3753,0.712835,0
9.26698,-12.2299,0.717425,0
9.55941,-12.0808,0.722152,0
9.85162,-11.9279,0.727034,0
10.1437,-11.771,0.732064,0
10.43,-11.6033,0.736351,0
10.7166,-11.4323,0.740872,0
11.004,-11.2587,0.745726,0
11.2903,-11.0799,0.750589,0
11.5768,-10.8972,0.755628,0
11.8634,-10.7104,0.760872,0
12.1503,-10.5194,0.766302,0
12.4376,-10.3241,0.771927,0
12.7253,-10.1245,0.777757,0
13.0136,-9.92024,0.783802,0
13.3216,-9.7263,0.792425,0
13.6349,-9.5297,0.801751,0
13.9503,-9.32742,0.811351,0
14.268,-9.11926,0.821224,0
14.5879,-8.905,0.83138,0
14.821,-8.62888,0.831663,0
15.0404,-8.34201,0.830745,0
15.2562,-8.051,0.829827,0
15.4684,-7.75579,0.82889,0
15.6577,-7.44665,0.825902,0
15.8352,-7.13044,0.822083,0
16.0089,-6.81138,0.818323,0
16.1787,-6.48939,0.814622,0
16.3164,-6.15316,0.808109,0
16.4405,-5.81172,0.800755,0
16.5598,-5.46874,0.793441,0
16.6343,-5.1113,0.782288,0
16.6774,-4.74625,0.768714,0
16.7137,-4.38224,0.75512,0
16.7432,-4.01936,0.741546,0
16.5019,-3.59703,0.703314,0
16.1498,-3.16666,0.65597,0
15.5532,-2.71072,0.587532,0
15.1105,-2.30948,0.534681,0
14.8076,-1.94992,0.495677,0
14.6352,-1.62104,0.46929,0
14.3631,-1.29208,0.434866,0
14.0152,-0.971025,0.394681,0
13.693,-0.667598,0.357679,0
13.4095,-0.380098,0.324857,0
13.1353,-0.105488,0.293587,0
12.8215,0.156289,0.259691,0
12.5013,0.40417,0.22597,0
12.1142,0.634268,0.187366,0
11.7418,0.849102,0.150736,0
11.4,1.05149,0.117298,0
11.1055,1.24574,0.088382,0
10.815,1.42864,0.0603645,0
10.5341,1.60156,0.0336457,0
10.2902,1.77062,0.0104133,0
10.054,1.93197,-0.0117644,0
9.82471,2.08609,-0.0329461,0
9.60207,2.23347,-0.0532195,0
9.42915,2.38704,-0.069157,0
9.35828,2.56677,-0.0766082,0
9.28598,2.74535,-0.0838934,0
9.21222,2.92286,-0.0910125,0
9.137,3.09938,-0.0979754,0
9.06028,3.27495,-0.104792,0
8.98205,3.44966,-0.111452,0
8.87187,3.60942,-0.120358,0
8.75704,3.76528,-0.129352,0
8.64176,3.91922,-0.138122,0
8.48231,4.04737,-0.150134,0
8.30788,4.16293,-0.163093,0
8.13588,4.27512,-0.175602,0
7.97754,4.39134,-0.186784,0
7.82202,4.50568,-0.197526,0
7.6678,4.61739,-0.207917,0
7.51481,4.72658,-0.217985,0
7.36292,4.83338,-0.227761,0
7.21206,4.93786,-0.237243,0
7.0581,5.0367,-0.246755,0
6.90277,5.13117,-0.256178,0
6.74862,5.22347,-0.265319,0
6.59554,5.31365,-0.274157,0
6.44345,5.40183,-0.282731,0
6.29226,5.4881,-0.291052,0
6.14187,5.57248,-0.299089,0
5.99221,5.65509,-0.306911,0
5.84319,5.73596,-0.31446,0
5.69474,5.81518,-0.321794,0
5.55337,5.90144,-0.328307,0
5.41971,5.99695,-0.333884,0
5.28689,6.09356,-0.339157,0
5.15329,6.18925,-0.344255,0
5.01885,6.28407,-0.349196,0
4.88349,6.37806,-0.353971,0
8.52536,-12.5907,0.706077,0
8.81868,-12.451,0.710443,0
9.11159,-12.3076,0.714964,0
9.40417,-12.1605,0.719622,0
9.6965,-12.0096,0.724427,0
9.98865,-11.8548,0.729368,0
10.2788,-11.6937,0.734173,0
10.5636,-11.5226,0.738323,0
10.852,-11.3521,0.743226,0
11.1383,-11.1753,0.747982,0
11.4247,-10.9947,0.752923,0
11.7112,-10.8101,0.75807,0
11.9979,-10.6213,0.763392,0
12.285,-10.4284,0.768919,0
12.5725,-10.2311,0.774642,0
12.8605,-10.0292,0.78056,0
13.156,-9.82844,0.787581,0
13.4683,-9.63478,0.796771,0
13.7826,-9.43555,0.806214,0
14.099,-9.23052,0.815941,0
14.4178,-9.01951,0.82595,0
14.703,-8.77949,0.832132,0
14.9243,-8.49486,0.831234,0
15.1421,-8.20605,0.830316,0
15.3562,-7.91306,0.829398,0
15.5618,-7.61338,0.827933,0
15.7414,-7.2987,0.824105,0
15.9172,-6.98115,0.820325,0
16.089,-6.66073,0.816595,0
16.2486,-6.33388,0.812044,0
16.3752,-5.9932,0.804661,0
16.4971,-5.65103,0.797327,0
16.6086,-5.30552,0.789495,0
16.6554,-4.93997,0.775911,0
16.6953,-4.57541,0.762347,0
16.7283,-4.21187,0.748743,0
16.6684,-3.8287,0.727083,0
16.3566,-3.39706,0.682786,0
15.8647,-2.94798,0.623167,0
15.34,-2.51876,0.562073,0
14.9128,-2.13054,0.511253,0
14.7267,-1.79448,0.483196,0
14.5542,-1.46997,0.457161,0
14.198,-1.1393,0.415745,0
13.8571,-0.826426,0.376614,0
13.5589,-0.531094,0.342083,0
13.2798,-0.249746,0.310003,0
12.997,0.0190625,0.278333,0
12.6697,0.274258,0.243636,0
12.3203,0.514199,0.207816,0
11.9371,0.736826,0.169886,0
11.5739,0.945088,0.134349,0
11.2604,1.14394,0.103548,0
10.9712,1.33327,0.0753449,0
8.15618,-11.9373,0.732034,0
8.43356,-11.803,0.736253,0
8.71038,-11.6652,0.740609,0
8.98672,-11.5237,0.745101,0
9.26261,-11.3786,0.749739,0
9.52663,-11.2145,0.752513,0
9.7868,-11.0436,0.754925,0
10.0454,-10.8688,0.757425,0
10.3026,-10.6903,0.760003,0
10.5583,-10.5078,0.76265,0
10.8394,-10.3498,0.769534,0
11.1242,-10.1904,0.777054,0
11.4091,-10.0257,0.784681,0
11.6942,-9.85577,0.792415,0
11.9794,-9.68038,0.800257,0
12.2648,-9.49943,0.808196,0
12.5504,-9.31286,0.816243,0
12.8336,-9.11869,0.824095,0
13.1089,-8.91284,0.830999,0
13.3349,-8.66714,0.83179,0
13.5454,-8.40866,0.83096,0
13.7454,-8.14192,0.829271,0
13.9383,-7.86953,0.827161,0
14.126,-7.59301,0.824876,0
14.3086,-7.31241,0.822435,0
14.4858,-7.02783,0.819827,0
14.6577,-6.73934,0.817073,0
14.8242,-6.44701,0.814163,0
14.9223,-6.12346,0.804105,0
15.0046,-5.79534,0.792962,0
15.0796,-5.4667,0.781673,0
15.1473,-5.13774,0.770267,0
15.2078,-4.80858,0.758724,0
15.2612,-4.47941,0.747073,0
15.3079,-4.15052,0.735384,0
15.1955,-3.78174,0.708021,0
14.8006,-3.35427,0.653021,0
14.4233,-2.95243,0.601224,0
14.1679,-2.5947,0.562884,0
14.0227,-2.27017,0.536458,0
13.8771,-1.9544,0.510794,0
13.7312,-1.64712,0.485892,0
13.517,-1.34084,0.455189,0
13.2309,-1.03951,0.41846,0
12.951,-0.752256,0.383216,0
12.6387,-0.476885,0.345775,0
12.3384,-0.215918,0.310286,0
12.0429,0.0316406,0.276029,0
11.6865,0.264502,0.236907,0
11.3478,0.482793,0.200198,0
11.0253,0.687822,0.165638,0
10.7177,0.880664,0.133079,0
10.4487,1.06522,0.104612,0
10.2181,1.24423,0.0801008,0
9.99431,1.41521,0.0566828,0
9.7768,1.57869,0.0342805,0
9.56524,1.73508,0.0128449,0
9.35927,1.88482,-0.00769218,0
9.15857,2.0283,-0.0273797,0
9.08864,2.20081,-0.0352605,0
9.02224,2.37337,-0.0425164,0
8.95437,2.54481,-0.0496062,0
8.88502,2.71518,-0.0565301,0
8.81416,2.88455,-0.0633074,0
8.74178,3.05296,-0.069909,0
8.66785,3.22049,-0.0763641,0
8.59236,3.38717,-0.0826531,0
8.49967,3.54561,-0.0901629,0
8.39039,3.69487,-0.098825,0
8.23468,3.8178,-0.111266,0
8.07388,3.93386,-0.123893,0
7.92355,4.05186,-0.135348,0
7.7745,4.16706,-0.146462,0
7.62663,4.27955,-0.157214,0
7.47986,4.38947,-0.167624,0
7.3341,4.49693,-0.177731,0
7.18927,4.60199,-0.187516,0
7.0453,4.70478,-0.197009,0
6.90006,4.80368,-0.206374,0
6.75162,4.89697,-0.215846,0
6.60418,4.98809,-0.225016,0
6.45765,5.07713,-0.233903,0
6.31197,5.16415,-0.242507,0
6.16705,5.24922,-0.250817,0
6.02281,5.33246,-0.258913,0
5.87919,5.4139,-0.266725,0
5.7361,5.49358,-0.274294,0
5.5965,5.57529,-0.281315,0
5.46196,5.66172,-0.287634,0
5.3295,5.74983,-0.293503,0
5.19828,5.83905,-0.299011,0
5.06653,5.92723,-0.304343,0
4.93667,6.01821,-0.309216,0
4.8064,6.10902,-0.313864,0
4.67518,6.19897,-0.318327,0
8.01224,-12.0133,0.730609,0
8.28635,-11.8748,0.733997,0
8.56347,-11.7388,0.738275,0
8.84005,-11.5993,0.742708,0
9.11617,-11.4561,0.747259,0
9.38786,-11.3038,0.751243,0
9.64884,-11.1348,0.753626,0
9.90831,-10.9621,0.756087,0
10.1662,-10.7856,0.758616,0
10.4227,-10.6052,0.761224,0
10.6883,-10.4323,0.76557,0
10.973,-10.2756,0.77304,0
11.2578,-10.1138,0.780618,0
11.5428,-9.94668,0.788294,0
11.828,-9.77419,0.796077,0
12.1133,-9.5962,0.803958,0
12.3987,-9.41265,0.811966,0
12.6843,-9.22339,0.820062,0
12.961,-9.0215,0.827093,0
13.2218,-8.80278,0.83221,0
13.4341,-8.54639,0.8314,0
13.641,-8.28482,0.830325,0
13.8365,-8.01469,0.828294,0
14.027,-7.74034,0.826107,0
14.2123,-7.46189,0.823743,0
14.3924,-7.17942,0.821234,0
14.5671,-6.893,0.818568,0
14.7365,-6.60269,0.815736,0
14.8756,-6.29743,0.809974,0
14.9618,-5.96963,0.79889,0
15.0407,-5.64125,0.787679,0
15.1123,-5.31245,0.776331,0
15.1766,-4.98338,0.764876,0
15.2338,-4.65419,0.753275,0
15.2837,-4.32506,0.741585,0
15.3324,-3.99772,0.730364,0
15.008,-3.57788,0.68179,0
14.6215,-3.1627,0.628333,0
14.252,-2.7722,0.577972,0
14.0998,-2.44137,0.550384,0
13.9544,-2.12101,0.524329,0
13.8087,-1.80925,0.499027,0
13.6627,-1.50581,0.474476,0
13.3736,-1.19692,0.436976,0
13.109,-0.903818,0.402718,0
12.8029,-0.62123,0.365404,0
12.4964,-0.352754,0.3289,0
12.2015,-0.0981836,0.29428,0
11.8734,0.142744,0.257376,0
11.5255,0.368623,0.219398,0
11.1946,0.580547,0.183714,0
10.8792,0.779727,0.15013,0
10.5569,0.964961,0.116536,0
10.3397,1.15021,0.0929816,0
10.1123,1.32538,0.0689875,0
9.89153,1.49278,0.0460578,0
9.67685,1.65287,0.0241242,0
9.46795,1.8061,0.00311836,0
9.2645,1.95287,-0.0170184,0
9.1233,2.10869,-0.0313348,0
9.05768,2.28187,-0.0386785,0
8.99059,2.45392,-0.0458562,0
8.92203,2.62484,-0.0528777,0
8.85197,2.79474,-0.0597332,0
8.7804,2.96363,-0.0664129,0
8.7073,3.13161,-0.0729363,0
8.63264,3.29876,-0.079323,0
8.55641,3.46509,-0.0855535,0
8.44849,3.61583,-0.0942352,0
8.32285,3.7559,-0.104216,0
8.1573,3.87171,-0.117389,0
8.0032,3.98958,-0.129323,0
7.85349,4.10625,-0.140612,0
7.705,4.22015,-0.15154,0
7.55766,4.33143,-0.162136,0
7.41138,4.44018,-0.172409,0
7.26606,4.54648,-0.18235,0
7.12164,4.65049,-0.191999,0
6.97804,4.75225,-0.201364,0
6.83031,4.84772,-0.210866,0
6.68234,4.93997,-0.220182,0
6.53534,5.0301,-0.229216,0
6.38922,5.11817,-0.237966,0
6.24391,5.20429,-0.246442,0
6.09932,5.28848,-0.254645,0
5.95538,5.37087,-0.262604,0
5.81202,5.45148,-0.270309,0
5.66916,5.53039,-0.277761,0
5.53342,5.61601,-0.284304,0
5.39897,5.70201,-0.290495,0
5.26802,5.79182,-0.29611,0
5.13655,5.88053,-0.30153,0
5.00547,5.96963,-0.306677,0
4.87568,6.06092,-0.311413,0
4.74497,6.15134,-0.315993,0
8.13898,-11.9455,0.73178,0
8.41639,-11.8115,0.735989,0
8.69325,-11.6738,0.740335,0
8.9696,-11.5326,0.744827,0
9.24554,-11.3876,0.749446,0
9.51048,-11.225,0.752357,0
9.77074,-11.0543,0.754769,0
10.0295,-10.8798,0.757259,0
10.2867,-10.7015,0.759827,0
10.5425,-10.5192,0.762484,0
10.8218,-10.3595,0.769066,0
11.1065,-10.2004,0.776585,0
11.3915,-10.0361,0.784202,0
11.6765,-9.86645,0.791937,0
11.9617,-9.6914,0.799759,0
12.2471,-9.5108,0.807698,0
12.5327,-9.32459,0.815745,0
12.8168,-9.13144,0.823695,0
13.0908,-8.92496,0.830433,0
13.3218,-8.683,0.831829,0
13.5325,-8.42478,0.831009,0
13.7333,-8.15865,0.829398,0
13.9265,-7.88653,0.827278,0
14.1145,-7.61025,0.825013,0
14.2974,-7.32989,0.822581,0
14.475,-7.04558,0.819993,0
14.6472,-6.7573,0.817249,0
14.814,-6.46522,0.814359,0
14.9169,-6.14377,0.804788,0
14.9997,-5.81569,0.793646,0
15.0752,-5.48707,0.782376,0
15.1434,-5.15811,0.77097,0
15.2043,-4.82897,0.759437,0
15.2581,-4.49982,0.747806,0
15.3047,-4.17076,0.736058,0
15.2205,-3.80909,0.711536,0
14.8246,-3.37996,0.656312,0
14.4462,-2.97658,0.604329,0
14.1769,-2.61507,0.564554,0
14.0317,-2.29,0.53807,0
13.8861,-1.97372,0.512357,0
13.7403,-1.66591,0.487415,0
13.5361,-1.36012,0.45764,0
13.2472,-1.05767,0.420589,0
12.9708,-0.769834,0.385609,0
12.6576,-0.493516,0.34804,0
12.3567,-0.23168,0.312435,0
12.0656,0.0166992,0.278538,0
11.708,0.250518,0.239261,0
11.3682,0.469707,0.202376,0
11.0448,0.675479,0.167728,0
10.7364,0.869033,0.135052,0
10.4632,1.05389,0.106146,0
10.2322,1.23339,0.0815852,0
7.76469,-11.2854,0.746087,0
8.03137,-11.1655,0.751243,0
8.29679,-11.0405,0.756331,0
8.56082,-10.9102,0.761331,0
8.80904,-10.7549,0.763499,0
9.05565,-10.5959,0.765726,0
9.30066,-10.4334,0.76804,0
9.54409,-10.2672,0.770423,0
9.78595,-10.0973,0.772884,0
10.0263,-9.9236,0.775413,0
10.265,-9.74621,0.77803,0
10.5022,-9.56497,0.780716,0
10.7557,-9.39702,0.786282,0
11.0189,-9.23404,0.793528,0
11.2819,-9.06597,0.800872,0
11.5447,-8.89274,0.808323,0
11.7509,-8.66899,0.807737,0
11.9495,-8.43816,0.806497,0
12.1436,-8.20318,0.805101,0
12.3332,-7.96417,0.803568,0
12.5183,-7.72114,0.801888,0
12.6988,-7.47419,0.800042,0
12.8746,-7.22339,0.79807,0
13.0455,-6.96882,0.79595,0
13.2117,-6.71053,0.793665,0
13.3728,-6.44862,0.791253,0
13.4796,-6.15895,0.78265,0
13.5731,-5.86459,0.77306,0
13.6659,-5.57189,0.764046,0
13.7525,-5.27817,0.754925,0
13.8327,-4.98353,0.745696,0
13.9067,-4.68811,0.736351,0
13.9745,-4.39204,0.726917,0
14.036,-4.09541,0.717366,0
13.9096,-3.74616,0.687591,0
13.6077,-3.36059,0.639564,0
13.4889,-3.03668,0.612757,0
13.3688,-2.72119,0.586732,0
13.2475,-2.41375,0.561419,0
13.1252,-2.1141,0.536829,0
12.9447,-1.81346,0.506927,0
12.8223,-1.53005,0.483909,0
12.585,-1.24168,0.449778,0
12.3,-0.961191,0.411634,0
12.0251,-0.694863,0.375413,0
11.7597,-0.441738,0.341009,0
11.4505,-0.200029,0.302962,0
11.135,0.0278027,0.265111,0
10.8337,0.242178,0.229446,0
10.4561,0.439678,0.186956,0
10.0351,0.617783,0.14096,0
9.92691,0.807559,0.126224,0
9.81757,0.993213,0.11179,0
9.61829,1.16244,0.0890656,0
9.42062,1.32413,0.0669758,0
9.22776,1.47913,0.0457648,0
9.03948,1.62781,0.025423,0
8.86796,1.77336,0.00708321,0
8.808,1.94115,-0.000260544,0
8.74654,2.10776,-0.00743828,0
8.68358,2.27323,-0.01445,0
8.61911,2.43761,-0.0212762,0
8.55311,2.60097,-0.0279656,0
8.48559,2.76334,-0.0344695,0
8.41651,2.92478,-0.0408172,0
8.34587,3.08535,-0.0470184,0
8.27364,3.24509,-0.0530535,0
8.19981,3.40404,-0.0589324,0
8.09016,3.54497,-0.0679461,0
7.94558,3.66548,-0.0799871,0
7.80219,3.78306,-0.0916375,0
7.65988,3.89785,-0.102936,0
7.5186,4.00996,-0.113893,0
7.37827,4.11948,-0.124499,0
7.2388,4.22651,-0.134772,0
7.10014,4.33115,-0.144723,0
6.9622,4.43353,-0.154391,0
6.82493,4.53366,-0.163747,0
6.68532,4.62923,-0.173112,0
6.54369,4.72033,-0.182468,0
6.40288,4.80933,-0.19152,0
6.26282,4.89629,-0.20029,0
6.12343,4.98129,-0.208786,0
5.98464,5.06438,-0.217009,0
5.84641,5.14564,-0.224968,0
5.70864,5.22515,-0.232682,0
5.57555,5.30792,-0.239684,0
5.44588,5.39327,-0.246081,0
5.31606,5.47727,-0.252243,0
5.1874,5.56183,-0.258083,0
5.06058,5.64826,-0.263425,0
4.93319,5.73362,-0.268591,0
4.80518,5.81794,-0.273571,0
4.67648,5.90125,-0.278366,0
4.54835,5.9858,-0.282809,0
7.6226,-11.347,0.743333,0
7.88991,-11.2298,0.748509,0
8.15603,-11.1075,0.753636,0
8.42083,-10.9801,0.758685,0
8.67745,-10.8378,0.762337,0
8.92491,-10.6808,0.764534,0
9.17077,-10.5201,0.7668,0
9.41504,-10.3559,0.769153,0
9.65773,-10.1879,0.771566,0
9.89885,-10.0163,0.774056,0
10.1384,-9.84088,0.776634,0
10.3764,-9.66169,0.77928,0
10.6158,-9.4815,0.782464,0
10.8792,-9.32121,0.789671,0
11.1423,-9.15585,0.796966,0
11.4052,-8.98536,0.804349,0
11.6438,-8.78984,0.808333,0
11.8446,-8.56123,0.807171,0
12.0411,-8.32847,0.805862,0
12.2331,-8.09156,0.804388,0
12.4206,-7.85068,0.802796,0
12.6036,-7.60582,0.801048,0
12.7818,-7.35706,0.799154,0
12.9554,-7.10445,0.797083,0
13.1241,-6.84814,0.794896,0
13.2879,-6.58812,0.792542,0
13.4279,-6.31506,0.787747,0
13.5237,-6.02074,0.778089,0
13.6174,-5.72746,0.768851,0
13.7073,-5.43426,0.759788,0
13.7909,-5.14008,0.750609,0
13.8682,-4.84506,0.741312,0
13.9393,-4.54933,0.731946,0
14.0041,-4.25297,0.722445,0
14.0627,-3.95614,0.712864,0
13.7602,-3.5609,0.664027,0
13.5522,-3.2076,0.626898,0
13.4327,-2.88768,0.600452,0
13.3121,-2.57599,0.574759,0
13.1903,-2.27224,0.549788,0
13.0675,-1.97616,0.52553,0
12.8404,-1.67314,0.491136,0
12.7407,-1.39674,0.470853,0
12.45,-1.10827,0.431624,0
12.1699,-0.83458,0.394417,0
11.8995,-0.574551,0.359056,0
11.6243,-0.326885,0.324017,0
11.3006,-0.091416,0.284925,0
10.992,0.129951,0.248128,0
10.697,0.338437,0.213402,0
10.092,0.515273,0.148919,0
9.98449,0.707295,0.134017,0
9.87577,0.895146,0.119417,0
9.72533,1.07371,0.101195,0
9.52496,1.23914,0.0785871,0
9.32958,1.39764,0.0569172,0
9.1389,1.54962,0.0361359,0
8.95268,1.69544,0.0161848,0
8.84002,1.85223,0.00361641,0
8.77935,2.01946,-0.00365898,0
8.71719,2.18551,-0.0107391,0
8.65352,2.35046,-0.0176727,0
8.58835,2.51436,-0.0244402,0
8.52164,2.67724,-0.031032,0
8.45339,2.83916,-0.0374676,0
8.38358,3.0002,-0.0437469,0
8.31219,3.16038,-0.0498699,0
8.23921,3.31974,-0.0558269,0
8.16322,3.47768,-0.0617937,0
8.02219,3.60185,-0.0736297,0
7.87818,3.72098,-0.0854949,0
7.73531,3.83724,-0.0969891,0
7.5935,3.95076,-0.108112,0
7.45267,4.06165,-0.118913,0
7.31275,4.17,-0.129372,0
7.17367,4.27589,-0.139479,0
7.03536,4.37945,-0.149304,0
6.89774,4.48077,-0.158825,0
6.76076,4.57988,-0.168034,0
6.61878,4.67222,-0.177526,0
6.47755,4.76233,-0.186745,0
6.3371,4.85036,-0.195671,0
6.19736,4.93639,-0.204304,0
6.05826,5.02048,-0.212663,0
5.91974,5.10272,-0.220778,0
5.78174,5.18314,-0.22861,0
5.64435,5.26202,-0.236188,0
5.51474,5.34812,-0.242712,0
5.38501,5.43282,-0.249001,0
5.2551,5.51621,-0.255075,0
5.12798,5.6025,-0.260602,0
5.0009,5.68842,-0.265866,0
4.87323,5.7733,-0.270954,0
4.7449,5.85713,-0.275837,0
4.61587,5.93998,-0.280544,0
7.74813,-11.2927,0.745775,0
8.01488,-11.1731,0.750921,0
8.28039,-11.0484,0.756009,0
8.54456,-10.9185,0.761038,0
8.79372,-10.7646,0.763353,0
9.04044,-10.6059,0.765599,0
9.28554,-10.4435,0.767894,0
9.52906,-10.2776,0.770277,0
9.77102,-10.1079,0.772728,0
10.0114,-9.93446,0.775257,0
10.2503,-9.75729,0.777864,0
10.4875,-9.57633,0.78055,0
10.7394,-9.40694,0.785833,0
11.0026,-9.24428,0.793079,0
11.2656,-9.07655,0.800423,0
11.5284,-8.90362,0.807864,0
11.7385,-8.68312,0.807796,0
11.9373,-8.45258,0.806585,0
12.1317,-8.21787,0.805198,0
12.3216,-7.97907,0.803655,0
12.507,-7.73629,0.801986,0
12.6878,-7.48961,0.800169,0
12.8638,-7.23904,0.798187,0
13.0351,-6.9847,0.796077,0
13.2015,-6.72662,0.793812,0
13.363,-6.46495,0.79139,0
13.4737,-6.17716,0.783236,0
13.5671,-5.88267,0.773616,0
13.6603,-5.59007,0.764612,0
13.7473,-5.2964,0.755491,0
13.8279,-5.0018,0.746263,0
13.9023,-4.70642,0.736927,0
13.9704,-4.41039,0.727493,0
14.0323,-4.11382,0.717962,0
13.9295,-3.77102,0.690745,0
13.6151,-3.38092,0.641253,0
13.4963,-3.05651,0.614407,0
13.3763,-2.74048,0.588314,0
13.2551,-2.43255,0.562972,0
13.1328,-2.13243,0.538333,0
12.96,-1.83241,0.509193,0
12.8244,-1.54669,0.484739,0
12.603,-1.25952,0.452191,0
12.3173,-0.978154,0.413948,0
12.0419,-0.710996,0.37762,0
11.7759,-0.457031,0.34307,0
11.4705,-0.214619,0.305384,0
11.1541,0.0140918,0.267396,0
10.852,0.229277,0.231595,0
10.51,0.429424,0.192571,0
10.0417,0.605869,0.141898,0
9.93365,0.795918,0.127122,0
9.82438,0.981846,0.112659,0
9.6307,1.15221,0.0904621,0
7.29407,-10.5016,0.730726,0
7.54091,-10.388,0.735462,0
7.78644,-10.2695,0.74015,0
8.03058,-10.1462,0.744769,0
8.27325,-10.0181,0.749339,0
8.51439,-9.88502,0.753831,0
8.75391,-9.74713,0.758255,0
8.99174,-9.60435,0.76262,0
9.22782,-9.45667,0.766907,0
9.46202,-9.3041,0.771136,0
9.6943,-9.14661,0.775286,0
9.92454,-8.9842,0.779359,0
10.1311,-8.7961,0.77973,0
10.2987,-8.57114,0.774193,0
10.4604,-8.34264,0.768372,0
10.6212,-8.11516,0.763109,0
10.7994,-7.90296,0.761146,0
10.9713,-7.68557,0.758734,0
11.1366,-7.46321,0.755872,0
11.2953,-7.23608,0.752552,0
11.4471,-7.00441,0.748792,0
11.592,-6.76847,0.744583,0
11.7298,-6.52844,0.739945,0
11.8707,-6.29055,0.736282,0
12.0143,-6.05401,0.733499,0
12.1513,-5.81344,0.730325,0
12.2815,-5.56902,0.72678,0
12.4048,-5.32097,0.722825,0
12.5211,-5.06948,0.718489,0
12.6303,-4.81481,0.713773,0
12.7322,-4.55721,0.708695,0
12.8269,-4.29683,0.703216,0
12.9141,-4.03396,0.697376,0
12.8228,-3.71558,0.670726,0
12.6369,-3.37834,0.633802,0
12.45,-3.05329,0.597923,0
12.2626,-2.74008,0.563079,0
12.0808,-2.43962,0.529915,0
12.0673,-2.1827,0.516927,0
12.0494,-1.92781,0.504017,0
12.0273,-1.67503,0.491234,0
11.959,-1.41904,0.47389,0
11.7089,-1.14865,0.437132,0
11.4666,-0.891143,0.402103,0
11.2053,-0.644111,0.365862,0
10.9128,-0.408096,0.327093,0
10.6328,-0.185557,0.290472,0
9.9202,0.0215137,0.208431,0
9.61285,0.208926,0.170657,0
9.52071,0.393945,0.156331,0
9.42703,0.575205,0.142279,0
9.33189,0.752783,0.128489,0
9.23534,0.926689,0.114993,0
9.09118,1.09057,0.0969465,0
8.91516,1.24389,0.0760285,0
8.74284,1.39122,0.0559113,0
8.60221,1.5387,0.0394758,0
8.54693,1.70102,0.0322004,0
8.49014,1.86216,0.025091,0
8.43182,2.02217,0.0181574,0
8.37197,2.18109,0.0113801,0
8.31059,2.33897,0.00477852,0
8.24766,2.49585,-0.00165703,0
8.18317,2.65179,-0.00793632,0
8.11718,2.80684,-0.0140496,0
8.05733,2.96432,-0.0192059,0
7.99594,3.12143,-0.0242156,0
7.93297,3.27818,-0.0290398,0
7.81462,3.4074,-0.039284,0
7.68616,3.52884,-0.0502703,0
7.55028,3.64326,-0.0617644,0
7.41526,3.75497,-0.0728777,0
7.28104,3.86412,-0.083659,0
7.14756,3.9708,-0.094118,0
7.01476,4.07506,-0.104235,0
6.88257,4.17702,-0.11405,0
6.75094,4.27678,-0.123571,0
6.61981,4.37438,-0.132809,0
6.4854,4.46681,-0.142136,0
6.35003,4.55581,-0.151364,0
6.21531,4.64273,-0.16029,0
6.08118,4.72769,-0.168952,0
5.94758,4.81075,-0.177341,0
5.81447,4.89192,-0.185446,0
5.68176,4.97131,-0.193307,0
5.55486,5.05504,-0.200251,0
5.42984,5.13947,-0.206735,0
5.30464,5.22255,-0.213014,0
5.17922,5.30427,-0.219079,0
5.05416,5.38551,-0.224831,0
4.93145,5.46935,-0.230055,0
4.80815,5.55208,-0.235075,0
4.68421,5.63373,-0.23988,0
4.55957,5.71437,-0.244528,0
4.43418,5.79401,-0.248971,0
7.16249,-10.56,0.728167,0
7.41,-10.4489,0.732952,0
7.65624,-10.333,0.737669,0
7.90113,-10.2123,0.742327,0
8.14458,-10.0867,0.746917,0
8.38655,-9.95627,0.751458,0
8.62694,-9.82098,0.755921,0
8.86568,-9.68076,0.760316,0
9.1027,-9.5357,0.764652,0
9.33789,-9.38571,0.7689,0
9.57121,-9.23084,0.773089,0
9.80253,-9.07104,0.7772,0
10.0318,-8.90632,0.781224,0
10.2104,-8.69104,0.777171,0
10.3753,-8.46439,0.771487,0
10.5341,-8.23431,0.76556,0
10.7056,-8.01629,0.762249,0
10.8808,-7.80163,0.760081,0
11.0497,-7.58187,0.757445,0
11.2119,-7.35727,0.754378,0
11.3674,-7.12797,0.750833,0
11.516,-6.89427,0.746868,0
11.6575,-6.65638,0.742464,0
11.792,-6.41453,0.73762,0
11.9389,-6.18012,0.735023,0
12.0794,-5.94167,0.732064,0
12.2132,-5.69926,0.728704,0
12.3402,-5.4531,0.724964,0
12.4603,-5.20343,0.720843,0
12.5732,-4.95041,0.716321,0
12.679,-4.69434,0.711439,0
12.7775,-4.4354,0.706165,0
12.8687,-4.17383,0.70053,0
12.9211,-3.89972,0.690745,0
12.7357,-3.55585,0.653265,0
12.5493,-3.22438,0.616849,0
12.3621,-2.90493,0.581468,0
12.1745,-2.59714,0.547083,0
12.075,-2.31887,0.523812,0
12.0594,-2.06288,0.510853,0
12.0396,-1.80899,0.498011,0
12.0155,-1.55719,0.485286,0
11.8407,-1.29056,0.456419,0
11.5943,-1.02633,0.420482,0
11.3555,-0.77458,0.386263,0
11.0665,-0.53166,0.347396,0
10.78,-0.302109,0.309652,0
10.3336,-0.084668,0.255589,0
9.66113,0.109121,0.178382,0
9.56983,0.296172,0.163909,0
9.47696,0.479443,0.149691,0
9.38259,0.658945,0.135784,0
9.28678,0.834785,0.122132,0
9.1862,1.0066,0.108402,0
9.00815,1.16324,0.0870344,0
8.83389,1.31372,0.0664973,0
8.66323,1.45832,0.0467609,0
8.57647,1.615,0.0360285,0
8.52048,1.77674,0.028841,0
8.46297,1.93734,0.0218195,0
8.40394,2.09686,0.0149445,0
8.34337,2.25526,0.00825508,0
8.28127,2.41266,0.00175117,0
8.21761,2.5691,-0.00462578,0
8.15239,2.7246,-0.0108269,0
8.0893,2.88074,-0.016491,0
8.02873,3.03806,-0.0215691,0
7.9666,3.19498,-0.0264812,0
7.87851,3.33961,-0.0337566,0
7.75818,3.4667,-0.0440691,0
7.62232,3.58283,-0.0556902,0
7.48685,3.69599,-0.0670184,0
7.35221,3.8065,-0.0779949,0
7.21835,3.91445,-0.0886004,0
7.08519,4.01999,-0.0989031,0
6.95269,4.12317,-0.108874,0
6.82077,4.22409,-0.118561,0
6.68938,4.32283,-0.127946,0
6.55757,4.41871,-0.137126,0
6.42182,4.50882,-0.146501,0
6.28677,4.59684,-0.155583,0
6.15233,4.68285,-0.164401,0
6.01846,4.76688,-0.172917,0
5.8851,4.84905,-0.181179,0
5.75218,4.92937,-0.189167,0
5.6212,5.00963,-0.196716,0
5.49624,5.09482,-0.203327,0
5.37113,5.17861,-0.209714,0
5.24584,5.26104,-0.215886,0
5.12031,5.34215,-0.221843,0
4.99667,5.42497,-0.227311,0
4.87369,5.50828,-0.232429,0
4.7501,5.59051,-0.23735,0
4.62583,5.67167,-0.242077,0
4.50085,5.75184,-0.246628,0
7.27874,-10.5085,0.730423,0
7.52566,-10.3952,0.735179,0
7.77127,-10.277,0.739866,0
8.01549,-10.154,0.744486,0
8.25826,-10.0261,0.749056,0
8.49952,-9.89341,0.753558,0
8.73912,-9.75581,0.757991,0
8.97706,-9.61334,0.762347,0
9.21324,-9.46596,0.766653,0
9.44758,-9.31367,0.770872,0
9.67996,-9.15649,0.775023,0
9.91033,-8.99439,0.779085,0
10.1205,-8.80991,0.780062,0
10.2885,-8.5852,0.774554,0
10.4505,-8.35691,0.768753,0
10.61,-8.12811,0.763206,0
10.7886,-7.91623,0.761273,0
10.9608,-7.69919,0.7589,0
11.1266,-7.47713,0.756058,0
11.2857,-7.25027,0.752767,0
11.438,-7.01888,0.749036,0
11.5833,-6.78318,0.744857,0
11.7215,-6.54344,0.740237,0
11.8615,-6.30507,0.736448,0
12.0056,-6.06878,0.733685,0
12.143,-5.82846,0.73055,0
12.2737,-5.58425,0.727005,0
12.3974,-5.33641,0.723079,0
12.5141,-5.08515,0.718763,0
12.6237,-4.83068,0.714075,0
12.7261,-4.57321,0.709007,0
12.8212,-4.313,0.703558,0
12.9089,-4.0503,0.697747,0
12.8343,-3.73689,0.67304,0
12.6484,-3.39888,0.636058,0
12.4616,-3.07307,0.60012,0
12.2742,-2.75915,0.565218,0
12.0865,-2.45672,0.531321,0
12.0682,-2.19854,0.517728,0
12.0507,-1.94354,0.504827,0
12.0288,-1.69063,0.492025,0
11.9747,-1.43624,0.476224,0
11.7241,-1.16501,0.439349,0
11.4814,-0.906748,0.404232,0
11.2238,-0.659229,0.368353,0
10.9306,-0.422314,0.329427,0
10.6498,-0.198975,0.292689,0
9.96672,0.00960938,0.213734,0
9.6185,0.197334,0.171566,0
9.52645,0.382598,0.15722,0
9.43288,0.564102,0.143128,0
9.33783,0.741865,0.129349,0
9.24136,0.916025,0.115814,0
9.10219,1.08086,0.0982746,0
6.87961,-9.81128,0.716195,0
7.11108,-9.7065,0.721068,0
7.34125,-9.59697,0.725843,0
7.56918,-9.48144,0.730355,0
7.79463,-9.35988,0.734583,0
8.01853,-9.23378,0.738743,0
8.24078,-9.10311,0.742835,0
8.46132,-8.96788,0.746859,0
8.66504,-8.81082,0.747884,0
8.84066,-8.62195,0.744007,0
9.01122,-8.42914,0.739857,0
9.17666,-8.23256,0.735433,0
9.33689,-8.03236,0.730765,0
9.49182,-7.82869,0.725814,0
9.6414,-7.62172,0.720609,0
9.78558,-7.41162,0.715169,0
9.92429,-7.19855,0.709486,0
10.0575,-6.98265,0.703538,0
10.1835,-6.76292,0.697142,0
10.3023,-6.53968,0.690257,0
10.4241,-6.32009,0.684495,0
10.5523,-6.10564,0.680277,0
10.6877,-5.89595,0.677669,0
10.8226,-5.68559,0.675462,0
10.9517,-5.47149,0.672923,0
11.0749,-5.25383,0.670023,0
11.1921,-5.03278,0.66679,0
11.3032,-4.80853,0.663187,0
11.4081,-4.58126,0.659271,0
11.5066,-4.35118,0.655003,0
11.5989,-4.11849,0.650423,0
11.633,-3.86478,0.638782,0
11.5036,-3.55871,0.606771,0
11.3712,-3.26187,0.575452,0
11.3447,-3.00536,0.558558,0
11.3491,-2.76136,0.546204,0
11.3491,-2.51895,0.533939,0
11.3447,-2.27818,0.521751,0
11.3361,-2.0391,0.509661,0
11.3233,-1.80171,0.49764,0
11.3064,-1.56608,0.485716,0
11.169,-1.3176,0.460101,0
10.9501,-1.0681,0.425648,0
10.6807,-0.825254,0.386146,0
10.0858,-0.575938,0.309798,0
9.39774,-0.35002,0.223997,0
9.21594,-0.162412,0.197591,0
9.13838,0.0177832,0.183675,0
9.059,0.194541,0.170003,0
8.97787,0.36793,0.156585,0
8.89506,0.537988,0.143411,0
8.81063,0.704775,0.130491,0
8.72464,0.86833,0.117806,0
8.62426,1.02689,0.103929,0
8.46642,1.17265,0.0840754,0
8.3539,1.32087,0.0696516,0
8.30306,1.47817,0.0624055,0
8.25069,1.63427,0.0553547,0
8.19677,1.78926,0.0484797,0
8.1413,1.94315,0.0417707,0
8.08814,2.09719,0.0356477,0
8.03627,2.25134,0.0300031,0
7.98291,2.40487,0.0245246,0
7.92805,2.55785,0.0192219,0
7.87168,2.71031,0.0140949,0
7.81376,2.86232,0.00912422,0
7.75428,3.01394,0.00431953,0
7.66389,3.15106,-0.00356132,0
7.54997,3.27519,-0.0137566,0
7.43591,3.39694,-0.0236785,0
7.31606,3.51326,-0.0339617,0
7.18768,3.62206,-0.044909,0
7.0599,3.72838,-0.0555242,0
6.93268,3.83231,-0.0658172,0
6.80597,3.93393,-0.0757977,0
6.67972,4.03333,-0.0854559,0
6.55387,4.13056,-0.0948211,0
6.42839,4.22573,-0.103913,0
6.29882,4.31523,-0.113229,0
6.1692,4.40221,-0.122331,0
6.04009,4.48715,-0.131139,0
5.91144,4.57017,-0.139675,0
5.78319,4.65131,-0.147927,0
5.65531,4.73064,-0.155944,0
5.53435,4.81529,-0.162819,0
5.41373,4.89897,-0.169411,0
5.29293,4.98123,-0.175788,0
5.1719,5.06213,-0.18195,0
5.05062,5.14168,-0.187897,0
4.92902,5.21992,-0.19361,0
4.81011,5.30122,-0.198698,0
4.69065,5.38147,-0.203571,0
4.57053,5.46062,-0.208229,0
4.4497,5.53875,-0.212721,0
4.32812,5.61585,-0.217018,0
6.7562,-9.86498,0.713587,0
6.98832,-9.76272,0.718489,0
7.21921,-9.65572,0.723323,0
7.44874,-9.54395,0.72806,0
7.67511,-9.42499,0.732347,0
7.89985,-9.30129,0.736536,0
8.12298,-9.17306,0.740667,0
8.34445,-9.04024,0.74473,0
8.56415,-8.90288,0.748724,0
8.74803,-8.72273,0.746097,0
8.92129,-8.532,0.742093,0
9.08946,-8.33739,0.737806,0
9.25246,-8.13909,0.733265,0
9.41022,-7.93725,0.72846,0
9.56264,-7.73201,0.723402,0
9.70971,-7.52356,0.718099,0
9.85132,-7.31204,0.712532,0
9.98745,-7.09762,0.706722,0
10.118,-6.88043,0.700687,0
10.24,-6.65853,0.693948,0
10.356,-6.43416,0.686946,0
10.4849,-6.21988,0.682542,0
10.6138,-6.00607,0.678685,0
10.7517,-5.79775,0.676673,0
10.8839,-5.58562,0.67431,0
11.0102,-5.36984,0.671614,0
11.1306,-5.15056,0.668538,0
11.245,-4.92798,0.66514,0
11.3532,-4.7023,0.6614,0
11.4551,-4.47369,0.657308,0
11.5507,-4.24234,0.652884,0
11.6399,-4.0085,0.648138,0
11.5727,-3.72006,0.623675,0
11.4419,-3.41834,0.591995,0
11.3406,-3.13554,0.56513,0
11.3474,-2.89071,0.552747,0
11.3496,-2.64748,0.540452,0
11.3476,-2.40582,0.528216,0
11.3412,-2.16583,0.516068,0
11.3306,-1.92754,0.504017,0
11.3159,-1.69099,0.492054,0
11.2849,-1.4545,0.478704,0
11.0679,-1.19938,0.444007,0
10.8224,-0.952471,0.406849,0
10.4941,-0.711533,0.36095,0
9.75087,-0.465527,0.267962,0
9.25636,-0.259482,0.205081,0
9.17979,-0.0774512,0.191019,0
9.10137,0.101123,0.17722,0
9.02116,0.276279,0.163685,0
8.93923,0.448105,0.150374,0
8.85565,0.616621,0.137327,0
8.77048,0.781875,0.124515,0
8.68379,0.943945,0.111937,0
8.54987,1.09595,0.0945246,0
8.39336,1.23913,0.0750129,0
8.33025,1.3948,0.0662336,0
8.27869,1.55152,0.0590852,0
8.22559,1.70711,0.0521125,0
8.17094,1.86157,0.0453156,0
8.11509,2.01509,0.0387141,0
8.064,2.16956,0.0329816,0
8.01143,2.32341,0.027425,0
7.95737,2.47668,0.0220246,0
7.9018,2.62941,0.0168,0
7.8447,2.78167,0.0117414,0
7.78605,2.93347,0.00686836,0
7.72432,3.08419,0.00196602,0
7.61047,3.20958,-0.00837578,0
7.49649,3.3326,-0.0184539,0
7.38235,3.45326,-0.0282391,0
7.25576,3.5646,-0.0391375,0
7.12767,3.67224,-0.0499383,0
7.00016,3.77741,-0.0603973,0
6.87319,3.88024,-0.0705242,0
6.7467,3.98081,-0.0803582,0
6.62065,4.07921,-0.0898992,0
6.49498,4.17545,-0.099118,0
6.36787,4.26824,-0.108288,0
6.23796,4.35629,-0.117536,0
6.10858,4.4423,-0.126511,0
5.97969,4.52634,-0.135182,0
5.85124,4.60846,-0.143591,0
5.72317,4.68873,-0.151716,0
5.59834,4.77027,-0.159225,0
5.47779,4.85474,-0.165954,0
5.35709,4.93773,-0.172438,0
5.23619,5.01936,-0.178708,0
5.11505,5.09959,-0.184753,0
4.99362,5.17853,-0.190602,0
4.87329,5.25817,-0.196032,0
4.75416,5.33898,-0.200993,0
4.63439,5.41873,-0.205778,0
4.51394,5.49739,-0.210358,0
4.39277,5.57506,-0.214772,0
6.86523,-9.81762,0.715902,0
7.09678,-9.71313,0.720765,0
7.32703,-9.60391,0.72556,0
7.55515,-9.48881,0.730091,0
7.78072,-9.36754,0.73432,0
8.00472,-9.2417,0.73848,0
8.22707,-9.11133,0.742581,0
8.44771,-8.97638,0.746605,0
8.65399,-8.82239,0.748118,0
8.82993,-8.63376,0.744261,0
9.00081,-8.44119,0.74012,0
9.16655,-8.24484,0.735716,0
9.32711,-8.04487,0.731058,0
9.48238,-7.84141,0.726136,0
9.6323,-7.63466,0.72095,0
9.77682,-7.42473,0.715511,0
9.91587,-7.21182,0.709837,0
10.0494,-6.99609,0.703919,0
10.1759,-6.77667,0.697562,0
10.2951,-6.55357,0.690696,0
10.416,-6.33328,0.684749,0
10.5445,-6.11901,0.68054,0
10.6792,-5.90888,0.677796,0
10.8144,-5.69873,0.675609,0
10.9439,-5.48485,0.673079,0
11.0674,-5.2674,0.670198,0
11.185,-5.04656,0.666986,0
11.2965,-4.8225,0.663431,0
11.4018,-4.59543,0.659525,0
11.5007,-4.36553,0.655277,0
11.5933,-4.13297,0.650706,0
11.6409,-3.88402,0.640775,0
11.5117,-3.57739,0.608724,0
11.3795,-3.28002,0.577386,0
11.3443,-3.02052,0.55931,0
11.349,-2.77642,0.546966,0
11.3492,-2.53395,0.5347,0
11.3451,-2.29305,0.522503,0
11.3368,-2.05384,0.510404,0
11.3243,-1.81637,0.498392,0
11.3076,-1.58064,0.486458,0
11.1824,-1.3334,0.462249,0
10.9672,-1.08359,0.428177,0
10.697,-0.839912,0.388538,0
10.1318,-0.591162,0.31555,0
9.43762,-0.363008,0.228948,0
9.22068,-0.173682,0.19846,0
9.14324,0.00670898,0.184534,0
9.06397,0.183691,0.170843,0
8.98294,0.357314,0.157396,0
8.90023,0.527549,0.144232,0
8.8159,0.694521,0.131292,0
8.73001,0.858301,0.118577,0
8.63413,1.01769,0.105189,0
6.50588,-9.18882,0.700843,0
6.72164,-9.08907,0.705355,0
6.93606,-8.98485,0.709788,0
7.14766,-8.87411,0.713812,0
7.33185,-8.72348,0.7118,0
7.51182,-8.56826,0.709466,0
7.68743,-8.40861,0.706839,0
7.85859,-8.2447,0.703919,0
8.02519,-8.07664,0.700696,0
8.18712,-7.90459,0.697181,0
8.34429,-7.72871,0.693362,0
8.49661,-7.54913,0.689261,0
8.644,-7.36604,0.684886,0
8.78638,-7.17962,0.680257,0
8.92368,-6.98996,0.675316,0
9.05583,-6.79729,0.67015,0
9.18279,-6.6017,0.664681,0
9.30515,-6.40395,0.659114,0
9.43809,-6.2152,0.655902,0
9.5664,-6.02348,0.652474,0
9.68998,-5.82888,0.648831,0
9.80879,-5.63152,0.644974,0
9.92278,-5.43154,0.640902,0
10.0319,-5.22909,0.636624,0
10.136,-5.02425,0.632122,0
10.2351,-4.81718,0.627435,0
10.3292,-4.60801,0.622542,0
10.4183,-4.39688,0.617454,0
10.5022,-4.18389,0.612152,0
10.5809,-3.96924,0.606693,0
10.6157,-3.73801,0.595609,0
10.6407,-3.5057,0.583861,0
10.6613,-3.27449,0.572171,0
10.6775,-3.0444,0.560521,0
10.6893,-2.81554,0.548939,0
10.6969,-2.58792,0.537425,0
10.7003,-2.36164,0.525989,0
10.6995,-2.13666,0.514583,0
10.6947,-1.91312,0.503284,0
10.6859,-1.69103,0.492054,0
10.6731,-1.47038,0.480862,0
10.1334,-1.18556,0.404027,0
9.47052,-0.913291,0.313236,0
8.90247,-0.67916,0.235814,0
8.84038,-0.500752,0.222083,0
8.77617,-0.325478,0.208568,0
8.70989,-0.153301,0.195296,0
8.64163,0.0158008,0.182249,0
8.57146,0.181895,0.169427,0
8.49945,0.345,0.15681,0
8.42566,0.505156,0.144417,0
8.35016,0.662373,0.132249,0
8.27301,0.816728,0.120286,0
8.19426,0.968223,0.108548,0
8.121,1.11807,0.0978352,0
8.07938,1.2716,0.0912434,0
8.03669,1.42433,0.0848859,0
7.99256,1.57622,0.0787043,0
7.94696,1.72733,0.0726984,0
7.8999,1.8777,0.0668879,0
7.85137,2.02737,0.0612531,0
7.80134,2.1764,0.0557941,0
7.74982,2.32485,0.0504816,0
7.69678,2.47273,0.0453547,0
7.64222,2.62009,0.0404133,0
7.58611,2.76699,0.0356184,0
7.5207,2.90995,0.0300813,0
7.41286,3.0325,0.0198273,0
7.30477,3.1527,0.00987617,0
7.19641,3.27065,0.000188675,0
7.08776,3.38643,-0.00923515,0
6.97538,3.49806,-0.0188152,0
6.8535,3.60167,-0.0292645,0
6.73203,3.70298,-0.0393816,0
6.61091,3.80205,-0.0491961,0
6.49012,3.89899,-0.0587176,0
6.3696,3.99384,-0.0679363,0
6.24901,4.08642,-0.0769207,0
6.12427,4.17344,-0.0861883,0
5.99995,4.25842,-0.0951531,0
5.87603,4.34146,-0.103845,0
5.75244,4.42261,-0.112253,0
5.63016,4.50291,-0.120241,0
5.5139,4.58744,-0.127204,0
5.39748,4.67048,-0.133913,0
5.28088,4.75206,-0.140387,0
5.16404,4.83227,-0.146657,0
5.04692,4.91107,-0.152702,0
4.9295,4.98856,-0.158522,0
4.81173,5.06475,-0.164128,0
4.69587,5.14292,-0.169157,0
4.58001,5.22082,-0.173893,0
4.46349,5.29766,-0.178454,0
4.34625,5.37341,-0.18278,0
4.22825,5.44813,-0.18694,0
6.39082,-9.23998,0.698411,0
6.60723,-9.14259,0.702962,0
6.82238,-9.04073,0.707444,0
7.03617,-8.93445,0.711849,0
7.23457,-8.80403,0.712894,0
7.41679,-8.65123,0.710745,0
7.59473,-8.49393,0.708284,0
7.76828,-8.33228,0.70553,0
7.93731,-8.16638,0.702444,0
8.10172,-7.99643,0.699085,0
8.26144,-7.82257,0.695423,0
8.41634,-7.64494,0.691478,0
8.56635,-7.46371,0.687259,0
8.7114,-7.27901,0.682747,0
8.85141,-7.09106,0.677982,0
8.98631,-6.89995,0.672913,0
9.11603,-6.70589,0.667611,0
9.24053,-6.50903,0.662054,0
9.36808,-6.3158,0.65763,0
9.49886,-6.12565,0.654329,0
9.62495,-5.93255,0.650784,0
9.7463,-5.73666,0.647054,0
9.86286,-5.53807,0.643099,0
9.97456,-5.33688,0.638919,0
10.0813,-5.13329,0.634534,0
10.1831,-4.92739,0.629945,0
10.2799,-4.71932,0.625159,0
10.3716,-4.50922,0.620179,0
10.4583,-4.29721,0.614993,0
10.5398,-4.08341,0.609612,0
10.6006,-3.8618,0.601878,0
10.628,-3.62894,0.590091,0
10.6509,-3.39713,0.578372,0
10.6694,-3.16644,0.566693,0
10.6835,-2.93691,0.555091,0
10.6934,-2.70862,0.543538,0
10.699,-2.4816,0.532044,0
10.7004,-2.25593,0.520618,0
10.6978,-2.03165,0.50929,0
10.6911,-1.80877,0.498001,0
10.6805,-1.58736,0.48681,0
10.5248,-1.34804,0.457864,0
9.81127,-1.05273,0.359827,0
9.18867,-0.798809,0.274837,0
8.87362,-0.595107,0.229349,0
8.81052,-0.418145,0.215716,0
8.74533,-0.244336,0.202318,0
8.67812,-0.0735938,0.189144,0
8.60895,0.094082,0.176204,0
8.53791,0.258779,0.16348,0
8.46506,0.420469,0.15098,0
8.39046,0.579238,0.138695,0
8.31418,0.735127,0.126614,0
8.23627,0.888125,0.114759,0
8.14512,1.03654,0.101741,0
8.10145,1.19015,0.0947004,0
8.05954,1.34333,0.0882453,0
8.01618,1.49566,0.081966,0
7.97135,1.6472,0.0758625,0
7.92507,1.79794,0.0699543,0
7.87732,1.94798,0.0642316,0
7.82809,2.09735,0.0586555,0
7.77736,2.2461,0.0532746,0
7.72513,2.39427,0.0480695,0
7.67138,2.54191,0.0430109,0
7.61609,2.68905,0.0381379,0
7.55925,2.83574,0.0334309,0
7.47015,2.96772,0.0252375,0
7.3622,3.08918,0.0151203,0
7.25398,3.20832,0.00528633,0
7.14548,3.32522,-0.00426445,0
7.03669,3.44001,-0.0135711,0
6.91816,3.54693,-0.0237469,0
6.79648,3.64946,-0.0340496,0
6.67518,3.74974,-0.0440398,0
6.55422,3.84779,-0.0537078,0
6.43357,3.94373,-0.0630828,0
6.31316,4.03764,-0.0721746,0
6.19045,4.12748,-0.0812957,0
6.06591,4.21353,-0.0904266,0
5.94178,4.29761,-0.0992645,0
5.81802,4.37975,-0.107809,0
5.69458,4.46004,-0.11611,0
5.57565,4.54276,-0.123552,0
5.45932,4.62658,-0.130387,0
5.34282,4.70893,-0.136979,0
5.22611,4.78984,-0.143356,0
5.10914,4.8694,-0.149528,0
4.99189,4.94759,-0.155456,0
4.87431,5.02444,-0.161169,0
4.75712,5.1011,-0.166569,0
4.64161,5.17959,-0.171403,0
4.52544,5.257,-0.176061,0
4.40859,5.33331,-0.180505,0
4.291,5.40857,-0.184753,0
6.49248,-9.19484,0.70056,0
6.70831,-9.09538,0.705081,0
6.92282,-8.99145,0.709525,0
7.13593,-8.88304,0.71387,0
7.32057,-8.73294,0.711937,0
7.5008,-8.578,0.709632,0
7.67668,-8.41862,0.707025,0
7.84812,-8.25497,0.704105,0
8.015,-8.08717,0.700911,0
8.17723,-7.91535,0.697405,0
8.3347,-7.73973,0.693626,0
8.48731,-7.56037,0.689525,0
8.63501,-7.37751,0.685179,0
8.77771,-7.19125,0.68054,0
8.91532,-7.0018,0.675628,0
9.0478,-6.80928,0.670452,0
9.17509,-6.61389,0.665032,0
9.29711,-6.41578,0.659359,0
9.42999,-6.22699,0.656116,0
9.55859,-6.03546,0.652708,0
9.68247,-5.84099,0.649056,0
9.80158,-5.64384,0.645228,0
9.91585,-5.44402,0.641165,0
10.0252,-5.2417,0.636898,0
10.1297,-5.03699,0.632415,0
10.2291,-4.83006,0.627728,0
10.3236,-4.62102,0.622845,0
10.4129,-4.40999,0.617767,0
10.4971,-4.19714,0.612503,0
10.5762,-3.98257,0.607025,0
10.614,-3.75245,0.596351,0
10.6393,-3.52007,0.584593,0
10.6601,-3.28877,0.572884,0
10.6766,-3.05863,0.561243,0
10.6887,-2.82969,0.549652,0
