90.4401,-61.3571,-5.39037,174
90.5818,-61.0025,-5.45423,174
90.8259,-60.7013,-5.52344,174
91.2414,-60.4775,-5.6035,174
97.4937,-56.3749,-6.84852,174
96.7706,-55.7782,-6.82961,174
96.1702,-55.2303,-6.81925,174
95.8,-54.7304,-6.83032,174
95.4428,-54.2497,-6.84029,174
95.0975,-53.7868,-6.84922,174
94.7633,-53.3402,-6.85718,174
94.4391,-52.9087,-6.86423,174
94.1244,-52.4913,-6.87042,174
93.8184,-52.0869,-6.87579,174
93.5204,-51.6946,-6.88038,174
93.2299,-51.3137,-6.88424,174
92.9463,-50.9431,-6.88739,174
92.669,-50.5822,-6.88987,174
92.3976,-50.2304,-6.89171,174
92.1316,-49.8871,-6.89292,174
91.8708,-49.5516,-6.89354,174
91.6145,-49.2234,-6.89358,174
91.3626,-48.902,-6.89306,174
91.5133,-48.4683,-6.95078,174
91.7513,-47.9934,-7.0223,174
91.9989,-47.4967,-7.09648,174
92.2567,-46.9763,-7.17353,174
75.7423,-75.706,-0.891457,0
76.2655,-76.0124,-0.930387,0
76.8083,-76.4509,-0.950085,0
77.3935,-77.2235,-0.921012,0
77.3001,-69.9032,-2.11469,174
77.6797,-69.8412,-2.18785,174
79.2404,-78.5655,-1.00555,0
79.9826,-79.519,-0.96945,0
80.7549,-80.3718,-0.953976,0
81.5391,-81.0636,-0.966012,0
90.3891,-62.6612,-5.08487,174
90.3145,-62.1518,-5.14577,174
90.3448,-61.7218,-5.20792,174
90.4106,-61.3213,-5.26975,174
90.5522,-60.9681,-5.33373,174
90.7697,-60.6549,-5.40084,174
91.1984,-60.4391,-5.47936,174
97.3033,-56.3315,-6.67279,174
96.5658,-55.7386,-6.65761,174
95.9634,-55.1962,-6.65116,174
95.4366,-54.6895,-6.64854,174
95.093,-54.2187,-6.66174,174
94.7605,-53.765,-6.67372,174
94.4381,-53.3269,-6.68457,174
94.1253,-52.9035,-6.69435,174
93.8211,-52.4936,-6.70312,174
93.5251,-52.0962,-6.71093,174
93.2365,-51.7106,-6.71784,174
92.9548,-51.3358,-6.72388,174
92.6796,-50.9712,-6.7291,174
92.4103,-50.616,-6.73354,174
92.1464,-50.2696,-6.73722,174
91.8877,-49.9313,-6.74018,174
91.6336,-49.6007,-6.74244,174
91.3839,-49.2772,-6.74404,174
91.1381,-48.9604,-6.74498,174
91.1068,-48.587,-6.77475,174
91.3292,-48.1278,-6.84043,174
91.5601,-47.6483,-6.90832,174
91.8,-47.1467,-6.97865,174
92.0498,-46.621,-7.05162,174
101.259,-42.2355,-8.47872,174
76.0048,-75.8608,-0.910929,0
76.535,-76.1673,-0.950671,0
77.0999,-76.8502,-0.933317,0
77.1123,-69.9411,-2.07711,174
77.4921,-69.8719,-2.15175,174
77.8808,-69.8894,-2.21302,174
79.6123,-79.0672,-0.983615,0
80.3664,-79.9444,-0.961584,0
81.15,-80.7397,-0.95696,0
82.0013,-81.6507,-0.943293,0
90.546,-63.0003,-5.05703,174
90.32,-62.3816,-5.11498,174
90.3274,-61.9318,-5.17731,174
90.3687,-61.5132,-5.23896,174
90.4772,-61.1399,-5.30195,174
90.6347,-60.7961,-5.3663,174
90.9811,-60.5452,-5.44005,174
91.4243,-60.3287,-5.52011,174
97.8215,-56.6633,-6.69281,174
96.8783,-56.0202,-6.66069,174
96.2568,-55.4603,-6.65439,174
95.6728,-54.9348,-6.64779,174
95.2616,-54.4495,-6.65536,174
94.9237,-53.9874,-6.66794,174
94.5964,-53.5418,-6.67934,174
94.279,-53.1112,-6.68964,174
93.9706,-52.6947,-6.6989,174
93.6706,-52.2913,-6.70718,174
93.3784,-51.9,-6.71453,174
93.0934,-51.5199,-6.721,174
92.815,-51.1504,-6.72662,174
92.5428,-50.7906,-6.73144,174
92.2763,-50.4399,-6.73549,174
92.0151,-50.0977,-6.7388,174
91.7588,-49.7634,-6.74141,174
91.5069,-49.4364,-6.74333,174
91.2592,-49.1163,-6.74459,174
91.0154,-48.8026,-6.74521,174
91.2182,-48.3574,-6.80767,174
91.4448,-47.8882,-6.87444,174
91.6801,-47.3978,-6.94354,174
91.9249,-46.8843,-7.01517,174
101.209,-42.5994,-8.44287,174
102.315,-41.4147,-8.66835,174
75.7476,-75.7092,-0.891857,0
76.271,-76.0156,-0.930807,0
76.8141,-76.4591,-0.949743,0
77.3998,-77.2302,-0.920934,0
77.3041,-69.9026,-2.11546,174
77.6837,-69.8405,-2.18861,174
79.247,-78.569,-1.00605,0
79.9905,-79.5277,-0.969284,0
80.7633,-80.3809,-0.95381,0
81.5473,-81.0704,-0.966218,0
90.3877,-62.6553,-5.0855,174
90.3146,-62.1472,-5.14643,174
90.3452,-61.7174,-5.20856,174
90.4115,-61.3173,-5.2704,174
90.5537,-60.9645,-5.3344,174
90.7728,-60.6521,-5.40157,174
91.203,-60.4368,-5.4802,174
97.2927,-56.3248,-6.67238,174
96.5594,-55.7328,-6.65755,174
95.9573,-55.1907,-6.65109,174
95.433,-54.6845,-6.64868,174
95.0895,-54.2139,-6.66187,174
94.7571,-53.7603,-6.67384,174
94.4349,-53.3224,-6.68468,174
94.1221,-52.8991,-6.69445,174
93.818,-52.4893,-6.7032,174
93.522,-52.0922,-6.71101,174
93.2335,-51.7066,-6.7179,174
92.9519,-51.332,-6.72394,174
92.6767,-50.9674,-6.72915,174
92.4075,-50.6123,-6.73358,174
92.1437,-50.266,-6.73726,174
91.885,-49.9278,-6.74021,174
91.631,-49.5973,-6.74246,174
91.3813,-49.2739,-6.74405,174
91.1356,-48.9571,-6.74498,174
91.109,-48.5822,-6.77543,174
91.3316,-48.1229,-6.84112,174
91.5625,-47.6432,-6.90905,174
91.8025,-47.1414,-6.97939,174
92.0525,-46.6154,-7.0524,174
101.277,-42.2209,-8.48191,174
75.7744,-73.4493,-1.11872,0
76.2509,-73.9614,-1.11187,0
76.7442,-74.3218,-1.13339,0
76.9414,-69.9856,-1.91557,174
77.32,-69.8859,-1.99591,174
77.6997,-69.8254,-2.06906,174
78.9299,-76.0337,-1.20064,0
79.535,-76.4845,-1.22115,0
80.1804,-77.0224,-1.23235,0
80.8693,-77.6278,-1.23804,0
81.5962,-78.2523,-1.24558,0
82.3763,-78.9465,-1.24868,0
83.1618,-79.5146,-1.27315,0
84.157,-80.6581,-1.2309,0
85.0109,-81.1717,-1.27319,0
93.4258,-66.3932,-4.77431,174
93.5805,-65.8927,-4.86492,174
90.9165,-63.4712,-4.90374,174
90.3504,-62.6094,-4.96126,174
90.2806,-62.1055,-5.02439,174
90.3088,-61.6761,-5.08761,174
90.3821,-61.2818,-5.15047,174
90.5242,-60.9303,-5.21458,174
90.7272,-60.6111,-5.2805,174
91.1603,-60.3987,-5.35692,174
92.1015,-60.3979,-5.46047,174
98.1594,-56.9608,-6.53181,174
97.106,-56.2823,-6.50006,174
96.359,-55.6941,-6.4892,174
95.7695,-55.1589,-6.48803,174
95.2142,-54.6555,-6.48618,174
94.7526,-54.1841,-6.48986,174
94.4322,-53.7394,-6.50466,174
94.1213,-53.3097,-6.51818,174
93.8192,-52.8941,-6.53048,174
93.5252,-52.4916,-6.54164,174
93.2386,-52.1012,-6.55171,174
92.9591,-51.7221,-6.56077,174
92.6859,-51.3535,-6.56884,174
92.4187,-50.9947,-6.57599,174
92.1571,-50.645,-6.58224,174
91.9005,-50.3039,-6.58765,174
91.6487,-49.9707,-6.59223,174
91.4012,-49.645,-6.59603,174
91.1577,-49.3261,-6.59908,174
90.918,-49.0137,-6.60138,174
90.7236,-48.6948,-6.60853,174
90.9319,-48.2503,-6.66889,174
91.1475,-47.7867,-6.73109,174
91.3711,-47.3024,-6.79533,174
91.6034,-46.7956,-6.86177,174
91.8452,-46.2643,-6.93063,174
100.348,-41.9419,-8.20063,174
100.597,-41.1287,-8.29094,174
76.0123,-73.7062,-1.11516,0
76.4986,-74.1629,-1.11923,0
76.7529,-70.0375,-1.87493,174
77.1316,-69.9159,-1.95939,174
77.512,-69.8553,-2.03297,174
77.9027,-69.8894,-2.09134,174
79.2363,-76.2869,-1.20684,0
79.8504,-76.7149,-1.2323,0
80.5266,-77.3403,-1.23299,0
81.2284,-77.9264,-1.24359,0
81.9884,-78.6159,-1.24478,0
82.7684,-79.2317,-1.26072,0
83.6559,-80.0906,-1.25091,0
84.6188,-81.0279,-1.23828,0
85.4034,-81.2768,-1.31442,0
88.7693,-76.3441,-2.62432,174
93.527,-66.7815,-4.7296,174
93.2975,-65.9873,-4.81821,174
90.5568,-62.9802,-4.93231,174
90.282,-62.3316,-4.99272,174
90.2912,-61.8851,-5.05648,174
90.3403,-61.4728,-5.11937,174
90.4495,-61.1015,-5.1828,174
90.6004,-60.7557,-5.24683,174
90.9441,-60.5047,-5.31884,174
91.385,-60.2883,-5.39637,174
97.6138,-56.6093,-6.51546,174
96.6646,-55.9717,-6.4895,174
96.0567,-55.4196,-6.4887,174
95.4849,-54.9009,-6.48718,174
94.9457,-54.4122,-6.48501,174
94.5895,-53.9575,-6.4975,174
94.274,-53.5205,-6.51164,174
93.9676,-53.0981,-6.52454,174
93.6697,-52.6892,-6.53626,174
93.3795,-52.2929,-6.54686,174
93.0966,-51.9083,-6.55641,174
92.8203,-51.5346,-6.56497,174
92.5502,-51.171,-6.57257,174
92.2859,-50.817,-6.57926,174
92.0269,-50.4717,-6.58508,174
91.7727,-50.1346,-6.59006,174
91.5231,-49.8053,-6.59425,174
91.2777,-49.4831,-6.59766,174
91.0362,-49.1675,-6.60033,174
90.7981,-48.8582,-6.60228,174
90.8279,-48.4725,-6.6388,174
91.0399,-48.0186,-6.70007,174
91.2594,-47.5447,-6.76328,174
91.4873,-47.0493,-6.8286,174
91.7243,-46.5304,-6.89624,174
100.422,-42.246,-8.185,174
100.383,-41.5773,-8.23285,174
101.579,-40.2787,-8.46442,174
75.7792,-73.4545,-1.11865,0
76.256,-73.9669,-1.11181,0
76.7494,-74.3251,-1.13369,0
76.9458,-69.9904,-1.91546,174
77.324,-69.8852,-1.99668,174
77.7036,-69.8247,-2.06982,174
78.9362,-76.0394,-1.20068,0
79.5414,-76.4887,-1.22145,0
80.1874,-77.0289,-1.23236,0
80.8766,-77.6339,-1.23815,0
81.6041,-78.2597,-1.24557,0
82.3844,-78.9523,-1.24892,0
83.1702,-79.5207,-1.27341,0
84.1668,-80.6672,-1.23085,0
85.019,-81.1738,-1.27403,0
93.4237,-66.3852,-4.77523,174
93.6062,-65.9048,-4.86616,174
90.8967,-63.4525,-4.90413,174
90.349,-62.6036,-4.96192,174
90.2807,-62.1008,-5.02506,174
90.3092,-61.6717,-5.08826,174
90.383,-61.2778,-5.15112,174
90.5258,-60.9267,-5.21524,174
90.7316,-60.6089,-5.28128,174
91.1648,-60.3964,-5.35772,174
98.1478,-56.9533,-6.53146,174
97.0957,-56.2756,-6.49974,174
96.3527,-55.6883,-6.48919,174
95.7635,-55.1535,-6.48801,174
95.2086,-54.6504,-6.48616,174
94.7492,-54.1794,-6.49002,174
94.4289,-53.7348,-6.50481,174
94.1181,-53.3053,-6.51831,174
93.8161,-52.8899,-6.5306,174
93.5221,-52.4874,-6.54175,174
93.2357,-52.0972,-6.55182,174
92.9562,-51.7182,-6.56086,174
92.6831,-51.3497,-6.56892,174
92.416,-50.991,-6.57606,174
92.1544,-50.6414,-6.5823,174
91.8979,-50.3004,-6.5877,174
91.6461,-49.9673,-6.59228,174
91.3987,-49.6416,-6.59607,174
91.1552,-49.3228,-6.5991,174
90.9155,-49.0105,-6.6014,174
90.7257,-48.6903,-6.60916,174
90.9341,-48.2456,-6.66952,174
91.1498,-47.7817,-6.73175,174
91.3735,-47.2973,-6.796,174
91.6059,-46.7902,-6.86247,174
91.8478,-46.2586,-6.93136,174
100.348,-41.9344,-8.2013,174
100.613,-41.1135,-8.29388,174
75.8007,-71.6973,-1.28729,0
76.2342,-72.0415,-1.29959,0
76.5872,-70.2424,-1.68385,174
76.9626,-69.9832,-1.79364,174
77.3403,-69.8727,-1.8764,174
77.7213,-69.8246,-1.94778,174
78.2058,-70.5351,-1.89902,174
79.2303,-74.3908,-1.37218,0
79.788,-74.7121,-1.40359,0
80.3452,-74.9399,-1.45077,0
81.0037,-75.5395,-1.44655,0
81.682,-76.0837,-1.45436,0
82.3661,-76.5331,-1.47901,0
83.0218,-76.7945,-1.53174,0
83.7298,-77.1523,-1.57433,0
84.5033,-77.6203,-1.60622,0
85.2488,-77.9265,-1.66144,0
86.0588,-78.3262,-1.70861,0
86.8613,-78.6327,-1.7699,0
87.7739,-79.1146,-1.81528,0
88.7848,-79.7141,-1.85293,0
88.5451,-76.487,-2.37453,174
93.0901,-66.7239,-4.52665,174
93.0425,-66.0691,-4.61988,174
93.1093,-65.5202,-4.7092,174
90.6267,-63.2448,-4.77234,174
90.3119,-62.558,-4.83855,174
90.2469,-62.0594,-4.9038,174
90.273,-61.6307,-4.96812,174
90.3538,-61.2424,-5.03187,174
90.4964,-60.8927,-5.09609,174
90.7055,-60.5778,-5.16177,174
91.1338,-60.364,-5.23573,174
91.8786,-60.276,-5.32462,174
97.9445,-56.9027,-6.35324,174
96.9127,-56.234,-6.33072,174
96.1566,-55.6505,-6.32435,174
95.5796,-55.1224,-6.32824,174
95.0357,-54.6253,-6.33109,174
94.5215,-54.1561,-6.333,174
94.1156,-53.7147,-6.3416,174
93.8155,-53.2931,-6.35758,174
93.5236,-52.8851,-6.37223,174
93.2392,-52.4897,-6.38561,174
92.9617,-52.106,-6.39779,174
92.6907,-51.7332,-6.40884,174
92.4257,-51.3706,-6.41881,174
92.1662,-51.0175,-6.42775,174
91.9119,-50.6732,-6.43571,174
91.6623,-50.3372,-6.44273,174
91.417,-50.0089,-6.44884,174
91.1759,-49.6879,-6.45408,174
90.9384,-49.3736,-6.45848,174
90.7044,-49.0655,-6.46208,174
90.4735,-48.7633,-6.46488,174
90.555,-48.3665,-6.50617,174
90.7566,-47.9178,-6.56318,174
90.9653,-47.4497,-6.62187,174
91.1815,-46.9606,-6.68237,174
91.4061,-46.4486,-6.74486,174
91.6396,-45.9116,-6.80954,174
99.5659,-41.6236,-7.94753,174
99.534,-40.955,-7.99287,174
76.0177,-71.8707,-1.29335,0
76.4593,-72.217,-1.30627,0
76.7733,-70.0239,-1.75458,174
77.1528,-69.9135,-1.83794,174
77.5322,-69.841,-1.91376,174
77.9301,-69.9316,-1.96264,174
78.9609,-74.2309,-1.35757,0
79.51,-74.5549,-1.38752,0
80.0677,-74.8275,-1.42719,0
80.6694,-75.2228,-1.45099,0
81.343,-75.8167,-1.44967,0
82.0305,-76.3346,-1.46312,0
82.695,-76.6656,-1.50533,0
83.3603,-76.9252,-1.55936,0
84.1162,-77.3878,-1.59008,0
84.873,-77.7651,-1.63498,0
85.6576,-78.1376,-1.68373,0
86.4759,-78.5175,-1.73503,0
87.2603,-78.7483,-1.80639,0
88.3083,-79.4801,-1.82691,0
88.7024,-76.1478,-2.4538,174
93.0252,-66.3586,-4.57447,174
93.0748,-65.7889,-4.66539,174
93.2555,-65.327,-4.75395,174
90.3812,-62.8359,-4.80551,174
90.2442,-62.2819,-4.87134,174
90.2553,-61.8386,-4.93646,174
90.312,-61.4327,-5.00047,174
90.4219,-61.0634,-5.06431,174
90.5724,-60.7187,-5.12832,174
90.9178,-60.4697,-5.19881,174
91.3585,-60.2541,-5.27397,174
97.4102,-56.5563,-6.34169,174
96.4554,-55.9243,-6.322,174
95.8607,-55.3796,-6.32645,174
95.3009,-54.8676,-6.32981,174
94.7724,-54.385,-6.33217,174
94.2722,-53.9288,-6.33362,174
93.963,-53.5,-6.34985,174
93.6671,-53.0854,-6.36514,174
93.379,-52.6838,-6.37914,174
93.0982,-52.2944,-6.39191,174
92.824,-51.9163,-6.40351,174
92.5561,-51.5488,-6.41401,174
92.294,-51.191,-6.42346,174
92.0371,-50.8425,-6.4319,174
91.7852,-50.5025,-6.43937,174
91.5379,-50.1704,-6.44593,174
91.2947,-49.8459,-6.45159,174
91.0555,-49.5283,-6.45641,174
90.8198,-49.2172,-6.4604,174
90.5874,-48.9121,-6.46359,174
90.4576,-48.5818,-6.47854,174
90.656,-48.1422,-6.53478,174
90.8612,-47.6839,-6.59261,174
91.0736,-47.2054,-6.65219,174
91.2939,-46.7049,-6.71368,174
91.5229,-46.1806,-6.77725,174
99.7172,-41.8856,-7.94385,174
94.5752,-43.7709,-7.27175,174
99.5585,-40.5903,-8.02156,174
75.8051,-71.7008,-1.28741,0
76.2388,-72.0452,-1.29972,0
76.5911,-70.2366,-1.68554,174
76.9669,-69.9881,-1.79349,174
77.3443,-69.8718,-1.8772,174
77.7255,-69.8259,-1.94823,174
78.2123,-70.5515,-1.89713,174
79.236,-74.3942,-1.37249,0
79.7937,-74.7144,-1.40407,0
80.3512,-74.9423,-1.45128,0
81.0109,-75.5462,-1.44646,0
81.6893,-76.0893,-1.45446,0
82.3728,-76.5358,-1.47954,0
83.0287,-76.7972,-1.5323,0
83.7376,-77.157,-1.57465,0
84.5115,-77.6252,-1.60656,0
85.2573,-77.9311,-1.66186,0
86.0673,-78.3301,-1.70914,0
86.8691,-78.6341,-1.77077,0
87.7848,-79.1223,-1.81547,0
88.7949,-79.7192,-1.85348,0
88.5404,-76.4653,-2.3776,174
93.0887,-66.7161,-4.52765,174
93.0429,-66.0632,-4.62082,174
93.1111,-65.5153,-4.71013,174
90.6077,-63.2268,-4.77291,174
90.3105,-62.5522,-4.83923,174
90.2471,-62.0548,-4.90448,174
90.2734,-61.6264,-4.96878,174
90.3546,-61.2384,-5.03253,174
90.498,-60.8891,-5.09675,174
90.709,-60.5753,-5.1625,174
91.1384,-60.3618,-5.23651,174
91.9007,-60.2812,-5.32618,174
97.9332,-56.8953,-6.353,174
96.9025,-56.2274,-6.3305,174
96.1504,-55.6448,-6.32439,174
95.5737,-55.1171,-6.32828,174
95.0301,-54.6203,-6.33112,174
94.5163,-54.1513,-6.33301,174
94.1124,-53.7102,-6.34177,174
93.8125,-53.2888,-6.35774,174
93.5206,-52.881,-6.37237,174
93.2362,-52.4856,-6.38574,174
92.9589,-52.1021,-6.39791,174
92.6879,-51.7294,-6.40895,174
92.423,-51.3669,-6.41891,174
92.1636,-51.0138,-6.42784,174
91.9093,-50.6697,-6.43579,174
91.6597,-50.3337,-6.4428,174
91.4145,-50.0056,-6.4489,174
91.1734,-49.6846,-6.45413,174
90.936,-49.3703,-6.45853,174
90.702,-49.0624,-6.46211,174
90.4711,-48.7602,-6.46491,174
90.557,-48.362,-6.50676,174
90.7588,-47.913,-6.56379,174
90.9675,-47.4448,-6.62248,174
91.1838,-46.9554,-6.68301,174
91.4085,-46.4431,-6.74553,174
91.6421,-45.9059,-6.81023,174
99.5627,-41.6181,-7.9476,174
99.5346,-40.9476,-7.99346,174
75.8227,-70.2392,-1.42582,0
76.2229,-70.5534,-1.4355,0
76.6064,-70.1958,-1.56776,174
76.9838,-69.9809,-1.67143,174
77.3617,-69.8707,-1.75484,174
77.7443,-69.8351,-1.82429,174
78.2423,-70.632,-1.75594,174
78.9409,-72.4262,-1.53269,0
79.4921,-72.956,-1.52117,0
80.0285,-73.2791,-1.54501,0
80.5523,-73.4642,-1.59166,0
81.0886,-73.6452,-1.6401,0
81.652,-73.8725,-1.68317,0
82.3119,-74.3585,-1.692,0
82.9037,-74.5452,-1.74492,0
83.525,-74.767,-1.79473,0
84.1788,-75.0219,-1.84221,0
84.8666,-75.3046,-1.88846,0
85.4856,-75.3708,-1.9633,0
86.0963,-75.3868,-2.04504,0
86.7152,-75.3923,-2.12873,0
87.4486,-75.5925,-2.19203,0
88.5362,-76.3925,-2.19475,174
89.0618,-76.1077,-2.31445,174
90.7405,-77.7222,-2.24857,0
91.5666,-77.8124,-2.33895,0
92.9405,-66.5695,-4.37486,174
92.8835,-65.9147,-4.47028,174
92.998,-65.4066,-4.56031,174
90.4531,-63.0986,-4.64618,174
90.2737,-62.5069,-4.7167,174
90.2135,-62.0136,-4.78399,174
90.2409,-61.5877,-4.84948,174
90.3256,-61.2033,-4.91393,174
90.4688,-60.8553,-4.97824,174
90.7776,-60.5915,-5.04615,174
91.1332,-60.3416,-5.11596,174
91.7748,-60.2075,-5.19661,174
97.734,-56.8457,-6.17832,174
96.7231,-56.1867,-6.16467,174
95.9584,-55.6078,-6.16293,174
95.3935,-55.0867,-6.17168,174
94.8606,-54.5957,-6.17904,174
94.3564,-54.132,-6.18514,174
93.8784,-53.693,-6.19008,174
93.5202,-53.2771,-6.20247,174
93.2379,-52.8764,-6.2193,174
92.9627,-52.4879,-6.23474,174
92.6938,-52.1106,-6.24889,174
92.431,-51.744,-6.26181,174
92.1738,-51.3871,-6.27354,174
91.9216,-51.0395,-6.28416,174
91.6743,-50.7005,-6.29371,174
91.4313,-50.3695,-6.30224,174
91.1924,-50.046,-6.30978,174
90.9573,-49.7295,-6.31637,174
90.7256,-49.4196,-6.32205,174
90.4971,-49.1158,-6.32685,174
90.2715,-48.8177,-6.33079,174
90.1969,-48.4769,-6.3516,174
90.3858,-48.0423,-6.40386,174
90.5807,-47.5894,-6.45747,174
90.7823,-47.1168,-6.51257,174
90.991,-46.6227,-6.56928,174
91.1826,-46.1168,-6.62456,0
91.4328,-45.5628,-6.68818,174
93.0686,-44.2727,-6.93761,0
76.0232,-70.3976,-1.43057,0
76.4304,-70.7088,-1.44166,0
76.7938,-70.0102,-1.63412,174
77.1741,-69.9115,-1.71614,174
77.5526,-69.8291,-1.79404,174
77.9729,-70.0949,-1.81286,174
78.6795,-72.1706,-1.53863,0
79.2155,-72.6916,-1.52678,0
79.7739,-73.186,-1.52258,0
80.2916,-73.3731,-1.56836,0
80.8216,-73.5562,-1.61591,0
81.3644,-73.735,-1.66528,0
81.9877,-74.1389,-1.68425,0
82.6091,-74.4538,-1.71841,0
83.2087,-74.6384,-1.77236,0
83.8529,-74.8966,-1.81833,0
84.5166,-75.1479,-1.86738,0
85.1864,-75.3591,-1.92359,0
85.7932,-75.3802,-2.00435,0
86.408,-75.391,-2.08707,0
87.0309,-75.3909,-2.17177,0
88.4415,-76.8441,-2.1019,0
88.7002,-76.068,-2.27398,174
90.3395,-77.6742,-2.20499,0
91.1552,-77.769,-2.29384,0
91.992,-77.8543,-2.38581,0
92.8718,-66.205,-4.42417,174
92.9176,-65.6393,-4.51627,174
93.1424,-65.2145,-4.60466,174
90.3408,-62.7821,-4.68231,174
90.2073,-62.2329,-4.75081,174
90.2196,-61.7925,-4.81725,174
90.2839,-61.3928,-4.88224,174
90.3945,-61.0254,-4.94647,174
90.6077,-60.7143,-5.01206,174
90.9533,-60.4646,-5.0812,174
91.3576,-60.2316,-5.15303,174
98.2737,-57.1977,-6.18524,174
97.2106,-56.5045,-6.17137,174
96.2508,-55.8779,-6.15805,174
95.6688,-55.3406,-6.16753,174
95.1205,-54.835,-6.17556,174
94.6025,-54.3582,-6.18227,174
94.1118,-53.9073,-6.18777,174
93.6626,-53.4801,-6.19362,174
93.3767,-53.0731,-6.21115,174
93.098,-52.6787,-6.22727,174
92.8261,-52.2959,-6.24205,174
92.5603,-51.9241,-6.25557,174
92.3004,-51.5625,-6.26788,174
87.6342,-51.7334,-5.83272,174
91.7961,-50.8672,-6.28912,174
91.551,-50.5323,-6.29814,174
91.3101,-50.2052,-6.30617,174
91.0732,-49.8853,-6.31322,174
90.8398,-49.5721,-6.31935,174
90.6098,-49.2654,-6.32458,174
90.3828,-48.9645,-6.32895,174
90.1585,-48.6692,-6.33247,174
90.2916,-48.2595,-6.37784,174
90.4835,-47.8158,-6.43077,174
90.6817,-47.3532,-6.48511,174
90.8868,-46.87,-6.54101,174
91.0994,-46.3644,-6.59859,174
91.1855,-45.898,-6.64051,0
92.2411,-44.9332,-6.81099,0
93.9978,-43.526,-7.07991,0
75.8269,-70.2424,-1.42591,0
76.2272,-70.5567,-1.43561,0
76.6101,-70.1873,-1.56998,174
76.9882,-69.9858,-1.67125,174
77.3656,-69.8698,-1.75565,174
77.7488,-69.8391,-1.82427,174
78.2488,-70.6486,-1.7539,174
78.9465,-72.4316,-1.53256,0
79.498,-72.9616,-1.52105,0
80.034,-73.281,-1.54549,0
80.5578,-73.4661,-1.59215,0
81.0942,-73.647,-1.64062,0
81.6589,-73.878,-1.68319,0
82.318,-74.3605,-1.69254,0
82.9098,-74.547,-1.74549,0
83.5317,-74.7697,-1.79521,0
84.1857,-75.0245,-1.84272,0
84.8744,-75.3088,-1.8888,0
85.492,-75.3711,-1.96415,0
86.1027,-75.387,-2.04589,0
86.7217,-75.3923,-2.12962,0
87.4687,-75.6183,-2.19011,0
88.5384,-76.3834,-2.19665,174
89.0698,-76.1092,-2.31524,174
90.749,-77.7232,-2.2495,0
91.5753,-77.8133,-2.33991,0
92.9392,-66.5619,-4.3759,174
92.8842,-65.9091,-4.47123,174
92.9998,-65.4018,-4.56124,174
90.4391,-63.0841,-4.64693,174
90.2723,-62.5012,-4.71741,174
90.2136,-62.009,-4.78468,174
90.2418,-61.5836,-4.85015,174
90.3265,-61.1993,-4.91459,174
90.4704,-60.8518,-4.9789,174
90.7812,-60.5889,-5.04686,174
91.1378,-60.3393,-5.11672,174
91.7942,-60.2116,-5.19791,174
97.7229,-56.8385,-6.17818,174
96.7131,-56.1802,-6.16453,174
95.9523,-55.6022,-6.16303,174
95.3878,-55.0814,-6.17176,174
94.8552,-54.5907,-6.17911,174
94.3513,-54.1273,-6.18519,174
93.8735,-53.6885,-6.19012,174
93.5172,-53.2729,-6.20266,174
93.235,-52.8723,-6.21946,174
92.9598,-52.4839,-6.2349,174
92.6911,-52.1068,-6.24903,174
92.4283,-51.7402,-6.26193,174
92.1711,-51.3835,-6.27366,174
91.919,-51.0359,-6.28427,174
91.6717,-50.697,-6.29381,174
91.4288,-50.3661,-6.30232,174
91.1899,-50.0427,-6.30985,174
90.9548,-49.7263,-6.31643,174
90.7232,-49.4164,-6.3221,174
90.4947,-49.1127,-6.32689,174
90.2691,-48.8146,-6.33083,174
90.1989,-48.4725,-6.35214,174
90.3878,-48.0376,-6.40441,174
90.5828,-47.5846,-6.45803,174
90.7844,-47.1117,-6.51315,174
90.9932,-46.6175,-6.56988,174
91.1816,-46.1128,-6.62475,0
91.4352,-45.557,-6.68882,174
93.087,-44.258,-6.94042,0
75.8418,-68.9745,-1.54757,0
76.2114,-69.204,-1.56627,0
76.5933,-69.4697,-1.57922,0
76.9881,-69.7401,-1.59267,0
77.3837,-69.875,-1.63184,174
77.7824,-69.9741,-1.67776,174
78.2397,-70.4469,-1.65962,0
78.6812,-70.6753,-1.68565,0
79.1319,-70.8813,-1.71664,0
79.6138,-71.1746,-1.73475,0
80.1182,-71.4879,-1.75156,0
80.6289,-71.7512,-1.77811,0
81.1496,-71.9875,-1.81045,0
81.6727,-72.1761,-1.85138,0
82.2094,-72.3583,-1.89459,0
82.7291,-72.4484,-1.95196,0
83.2705,-72.563,-2.00679,0
83.8287,-72.6832,-2.06193,0
84.3973,-72.7923,-2.11965,0
85.0046,-72.95,-2.17251,0
85.7044,-73.2558,-2.20912,0
86.4172,-73.5303,-2.25226,0
87.0475,-73.6013,-2.32116,0
87.7027,-73.683,-2.39023,0
88.3955,-73.7924,-2.45791,0
89.6604,-74.7579,-2.44051,0
90.8451,-75.4839,-2.45531,0
91.8648,-75.8777,-2.50844,0
92.6829,-75.9304,-2.59692,0
93.5348,-75.9882,-2.68718,0
92.7938,-66.4181,-4.22597,174
92.7288,-65.7643,-4.32367,174
92.8883,-65.2948,-4.41359,174
90.4033,-63.0373,-4.52222,174
90.2357,-62.4563,-4.5957,174
90.1802,-61.9681,-4.66492,174
90.213,-61.5472,-4.73158,174
90.2976,-61.1644,-4.79663,174
90.5071,-60.8527,-4.86202,174
90.8504,-60.6053,-4.92958,174
91.2025,-60.352,-4.99802,174
97.5277,-56.7899,-6.00692,174
96.5371,-56.1402,-6.00177,174
95.7642,-55.5661,-6.00484,174
95.2111,-55.0516,-6.01823,174
94.6889,-54.5667,-6.02992,174
94.1945,-54.1084,-6.04005,174
93.7252,-53.6742,-6.04875,174
93.2789,-53.262,-6.05615,174
92.9617,-52.868,-6.0714,174
92.6951,-52.4861,-6.08878,174
92.3065,-52.123,-6.09347,0
91.8158,-51.785,-6.08648,0
87.5856,-51.8699,-5.72957,174
87.5535,-51.6007,-5.75242,174
90.5163,-50.8698,-6.06589,0
90.2615,-50.5687,-6.07203,0
90.0748,-50.2631,-6.08361,0
89.9683,-49.945,-6.1023,0
89.8536,-49.6303,-6.11935,0
89.7309,-49.3195,-6.13474,0
89.6021,-49.012,-6.14868,0
89.4692,-48.7074,-6.16137,0
89.3438,-48.4017,-6.17415,0
89.3125,-48.0614,-6.19708,0
89.2722,-47.7201,-6.21863,0
89.2227,-47.3782,-6.23875,0
89.1637,-47.0359,-6.25741,0
89.0955,-46.6937,-6.27453,0
89.0177,-46.3517,-6.29009,0
76.0272,-69.0906,-1.55687,0
76.4027,-69.3363,-1.57301,0
76.7912,-69.6062,-1.58586,0
77.1927,-69.877,-1.59994,0
77.575,-69.8359,-1.67085,174
78.0256,-70.3315,-1.64761,0
78.4614,-70.5642,-1.6723,0
78.9073,-70.7797,-1.70111,0
79.3643,-70.9843,-1.73292,0
79.8716,-71.3566,-1.73921,0
80.3741,-71.6213,-1.7647,0
80.8933,-71.883,-1.79236,0
81.4123,-72.0835,-1.83086,0
81.9422,-72.269,-1.87292,0
82.4716,-72.4072,-1.92301,0
82.9985,-72.4996,-1.98045,0
83.5511,-72.625,-2.03432,0
84.1146,-72.7397,-2.09076,0
84.6888,-72.8431,-2.1498,0
85.3612,-73.1184,-2.18896,0
86.0612,-73.3951,-2.23051,0
86.7616,-73.619,-2.28083,0
87.3666,-73.6259,-2.35773,0
88.0504,-73.7393,-2.42409,0
88.7525,-73.8444,-2.49315,0
90.2167,-75.0732,-2.45224,0
91.3801,-75.7205,-2.47797,0
92.2698,-75.8978,-2.55346,0
93.1104,-75.9609,-2.6421,0
93.9741,-76.0132,-2.73406,0
92.9745,-66.8701,-4.1717,174
92.7066,-66.0431,-4.27712,174
92.805,-65.5229,-4.36945,174
91.0684,-63.7389,-4.47803,174
90.3021,-62.7297,-4.56001,174
90.1738,-62.1863,-4.63109,174
90.1866,-61.7481,-4.69883,174
90.2559,-61.3532,-4.76465,174
90.3673,-60.9876,-4.82925,174
90.6795,-60.7284,-4.89605,174
91.0272,-60.4781,-4.96404,174
91.384,-60.2216,-5.03297,174
98.0561,-57.1366,-6.00926,174
97.015,-56.4536,-6.00439,174
96.072,-55.8354,-5.99898,174
95.4807,-55.3023,-6.01183,174
94.9436,-54.8031,-6.02434,174
94.4358,-54.332,-6.03522,174
93.9544,-53.8862,-6.04461,174
93.497,-53.4633,-6.05265,174
93.096,-53.0613,-6.06227,174
92.8262,-52.6737,-6.08036,174
92.5545,-52.2978,-6.09632,0
92.0569,-51.9497,-6.09015,0
87.7139,-51.9923,-5.72836,174
87.5481,-51.7364,-5.73918,174
90.7141,-51.012,-6.06918,0
90.3881,-50.7165,-6.06924,0
90.1309,-50.4205,-6.07438,0
90.022,-50.1019,-6.09325,0
89.9113,-49.7856,-6.11111,0
89.7926,-49.4728,-6.12733,0
89.6659,-49.1639,-6.14189,0
89.5359,-48.8576,-6.15529,0
89.403,-48.5538,-6.1676,0
89.3292,-48.2299,-6.1859,0
89.2933,-47.8891,-6.20814,0
89.2483,-47.5474,-6.22899,0
89.1941,-47.2053,-6.24836,0
89.1305,-46.863,-6.26624,0
89.0574,-46.5208,-6.28259,0
88.9747,-46.1791,-6.29736,0
75.8455,-68.9769,-1.54777,0
76.2153,-69.2064,-1.56647,0
76.5974,-69.4725,-1.57935,0
76.9924,-69.7429,-1.59281,0
77.3876,-69.8742,-1.63265,174
77.787,-69.9785,-1.67764,174
78.2442,-70.4493,-1.65988,0
78.6859,-70.6775,-1.68596,0
79.1366,-70.8834,-1.71697,0
79.6193,-71.179,-1.73473,0
80.1234,-71.4906,-1.75182,0
80.6342,-71.7539,-1.7784,0
81.1549,-71.9895,-1.81087,0
81.6784,-72.1781,-1.85182,0
82.2151,-72.3602,-1.89505,0
82.7347,-72.4492,-1.95257,0
83.2763,-72.5643,-2.00735,0
83.8344,-72.6844,-2.06251,0
84.4034,-72.7934,-2.12027,0
85.0119,-72.9534,-2.17284,0
85.7116,-73.2587,-2.20956,0
86.4247,-73.5331,-2.25272,0
87.0535,-73.6009,-2.32202,0
87.7098,-73.6842,-2.39092,0
88.4028,-73.7935,-2.45863,0
89.6716,-74.7642,-2.44075,0
90.8586,-75.4927,-2.45539,0
91.873,-75.878,-2.50938,0
92.6916,-75.931,-2.59783,0
93.5438,-75.9887,-2.68814,0
92.7925,-66.4106,-4.22703,174
92.7295,-65.7587,-4.32463,174
92.8901,-65.29,-4.41452,174
90.405,-63.0335,-4.52298,174
90.2344,-62.4506,-4.59644,174
90.1804,-61.9635,-4.66563,174
90.2139,-61.5432,-4.73226,174
90.2985,-61.1604,-4.7973,174
90.5106,-60.8501,-4.86272,174
90.854,-60.6027,-4.93028,174
91.2062,-60.3493,-4.99874,174
97.5168,-56.7827,-6.00687,174
96.5273,-56.1338,-6.00172,174
95.7583,-55.5605,-6.00499,174
95.2055,-55.0464,-6.01836,174
94.6836,-54.5617,-6.03003,174
94.1894,-54.1037,-6.04014,174
93.7205,-53.6698,-6.04883,174
93.2744,-53.2578,-6.05622,174
92.9589,-52.864,-6.07159,174
92.6924,-52.4822,-6.08895,174
92.3014,-52.1193,-6.09341,0
91.8107,-51.7816,-6.0864,0
87.5847,-51.8671,-5.72975,174
87.554,-51.5978,-5.75274,174
90.5136,-50.8666,-6.06596,0
90.2588,-50.5657,-6.07209,0
90.0737,-50.2597,-6.0838,0
89.9671,-49.9417,-6.10249,0
89.8523,-49.6271,-6.11951,0
89.7295,-49.3163,-6.13489,0
89.6008,-49.0088,-6.14883,0
89.4677,-48.7043,-6.16149,0
89.3436,-48.3981,-6.1744,0
89.3122,-48.0578,-6.19731,0
89.2717,-47.7165,-6.21885,0
89.222,-47.3746,-6.23895,0
89.1631,-47.0324,-6.25758,0
89.0947,-46.6901,-6.2747,0
89.0168,-46.3481,-6.29025,0
75.8581,-67.8854,-1.65197,0
76.203,-68.1041,-1.66692,0
76.5573,-68.3087,-1.68556,0
76.9208,-68.5051,-1.70662,0
77.297,-68.7327,-1.72271,0
77.6793,-68.9131,-1.74856,0
78.0711,-69.0899,-1.77582,0
78.4726,-69.263,-1.80454,0
78.8862,-69.4451,-1.83256,0
79.3121,-69.6306,-1.86092,0
79.7494,-69.8123,-1.89093,0
80.1941,-69.9744,-1.92511,0
80.6537,-70.1447,-1.95897,0
81.1277,-70.319,-1.99324,0
81.6143,-70.4882,-2.02945,0
82.114,-70.6522,-2.06758,0
81.3704,-67.5488,-2.57449,174
81.6727,-67.365,-2.65188,174
83.5559,-70.7964,-2.23675,0
84.0448,-70.8142,-2.29822,0
84.5392,-70.8212,-2.36153,0
85.0848,-70.9049,-2.41569,0
85.6532,-71,-2.46957,0
86.2332,-71.0835,-2.52609,0
86.8412,-71.1818,-2.58221,0
87.4954,-71.3192,-2.63557,0
88.1401,-71.4049,-2.69635,0
88.7968,-71.4743,-2.76048,0
89.4649,-71.5264,-2.82799,0
90.2797,-71.7351,-2.88242,0
91.1769,-71.9979,-2.93513,0
92.1098,-72.2494,-2.99261,0
93.2562,-72.6866,-3.03889,0
94.4054,-73.0551,-3.09636,0
96.0096,-73.8221,-3.13045,0
92.6526,-66.2717,-4.07977,174
92.6118,-65.6426,-4.179,174
92.7802,-65.1845,-4.26898,174
90.4155,-63.0181,-4.39829,174
90.203,-62.4091,-4.47547,174
90.1472,-61.9229,-4.5466,174
90.2041,-61.518,-4.61428,174
90.2697,-61.1257,-4.67997,174
91.3754,-61.2848,-4.75146,174
91.3061,-60.8086,-4.81646,174
91.2443,-60.3493,-4.87874,174
91.6744,-60.1189,-4.94803,174
98.2815,-59.029,-5.62514,0
96.728,-58.1177,-5.6215,0
95.8302,-57.4265,-5.63949,0
95.2496,-56.843,-5.6674,0
94.7655,-56.3065,-5.69591,0
94.3507,-55.8058,-5.72443,0
93.8129,-55.312,-5.74187,0
93.2917,-54.8466,-5.75635,0
92.8266,-54.411,-5.77078,0
92.383,-53.9989,-5.78334,0
91.9407,-53.6077,-5.79287,0
91.4506,-53.2367,-5.79584,0
91.049,-52.8866,-5.80245,0
90.6541,-52.554,-5.807,0
90.2915,-52.2368,-5.81166,0
89.9439,-51.9337,-5.81533,0
87.5637,-51.8649,-5.64283,174
87.584,-51.5897,-5.6702,174
89.1087,-51.0791,-5.83256,0
88.923,-50.7994,-5.84349,0
88.8394,-50.5051,-5.86283,0
88.7484,-50.2136,-5.88072,0
88.6502,-49.9248,-5.89716,0
88.5451,-49.639,-5.91216,0
88.4423,-49.3537,-5.92665,0
88.3369,-49.0699,-5.94018,0
88.2247,-48.7889,-5.95229,0
88.1057,-48.5111,-5.96297,0
88.0325,-48.2155,-5.97798,0
87.9809,-47.9083,-5.99491,0
87.9209,-47.6012,-6.01049,0
87.8527,-47.2943,-6.02472,0
87.7759,-46.988,-6.03751,0
76.0312,-67.996,-1.65938,0
76.3809,-68.2108,-1.67557,0
76.7398,-68.4082,-1.69605,0
77.1092,-68.619,-1.71482,0
77.489,-68.8243,-1.73559,0
77.876,-69.0029,-1.76215,0
78.2727,-69.1778,-1.79015,0
78.6796,-69.3519,-1.81911,0
79.1,-69.5392,-1.84669,0
79.5316,-69.7229,-1.87588,0
79.9728,-69.8951,-1.90794,0
80.4236,-70.0566,-1.9427,0
80.8916,-70.2334,-1.97604,0
81.372,-70.4052,-2.01129,0
81.865,-70.5715,-2.0485,0
82.3609,-70.705,-2.09166,0
81.5318,-67.4768,-2.61079,174
81.8578,-67.3509,-2.67969,174
83.8022,-70.8067,-2.26757,0
84.2937,-70.8188,-2.33,0
84.8079,-70.8537,-2.38999,0
85.3705,-70.9543,-2.44258,0
85.9447,-71.0437,-2.49779,0
86.5305,-71.121,-2.55567,0
87.1811,-71.2711,-2.60671,0
87.8196,-71.3645,-2.66587,0
88.4704,-71.442,-2.72832,0
89.133,-71.5029,-2.79416,0
89.8489,-71.6015,-2.85803,0
90.7284,-71.8691,-2.90847,0
91.6437,-72.1265,-2.96356,0
92.7075,-72.5008,-3.01272,0
93.8294,-72.8734,-3.06719,0
95.1641,-73.4018,-3.11546,0
96.8363,-74.1856,-3.15302,0
92.7258,-66.6341,-4.02693,174
92.5448,-65.8845,-4.13314,174
92.6972,-65.4105,-4.22473,174
90.9799,-63.6483,-4.34941,174
90.281,-62.6891,-4.43831,174
90.1406,-62.1399,-4.51212,174
90.1749,-61.7167,-4.58106,174
90.2338,-61.3169,-4.6477,174
91.4064,-61.524,-4.71817,174
91.3414,-61.043,-4.78468,174
91.2744,-60.5747,-4.84826,174
91.4469,-60.2281,-4.91332,174
92.2252,-60.1391,-4.99071,174
97.3525,-58.5225,-5.61817,0
96.2685,-57.7612,-5.63118,0
95.4903,-57.1183,-5.6518,0
95.0046,-56.5686,-5.68231,0
94.5349,-56.0475,-5.70957,0
94.0768,-55.5526,-5.73362,0
93.5476,-55.0734,-5.74954,0
93.05,-54.6231,-5.76362,0
92.6012,-54.2001,-5.77743,0
92.1628,-53.7988,-5.78876,0
91.6745,-53.4172,-5.79341,0
91.2468,-53.0576,-5.79945,0
90.8487,-52.7164,-5.80499,0
90.465,-52.3921,-5.80917,0
90.1153,-52.0819,-5.81374,0
87.6823,-51.9878,-5.64003,174
87.5407,-51.7302,-5.65382,174
89.2208,-51.2169,-5.82849,0
88.9939,-50.9405,-5.83633,0
88.8816,-50.6504,-5.85344,0
88.7943,-50.3575,-5.87205,0
88.6997,-50.0673,-5.88921,0
88.598,-49.78,-5.90492,0
88.4919,-49.4951,-5.91944,0
88.3899,-49.2099,-5.93365,0
88.281,-48.9276,-5.94647,0
88.1655,-48.6482,-5.95785,0
88.055,-48.3673,-5.96912,0
88.0075,-48.0603,-5.98671,0
87.9517,-47.7531,-6.00295,0
87.8875,-47.4461,-6.01784,0
87.8149,-47.1395,-6.03135,0
87.7338,-46.8335,-6.04344,0
75.8616,-67.8877,-1.65212,0
76.2067,-68.1064,-1.66708,0
76.561,-68.3108,-1.68577,0
76.9246,-68.5072,-1.70685,0
77.3009,-68.7346,-1.72297,0
77.6834,-68.9149,-1.74883,0
78.0752,-69.0917,-1.77611,0
78.4768,-69.2648,-1.80486,0
78.8905,-69.447,-1.83284,0
79.3166,-69.6325,-1.86123,0
79.7539,-69.8141,-1.89126,0
80.1989,-69.9761,-1.92548,0
80.6585,-70.1465,-1.95931,0
81.1327,-70.3208,-1.99361,0
81.6195,-70.4899,-2.02984,0
82.1193,-70.6541,-2.06796,0
81.3728,-67.5449,-2.57558,174
81.6761,-67.3636,-2.6526,174
83.561,-70.7966,-2.23738,0
84.0498,-70.8143,-2.29887,0
84.5446,-70.8216,-2.36215,0
85.0905,-70.9059,-2.41624,0
85.6591,-71.0009,-2.47015,0
86.2393,-71.0843,-2.5267,0
86.8481,-71.1837,-2.58271,0
87.5021,-71.3202,-2.63618,0
88.1469,-71.4057,-2.697,0
88.8037,-71.475,-2.76116,0
89.4719,-71.5268,-2.82872,0
90.2889,-71.738,-2.88295,0
91.1863,-72.0006,-2.9357,0
92.1202,-72.2525,-2.9932,0
93.2678,-72.6905,-3.03945,0
94.4177,-73.0589,-3.09699,0
96.0278,-73.831,-3.13078,0
92.6577,-66.2693,-4.08066,174
92.6135,-65.6378,-4.17994,174
92.7819,-65.1798,-4.26991,174
90.4171,-63.0143,-4.39906,174
90.2013,-62.4032,-4.47624,174
90.1473,-61.9183,-4.54732,174
90.2047,-61.5138,-4.61498,174
90.2706,-61.1217,-4.68064,174
91.3747,-61.2798,-4.75215,174
91.3054,-60.8037,-4.81712,174
91.2437,-60.3446,-4.87937,174
91.6792,-60.1165,-4.94877,174
98.2616,-59.0181,-5.62501,0
96.7185,-58.1102,-5.62172,0
95.8211,-57.4196,-5.63966,0
95.2445,-56.8372,-5.66772,0
94.7605,-56.301,-5.69619,0
94.345,-55.8005,-5.72462,0
93.8073,-55.307,-5.74203,0
93.2864,-54.8419,-5.75649,0
92.822,-54.4066,-5.77092,0
92.3784,-53.9947,-5.78345,0
91.936,-53.6038,-5.79295,0
91.4464,-53.233,-5.79592,0
91.0448,-52.883,-5.80251,0
90.65,-52.5506,-5.80703,0
90.2879,-52.2335,-5.81171,0
89.9403,-51.9306,-5.81535,0
87.5623,-51.8623,-5.64298,174
87.5855,-51.5866,-5.6706,174
89.1063,-51.0762,-5.83264,0
88.9222,-50.7963,-5.84371,0
88.8384,-50.5021,-5.86302,0
88.7474,-50.2105,-5.8809,0
88.6493,-49.9218,-5.89733,0
88.5439,-49.6361,-5.91231,0
88.4412,-49.3507,-5.9268,0
88.3358,-49.0669,-5.94031,0
88.2235,-48.786,-5.9524,0
88.1045,-48.5083,-5.96307,0
88.032,-48.2122,-5.97817,0
87.9803,-47.9051,-5.99507,0
87.9203,-47.598,-6.01065,0
87.8519,-47.2911,-6.02485,0
87.775,-46.9848,-6.03764,0
75.8722,-66.8803,-1.75441,0
76.1936,-67.0633,-1.77123,0
76.5236,-67.2513,-1.78768,0
76.8624,-67.4371,-1.80531,0
77.2103,-67.6204,-1.82417,0
77.5625,-67.7595,-1.8522,0
77.925,-67.9147,-1.87769,0
78.2984,-68.0808,-1.90181,0
78.6793,-68.2343,-1.92893,0
79.0669,-68.3715,-1.9596,0
79.4631,-68.5047,-1.99157,0
79.8716,-68.6458,-2.02282,0
80.2866,-68.7716,-2.05734,0
80.7105,-68.8916,-2.09346,0
81.1436,-69.0054,-2.13124,0
81.5895,-69.1227,-2.16918,0
81.3523,-67.4422,-2.47906,174
81.6474,-67.247,-2.55829,174
81.982,-67.15,-2.62208,174
83.3398,-69.2399,-2.37863,0
83.7726,-69.2091,-2.44006,0
84.2186,-69.1884,-2.50017,0
84.6678,-69.1563,-2.56197,0
85.1665,-69.1927,-2.61531,0
85.6774,-69.2253,-2.66987,0
86.1964,-69.246,-2.72666,0
86.723,-69.2544,-2.78568,0
87.2569,-69.2499,-2.84695,0
87.7976,-69.2318,-2.9105,0
88.3448,-69.1996,-2.97635,0
88.9055,-69.1622,-3.04355,0
89.4818,-69.1206,-3.11207,0
90.08,-69.0805,-3.18148,0
90.6914,-69.0303,-3.25292,0
91.3091,-68.9622,-3.32709,0
92.068,-69.008,-3.39358,0
92.9008,-69.0875,-3.46005,0
93.7863,-69.1741,-3.52906,0
95.028,-69.5221,-3.58469,0
96.8346,-70.2626,-3.62345,0
92.4402,-66.0705,-3.93933,174
92.5484,-65.5612,-4.03468,174
92.7255,-65.1126,-4.12484,174
90.4276,-62.9989,-4.27435,174
90.2001,-62.3813,-4.35539,174
90.2205,-61.9429,-4.42744,174
90.2538,-61.5228,-4.49673,174
90.297,-61.1175,-4.56363,174
90.5483,-60.8287,-4.62829,174
90.8233,-60.547,-4.69286,174
91.2277,-60.3193,-4.7585,174
91.6829,-60.1006,-4.82584,174
96.7454,-61.7659,-4.96733,0
94.8258,-60.4767,-5.00848,0
94.4566,-59.8545,-5.06906,0
94.1488,-59.2792,-5.12653,0
93.8716,-58.7356,-5.18083,0
93.6456,-58.2265,-5.23316,0
93.3845,-57.7246,-5.28099,0
93.1192,-57.2392,-5.32541,0
92.8847,-56.7773,-5.36801,0
92.6431,-56.3288,-5.4075,0
92.3952,-55.8937,-5.44396,0
92.0284,-55.4559,-5.47166,0
91.6442,-55.0353,-5.49525,0
91.2662,-54.6347,-5.51605,0
90.858,-54.2506,-5.53207,0
90.4141,-53.8842,-5.54287,0
89.9837,-53.5392,-5.55145,0
89.6245,-53.2143,-5.56189,0
89.4034,-52.9034,-5.57948,0
89.1809,-52.6023,-5.59523,0
88.9572,-52.3106,-5.60922,0
88.7324,-52.0283,-5.62152,0
88.5242,-51.7532,-5.63356,0
88.3292,-51.4844,-5.64523,0
88.1322,-51.223,-5.65541,0
87.9335,-50.9691,-5.66414,0
87.8141,-50.7059,-5.67852,0
87.7323,-50.4372,-5.69531,0
87.6518,-50.169,-5.71151,0
87.5684,-49.9022,-5.72675,0
87.4785,-49.6376,-5.74071,0
87.3823,-49.3754,-5.75338,0
87.2798,-49.1159,-5.76474,0
87.1719,-48.8589,-5.7749,0
87.075,-48.5978,-5.78549,0
86.9154,-48.3633,-5.78897,0
86.8465,-48.09,-5.8012,0
86.769,-47.8181,-5.81202,0
86.6829,-47.5481,-5.82143,0
76.0335,-66.9695,-1.76351,0
76.3591,-67.1585,-1.77939,0
76.6936,-67.3455,-1.79643,0
77.037,-67.53,-1.81468,0
77.388,-67.6976,-1.83695,0
77.7436,-67.831,-1.86631,0
78.1124,-67.9992,-1.88968,0
78.4905,-68.163,-1.91458,0
78.8741,-68.3042,-1.94424,0
79.2659,-68.439,-1.97564,0
79.6687,-68.5783,-2.00687,0
80.08,-68.7101,-2.04006,0
80.4996,-68.833,-2.07538,0
80.9281,-68.9499,-2.11234,0
81.366,-69.061,-2.1509,0
81.8202,-69.1842,-2.1883,0
81.4906,-67.3154,-2.52345,174
81.8279,-67.2254,-2.58661,174
82.1714,-67.1443,-2.64794,174
83.5566,-69.2224,-2.40992,0
83.9975,-69.2001,-2.47021,0
84.4452,-69.1736,-2.53118,0
84.9167,-69.1724,-2.58911,0
85.4236,-69.2106,-2.6426,0
85.9386,-69.2372,-2.69828,0
86.4615,-69.2518,-2.75619,0
86.9918,-69.2537,-2.81634,0
87.5291,-69.2424,-2.87877,0
88.0732,-69.2173,-2.94348,0
88.6235,-69.1778,-3.01049,0
89.1959,-69.1432,-3.07786,0
89.7801,-69.0989,-3.14713,0
90.388,-69.0573,-3.21723,0
91.0027,-68.9982,-3.29005,0
91.6878,-68.9852,-3.36039,0
92.4845,-69.0493,-3.42671,0
93.3305,-69.1206,-3.49528,0
94.3305,-69.2861,-3.56065,0
95.9191,-69.8918,-3.60321,0
92.5786,-66.4802,-3.88229,174
92.4635,-65.7878,-3.98913,174
92.6344,-65.3312,-4.08062,174
90.9124,-63.5726,-4.22192,174
90.2531,-62.6441,-4.31731,174
90.2033,-62.1539,-4.39225,174
90.2376,-61.7296,-4.46274,174
90.2699,-61.3138,-4.53084,174
90.4237,-60.972,-4.59632,174
90.6761,-60.6815,-4.66089,174
91.0092,-60.4248,-4.72578,174
91.4555,-60.2099,-4.79232,174
92.0784,-60.0543,-4.86272,174
95.7965,-61.1092,-4.9906,0
94.6127,-60.1491,-5.03913,0
94.3023,-59.5614,-5.09865,0
93.9898,-58.996,-5.15391,0
93.7608,-58.4773,-5.20778,0
93.5147,-57.971,-5.25777,0
93.2498,-57.4771,-5.3038,0
93.0016,-57.0042,-5.34734,0
92.7634,-56.549,-5.38835,0
92.5186,-56.1073,-5.42629,0
92.2154,-55.671,-5.45863,0
91.8336,-55.2408,-5.48393,0
91.4525,-54.8304,-5.50609,0
91.0776,-54.4397,-5.52554,0
90.6321,-54.0628,-5.53781,0
90.1952,-53.7073,-5.54746,0
89.7714,-53.3725,-5.55502,0
89.513,-53.056,-5.57101,0
89.2912,-52.7501,-5.58766,0
89.0681,-52.4537,-5.60251,0
88.8438,-52.1668,-5.61564,0
88.6199,-51.889,-5.62722,0
88.4259,-51.6165,-5.63965,0
88.2299,-51.3514,-5.65055,0
88.0321,-51.0938,-5.66,0
87.8522,-50.8398,-5.6697,0
87.7736,-50.5699,-5.68717,0
87.6907,-50.3019,-5.7035,0
87.6105,-50.0339,-5.71937,0
87.5238,-49.7682,-5.73397,0
87.4307,-49.5048,-5.74727,0
87.3312,-49.244,-5.75928,0
87.2256,-48.9858,-5.76999,0
87.1236,-48.7268,-5.7804,0
86.9942,-48.4791,-5.78734,0
86.8816,-48.2251,-5.79531,0
86.8084,-47.9524,-5.80684,0
86.7265,-47.6815,-5.81696,0
86.6361,-47.4125,-5.82563,0
75.8755,-66.8822,-1.7546,0
76.197,-67.0653,-1.77139,0
76.527,-67.2533,-1.78786,0
76.8659,-67.439,-1.8055,0
77.214,-67.6223,-1.82436,0
77.5662,-67.7608,-1.85253,0
77.9288,-67.9165,-1.87793,0
78.3023,-68.0826,-1.90207,0
78.6833,-68.2357,-1.92924,0
79.071,-68.3729,-1.95993,0
79.4673,-68.5062,-1.99189,0
79.8758,-68.6471,-2.02318,0
80.2909,-68.7729,-2.0577,0
80.715,-68.8929,-2.09384,0
81.1481,-69.0066,-2.13165,0
81.5941,-69.124,-2.16957,0
81.3552,-67.4396,-2.47997,174
81.651,-67.2463,-2.55891,174
81.9856,-67.1493,-2.6227,174
83.3443,-69.2395,-2.37927,0
83.7773,-69.209,-2.44067,0
84.2233,-69.1882,-2.50081,0
84.6726,-69.1559,-2.56262,0
85.1718,-69.1931,-2.61586,0
85.6829,-69.2255,-2.67045,0
86.2018,-69.2461,-2.72726,0
86.7285,-69.2544,-2.7863,0
87.2624,-69.2497,-2.8476,0
87.8033,-69.2316,-2.91117,0
88.3505,-69.1992,-2.97705,0
88.9114,-69.1619,-3.04425,0
89.4879,-69.1202,-3.1128,0
90.0863,-69.08,-3.1822,0
90.6978,-69.0297,-3.25368,0
91.3155,-68.9614,-3.32787,0
92.076,-69.0085,-3.39428,0
92.9096,-69.0882,-3.46077,0
93.7975,-69.1765,-3.5297,0
95.0459,-69.5296,-3.58505,0
96.8541,-70.2703,-3.62391,0
92.4391,-66.0634,-3.94044,174
92.5501,-65.5565,-4.03563,174
92.7275,-65.108,-4.12577,174
90.4293,-62.995,-4.27512,174
90.199,-62.3758,-4.35618,174
90.2209,-61.9385,-4.42817,174
90.2541,-61.5185,-4.49744,174
90.2996,-61.1145,-4.5643,174
90.5509,-60.8257,-4.62896,174
90.8271,-60.5445,-4.69354,174
91.2323,-60.3171,-4.75919,174
91.6887,-60.0987,-4.82657,174
96.7252,-61.7518,-4.96784,0
94.8214,-60.4698,-5.00913,0
94.4536,-59.8484,-5.06968,0
94.1455,-59.2733,-5.12711,0
93.8693,-58.7303,-5.1814,0
93.643,-58.2212,-5.23367,0
93.3816,-57.7195,-5.28146,0
93.1168,-57.2343,-5.32588,0
92.8822,-56.7725,-5.36845,0
92.6405,-56.3242,-5.40789,0
92.3927,-55.8893,-5.44432,0
92.0244,-55.4515,-5.47192,0
91.6402,-55.031,-5.49547,0
91.2623,-54.6306,-5.51624,0
90.8534,-54.2466,-5.53219,0
90.4096,-53.8805,-5.54296,0
89.9794,-53.5357,-5.55153,0
89.6221,-53.211,-5.56208,0
89.4012,-52.9003,-5.57965,0
89.1786,-52.5992,-5.59539,0
88.9549,-52.3076,-5.60936,0
88.73,-52.0254,-5.62163,0
88.5222,-51.7504,-5.63369,0
88.3272,-51.4816,-5.64535,0
88.1302,-51.2204,-5.65551,0
87.9314,-50.9665,-5.66423,0
87.8134,-50.7031,-5.67869,0
87.7315,-50.4344,-5.69548,0
87.651,-50.1663,-5.71168,0
87.5675,-49.8994,-5.72691,0
87.4775,-49.6348,-5.74085,0
87.3812,-49.3727,-5.7535,0
87.2787,-49.1132,-5.76486,0
87.1709,-48.8562,-5.77501,0
87.0739,-48.5951,-5.78559,0
86.9147,-48.3605,-5.78909,0
86.8456,-48.0871,-5.80131,0
86.7681,-47.8153,-5.81214,0
86.682,-47.5453,-5.82152,0
75.8847,-66.0182,-1.84029,0
76.1858,-66.1729,-1.85846,0
76.4938,-66.3245,-1.8777,0
76.8097,-66.481,-1.89639,0
77.1336,-66.6396,-1.91517,0
77.4626,-66.7707,-1.93993,0
77.7951,-66.874,-1.97048,0
78.1331,-66.972,-2.00227,0
78.4782,-67.071,-2.03405,0
78.837,-67.2001,-2.0606,0
79.2034,-67.3239,-2.08863,0
79.5778,-67.4418,-2.11819,0
79.9545,-67.5346,-2.15259,0
80.332,-67.6019,-2.19172,0
80.7316,-67.7105,-2.22422,0
81.1395,-67.8122,-2.25843,0
81.3357,-67.3401,-2.38424,174
81.6347,-67.1604,-2.46134,174
81.9572,-67.0405,-2.52811,174
82.7791,-67.9844,-2.43643,0
83.1676,-67.9337,-2.49535,0
83.5563,-67.8717,-2.55565,0
83.9449,-67.7982,-2.61732,0
84.3329,-67.7132,-2.6803,0
84.7216,-67.6191,-2.74422,0
85.154,-67.5825,-2.80055,0
85.6022,-67.5535,-2.85618,0
86.0616,-67.5227,-2.91237,0
86.5233,-67.4771,-2.9707,0
86.9866,-67.4163,-3.03113,0
87.4506,-67.3397,-3.09365,0
87.9146,-67.247,-3.1582,0
88.3775,-67.1376,-3.22472,0
88.8384,-67.0113,-3.29317,0
89.2964,-66.8678,-3.36346,0
89.7462,-66.7027,-3.43587,0
90.1766,-66.5068,-3.511,0
90.6,-66.2938,-3.58749,0
91.0154,-66.0636,-3.66519,0
91.4216,-65.8163,-3.744,0
91.7399,-65.4917,-3.82772,0
91.9794,-65.1057,-3.91433,0
92.1997,-64.7081,-4.00019,0
90.4397,-62.9796,-4.15039,174
90.0786,-62.2775,-4.23883,174
90.0637,-61.8223,-4.31248,174
90.0983,-61.4087,-4.38219,174
90.2448,-61.0656,-4.44804,174
90.4946,-60.7779,-4.5118,174
90.8492,-60.5373,-4.57488,174
91.2364,-60.3013,-4.63867,174
91.7028,-60.0872,-4.70372,174
92.108,-59.8313,-4.76983,0
92.0143,-59.3696,-4.83094,0
91.909,-58.9157,-4.88915,0
91.8099,-58.4758,-4.94482,0
91.7202,-58.0495,-4.99822,0
91.5998,-57.6243,-5.04852,0
91.4712,-57.2075,-5.09622,0
91.335,-56.7994,-5.14134,0
91.1034,-56.3813,-5.18083,0
90.821,-55.9679,-5.21565,0
90.5255,-55.5684,-5.24703,0
90.2176,-55.1832,-5.27503,0
89.8483,-54.8069,-5.29736,0
89.5287,-54.454,-5.31915,0
89.2651,-54.121,-5.34126,0
89.0036,-53.8011,-5.36125,0
88.7441,-53.4936,-5.37924,0
88.5245,-53.1983,-5.39757,0
88.337,-52.9124,-5.41613,0
88.1473,-52.6348,-5.43299,0
87.9686,-52.3644,-5.44907,0
87.803,-52.1001,-5.46466,0
87.6345,-51.8426,-5.47877,0
87.4635,-51.5916,-5.4914,0
87.2902,-51.3472,-5.50265,0
87.1226,-51.1079,-5.51313,0
86.9824,-50.8685,-5.52465,0
86.9276,-50.614,-5.54216,0
86.8675,-50.3605,-5.55858,0
86.8022,-50.1081,-5.57394,0
86.7316,-49.8571,-5.5882,0
86.6559,-49.6075,-5.60138,0
86.5749,-49.3593,-5.61348,0
86.4887,-49.1127,-5.62446,0
86.3052,-48.9051,-5.62564,0
86.1151,-48.7048,-5.62526,0
85.9227,-48.5103,-5.62372,0
85.7854,-48.2937,-5.62675,0
85.704,-48.05,-5.63468,0
76.0359,-66.0967,-1.84934,0
76.3405,-66.2499,-1.86804,0
76.6523,-66.4014,-1.88752,0
76.9723,-66.5615,-1.90573,0
77.3002,-66.7176,-1.92528,0
77.6298,-66.8236,-1.9552,0
77.9652,-66.9242,-1.98639,0
78.3062,-67.0193,-2.01881,0
78.6585,-67.1369,-2.04728,0
79.0212,-67.2634,-2.07457,0
79.3916,-67.3842,-2.10338,0
79.7698,-67.4986,-2.1338,0
80.1445,-67.5695,-2.17217,0
80.5327,-67.6573,-2.20799,0
80.9367,-67.7629,-2.24128,0
81.3487,-67.8605,-2.27644,0
81.4692,-67.2047,-2.43034,174
81.8111,-67.1313,-2.49034,174
82.1667,-67.0815,-2.54631,174
82.9753,-67.9602,-2.46602,0
83.3639,-67.9038,-2.52564,0
83.7527,-67.836,-2.58664,0
84.141,-67.7567,-2.64898,0
84.5286,-67.6658,-2.71261,0
84.9397,-67.6022,-2.77245,0
85.376,-67.5635,-2.82917,0
85.834,-67.5398,-2.8843,0
86.2946,-67.5016,-2.94157,0
86.7573,-67.4483,-3.00097,0
87.221,-67.3796,-3.06246,0
87.6851,-67.2949,-3.12601,0
88.1487,-67.1938,-3.19156,0
88.6107,-67.076,-3.25906,0
89.0702,-66.941,-3.32845,0
89.5262,-66.7886,-3.39965,0
89.9645,-66.6059,-3.47364,0
90.3916,-66.4014,-3.54947,0
90.8109,-66.1796,-3.62659,0
91.2218,-65.9408,-3.70487,0
91.6125,-65.6766,-3.78475,0
91.8639,-65.2987,-3.87152,0
92.0911,-64.9048,-3.9579,0
90.8471,-63.4987,-4.09569,174
90.1446,-62.5463,-4.19941,174
90.0459,-62.0301,-4.27707,174
90.0814,-61.6123,-4.348,174
90.125,-61.2084,-4.41635,174
90.3707,-60.9207,-4.48028,174
90.6693,-60.6555,-4.54361,174
91.0353,-60.4151,-4.60701,174
91.4642,-60.1917,-4.67132,174
92.0159,-60.0056,-4.73765,174
92.0622,-59.5971,-4.80107,0
91.9625,-59.1393,-4.86071,0
91.8516,-58.6895,-4.91746,0
91.7766,-58.263,-4.97235,0
91.6605,-57.8337,-5.02396,0
91.5359,-57.4127,-5.07294,0
91.4034,-57.0003,-5.11933,0
91.2426,-56.5919,-5.16248,0
90.9608,-56.1704,-5.1988,0
90.6751,-55.7646,-5.232,0
90.3731,-55.3722,-5.26167,0
90.0301,-54.9906,-5.28665,0
89.6645,-54.6242,-5.30762,0
89.3953,-54.2841,-5.33059,0
89.1327,-53.9578,-5.35162,0
88.8722,-53.6442,-5.37058,0
88.6163,-53.3429,-5.38774,0
88.4301,-53.0529,-5.40716,0
88.2415,-52.7711,-5.42485,0
88.0507,-52.4976,-5.44088,0
87.8853,-52.23,-5.45715,0
87.7182,-51.9692,-5.47196,0
87.5484,-51.715,-5.48533,0
87.3763,-51.4673,-5.49725,0
87.2018,-51.2262,-5.5078,0
87.0456,-50.9876,-5.5186,0
86.9553,-50.7398,-5.53363,0
86.8979,-50.4857,-5.55059,0
86.8352,-50.2328,-5.56647,0
86.7672,-49.9811,-5.58128,0
86.694,-49.7308,-5.595,0
86.6156,-49.4819,-5.60763,0
86.532,-49.2345,-5.61918,0
86.3982,-49.0064,-5.62538,0
86.2094,-48.8032,-5.6256,0
86.018,-48.6058,-5.62462,0
85.8245,-48.4143,-5.62251,0
85.7452,-48.1704,-5.63091,0
85.6599,-47.9276,-5.6382,0
75.8877,-66.0199,-1.84048,0
76.189,-66.1745,-1.85866,0
76.4971,-66.3261,-1.8779,0
76.813,-66.4827,-1.89658,0
77.137,-66.6412,-1.91537,0
77.466,-66.7718,-1.94024,0
77.7985,-66.8751,-1.9708,0
78.1367,-66.973,-2.0026,0
78.4819,-67.0724,-2.03432,0
78.8407,-67.2015,-2.06088,0
79.2073,-67.3251,-2.08893,0
