74.811,-52.3064,-3.22777,0
74.8482,-52.1741,-3.24789,0
74.882,-52.0419,-3.26745,0
74.9125,-51.91,-3.28642,0
74.9398,-51.7785,-3.30481,0
74.964,-51.6475,-3.32261,0
74.985,-51.5169,-3.33984,0
75.0031,-51.3871,-3.35647,0
75.0182,-51.2578,-3.37253,0
75.0304,-51.1294,-3.38802,0
75.0398,-51.0018,-3.40293,0
75.0477,-50.8755,-3.41713,0
75.0743,-50.7583,-3.42836,0
75.0984,-50.6409,-3.43915,0
75.1184,-50.5229,-3.44967,0
75.1347,-50.4047,-3.45985,0
75.1485,-50.2866,-3.46958,0
75.1597,-50.1686,-3.47888,0
75.1682,-50.0509,-3.48773,0
75.1742,-49.9335,-3.49614,0
75.1777,-49.8164,-3.50412,0
75.1787,-49.6997,-3.51166,0
75.1771,-49.5835,-3.51876,0
75.1731,-49.4678,-3.52543,0
75.1667,-49.3525,-3.53167,0
75.158,-49.238,-3.53746,0
75.1468,-49.124,-3.54284,0
75.1334,-49.0107,-3.54779,0
75.1176,-48.8981,-3.55232,0
75.0995,-48.7863,-3.55643,0
75.0793,-48.6753,-3.56011,0
75.0568,-48.5652,-3.56338,0
75.0322,-48.4559,-3.56624,0
75.0102,-48.3471,-3.56827,0
74.9902,-48.2384,-3.56954,0
74.9855,-48.1278,-3.56891,0
74.9787,-48.017,-3.56787,0
74.9698,-47.906,-3.5664,0
74.959,-47.795,-3.5645,0
74.946,-47.6838,-3.56218,0
74.9309,-47.5726,-3.55944,0
74.9137,-47.4613,-3.55626,0
74.8944,-47.35,-3.55264,0
74.8729,-47.2388,-3.54859,0
74.8494,-47.1276,-3.5441,0
74.8237,-47.0165,-3.53916,0
74.7943,-46.9062,-3.53392,0
74.7625,-46.7961,-3.52826,0
74.7286,-46.6864,-3.52217,0
74.6923,-46.577,-3.51563,0
74.6537,-46.4681,-3.50867,0
74.6129,-46.3596,-3.50125,0
74.5698,-46.2516,-3.49341,0
74.5223,-46.1453,-3.48534,0
74.4712,-46.0405,-3.47698,0
74.4188,-45.9361,-3.46812,0
74.3794,-45.8215,-3.45692,0
74.3373,-45.7072,-3.44521,0
74.2923,-45.5931,-3.43301,0
74.2447,-45.4792,-3.4203,0
74.1943,-45.3658,-3.40711,0
74.1409,-45.2528,-3.3934,0
74.0848,-45.1403,-3.37919,0
74.0258,-45.0284,-3.36448,0
73.9638,-44.9172,-3.34925,0
73.8991,-44.8068,-3.33353,0
73.8314,-44.6973,-3.3173,0
73.7608,-44.5887,-3.30057,0
73.6871,-44.4812,-3.28333,0
73.6105,-44.3748,-3.26559,0
73.5311,-44.2697,-3.24735,0
73.4487,-44.1659,-3.22862,0
73.3634,-44.0635,-3.2094,0
73.275,-43.9627,-3.18971,0
73.1837,-43.8636,-3.16953,0
73.5102,-54.3346,-2.82916,0
73.6177,-54.2365,-2.85431,0
73.7223,-54.136,-2.87915,0
73.8239,-54.0333,-2.90364,0
73.9226,-53.9284,-2.92779,0
74.018,-53.8215,-2.95159,0
74.1105,-53.7126,-2.97502,0
74.2,-53.6018,-2.99805,0
74.2862,-53.4893,-3.0207,0
74.3695,-53.3752,-3.04293,0
74.4387,-53.2488,-3.06703,0
74.5017,-53.1189,-3.09115,0
74.5611,-52.9883,-3.11473,0
74.6168,-52.8572,-3.13774,0
74.6689,-52.7256,-3.16021,0
74.7174,-52.5938,-3.1821,0
74.7625,-52.4618,-3.20342,0
74.804,-52.3297,-3.22417,0
74.8419,-52.1974,-3.24438,0
74.8763,-52.0652,-3.26405,0
74.9073,-51.9333,-3.28312,0
74.9352,-51.8017,-3.30161,0
74.9599,-51.6705,-3.31952,0
74.9816,-51.5399,-3.33684,0
75.0001,-51.4099,-3.35358,0
75.0157,-51.2806,-3.36974,0
75.0284,-51.152,-3.38532,0
75.0384,-51.0242,-3.40034,0
75.0453,-50.8973,-3.4148,0
75.0698,-50.779,-3.42641,0
75.0944,-50.6616,-3.43728,0
75.1152,-50.5438,-3.44783,0
75.132,-50.4255,-3.45809,0
75.1462,-50.3074,-3.4679,0
75.1578,-50.1894,-3.47727,0
75.1669,-50.0716,-3.4862,0
75.1733,-49.9542,-3.49469,0
75.1772,-49.837,-3.50275,0
75.1787,-49.7203,-3.51036,0
75.1775,-49.604,-3.51754,0
75.1741,-49.4881,-3.52428,0
75.1681,-49.3728,-3.5306,0
75.1597,-49.2581,-3.53648,0
75.1489,-49.144,-3.54193,0
75.1359,-49.0306,-3.54695,0
75.1205,-48.9179,-3.55155,0
75.1029,-48.806,-3.55573,0
75.083,-48.6948,-3.55949,0
75.0609,-48.5845,-3.56283,0
75.0366,-48.4751,-3.56577,0
75.0136,-48.3663,-3.56799,0
74.993,-48.2576,-3.56942,0
74.9865,-48.1473,-3.56906,0
74.9801,-48.0365,-3.56808,0
74.9716,-47.9256,-3.56669,0
74.961,-47.8145,-3.56487,0
74.9484,-47.7034,-3.56263,0
74.9337,-47.5922,-3.55995,0
74.9169,-47.4809,-3.55685,0
74.898,-47.3697,-3.55331,0
74.877,-47.2584,-3.54933,0
74.8537,-47.1472,-3.54492,0
74.8284,-47.0361,-3.54006,0
74.7996,-46.9256,-3.53488,0
74.7684,-46.8155,-3.5293,0
74.7347,-46.7057,-3.52327,0
74.6989,-46.5963,-3.51682,0
74.6608,-46.4873,-3.50992,0
74.6202,-46.3787,-3.50259,0
74.5775,-46.2705,-3.49482,0
74.531,-46.1639,-3.48677,0
74.4804,-46.0589,-3.47849,0
74.4277,-45.9548,-3.46979,0
74.3866,-45.8417,-3.45892,0
74.3448,-45.7273,-3.44731,0
74.3005,-45.6131,-3.4352,0
74.2533,-45.4993,-3.42257,0
74.2034,-45.3857,-3.40947,0
74.1505,-45.2727,-3.39586,0
74.0949,-45.1601,-3.38174,0
74.0364,-45.0481,-3.36712,0
73.975,-44.9368,-3.35197,0
73.9107,-44.8262,-3.33634,0
73.8435,-44.7165,-3.32019,0
73.7734,-44.6078,-3.30355,0
73.7003,-44.5001,-3.2864,0
73.6243,-44.3935,-3.26875,0
73.5453,-44.2881,-3.25061,0
73.4634,-44.1841,-3.23196,0
73.3786,-44.0814,-3.21283,0
73.2908,-43.9804,-3.19321,0
73.2001,-43.8809,-3.17312,0
73.599,-54.254,-2.8499,0
73.7041,-54.1539,-2.87479,0
73.8062,-54.0516,-2.89935,0
73.9054,-53.9471,-2.92357,0
74.0014,-53.8405,-2.94742,0
74.0945,-53.7319,-2.97092,0
74.1844,-53.6215,-2.99402,0
74.2712,-53.5093,-3.01673,0
74.355,-53.3954,-3.03904,0
74.4272,-53.2716,-3.06272,0
74.4909,-53.1418,-3.08694,0
74.5509,-53.0113,-3.11061,0
74.6072,-52.8803,-3.13372,0
74.6599,-52.7488,-3.15628,0
74.7091,-52.6171,-3.17827,0
74.7548,-52.485,-3.1997,0
74.797,-52.3529,-3.22056,0
74.8355,-52.2208,-3.24086,0
74.8705,-52.0885,-3.26062,0
74.9021,-51.9565,-3.2798,0
74.9305,-51.8248,-3.2984,0
74.9558,-51.6936,-3.3164,0
74.978,-51.5629,-3.33383,0
74.9971,-51.4328,-3.35067,0
75.0132,-51.3033,-3.36693,0
75.0264,-51.1746,-3.38262,0
75.0367,-51.0466,-3.39774,0
75.0443,-50.9196,-3.41229,0
75.0652,-50.7996,-3.42445,0
75.0902,-50.6823,-3.4354,0
75.1119,-50.5646,-3.44598,0
75.1292,-50.4463,-3.45631,0
75.1439,-50.3282,-3.4662,0
75.1559,-50.2102,-3.47565,0
75.1655,-50.0924,-3.48466,0
75.1724,-49.9748,-3.49323,0
75.1767,-49.8576,-3.50135,0
75.1786,-49.7408,-3.50905,0
75.1779,-49.6244,-3.51631,0
75.1748,-49.5085,-3.52312,0
75.1693,-49.3931,-3.52951,0
75.1613,-49.2783,-3.53547,0
75.1511,-49.1641,-3.54099,0
75.1384,-49.0506,-3.5461,0
75.1234,-48.9377,-3.55077,0
75.1062,-48.8256,-3.55503,0
75.0866,-48.7144,-3.55885,0
75.0649,-48.6039,-3.56228,0
75.0411,-48.4943,-3.56528,0
75.017,-48.3855,-3.5677,0
74.9968,-48.2767,-3.5692,0
74.9873,-48.1668,-3.56918,0
74.9813,-48.0561,-3.56828,0
74.9732,-47.9452,-3.56697,0
74.963,-47.8341,-3.56522,0
74.9508,-47.723,-3.56306,0
74.9364,-47.6118,-3.56046,0
74.92,-47.5005,-3.55742,0
74.9014,-47.3893,-3.55397,0
74.8808,-47.278,-3.55007,0
74.8579,-47.1668,-3.54573,0
74.833,-47.0557,-3.54095,0
74.8049,-46.9451,-3.53582,0
74.774,-46.8349,-3.53031,0
74.7409,-46.7251,-3.52436,0
74.7054,-46.6156,-3.51799,0
74.6676,-46.5064,-3.51117,0
74.6276,-46.3978,-3.50391,0
74.5852,-46.2896,-3.49622,0
74.5397,-46.1824,-3.48819,0
74.4895,-46.0774,-3.47999,0
74.437,-45.9731,-3.47135,0
74.3935,-45.8619,-3.46092,0
74.3523,-45.7475,-3.4494,0
74.3085,-45.6333,-3.43737,0
74.2618,-45.5193,-3.42484,0
74.2123,-45.4057,-3.41182,0
74.1601,-45.2925,-3.3983,0
74.1049,-45.1799,-3.38426,0
74.047,-45.0678,-3.36972,0
73.986,-44.9563,-3.35468,0
73.9223,-44.8456,-3.33914,0
73.8556,-44.7358,-3.32308,0
73.7859,-44.6269,-3.30652,0
73.7134,-44.519,-3.28946,0
73.6379,-44.4122,-3.2719,0
73.5594,-44.3066,-3.25384,0
73.478,-44.2023,-3.23529,0
73.3937,-44.0994,-3.21625,0
73.3065,-43.9981,-3.19671,0
73.2163,-43.8983,-3.1767,0
73.1232,-43.8003,-3.15621,0
73.4143,-54.1241,-2.8284,0
73.518,-54.0298,-2.85263,0
73.6189,-53.9333,-2.87657,0
73.717,-53.8345,-2.90018,0
73.8123,-53.7337,-2.92347,0
73.9045,-53.6309,-2.94642,0
73.9939,-53.5261,-2.96902,0
74.0803,-53.4196,-2.99125,0
74.1592,-53.3066,-3.01417,0
74.2276,-53.1844,-3.03837,0
74.2923,-53.0613,-3.06207,0
74.3536,-52.9373,-3.08527,0
74.4113,-52.8127,-3.10796,0
74.4656,-52.6875,-3.13012,0
74.5164,-52.5618,-3.15176,0
74.5639,-52.4357,-3.17286,0
74.608,-52.3095,-3.19342,0
74.6488,-52.1831,-3.21344,0
74.6862,-52.0566,-3.23292,0
74.7205,-51.9303,-3.25186,0
74.7516,-51.804,-3.27024,0
74.7796,-51.6781,-3.28808,0
74.8045,-51.5524,-3.30536,0
74.8264,-51.4272,-3.32211,0
74.8451,-51.3023,-3.33833,0
74.8609,-51.178,-3.35401,0
74.874,-51.0544,-3.36914,0
74.8843,-50.9315,-3.38372,0
74.9047,-50.8145,-3.39619,0
74.9292,-50.7003,-3.40737,0
74.9509,-50.5859,-3.41816,0
74.9698,-50.4714,-3.42853,0
74.9864,-50.3569,-3.43847,0
75.0002,-50.2426,-3.44799,0
75.0116,-50.1284,-3.45709,0
75.0205,-50.0143,-3.46576,0
75.0269,-49.9006,-3.47401,0
75.0308,-49.7871,-3.48182,0
75.0323,-49.674,-3.48922,0
75.0313,-49.5613,-3.49619,0
75.028,-49.4491,-3.50274,0
75.0223,-49.3373,-3.50889,0
75.0144,-49.2261,-3.5146,0
75.0041,-49.1155,-3.51989,0
74.9914,-49.0056,-3.52478,0
74.9766,-48.8963,-3.52926,0
74.9596,-48.7877,-3.53332,0
74.9404,-48.6799,-3.53698,0
74.919,-48.5729,-3.54024,0
74.8955,-48.4667,-3.54308,0
74.8737,-48.361,-3.54519,0
74.8708,-48.2534,-3.54494,0
74.8659,-48.1456,-3.54428,0
74.8591,-48.0377,-3.5432,0
74.8502,-47.9296,-3.54172,0
74.8392,-47.8214,-3.53982,0
74.8263,-47.7132,-3.5375,0
74.8106,-47.6051,-3.53483,0
74.7927,-47.4971,-3.53175,0
74.7725,-47.3891,-3.52827,0
74.7502,-47.2813,-3.52437,0
74.7256,-47.1737,-3.52006,0
74.6988,-47.0663,-3.51532,0
74.6699,-46.9591,-3.51017,0
74.6387,-46.8522,-3.5046,0
74.6054,-46.7457,-3.49861,0
74.5698,-46.6395,-3.49218,0
74.5319,-46.5338,-3.48533,0
74.4919,-46.4285,-3.47806,0
74.4495,-46.3237,-3.47036,0
74.402,-46.2212,-3.46259,0
74.3523,-46.1195,-3.45441,0
74.3003,-46.0187,-3.44582,0
74.2494,-45.9163,-3.43638,0
74.2078,-45.8062,-3.42491,0
74.1636,-45.6963,-3.41298,0
74.1166,-45.5868,-3.40056,0
74.067,-45.4776,-3.38766,0
74.0147,-45.369,-3.37428,0
73.9595,-45.2609,-3.36041,0
73.9016,-45.1534,-3.34607,0
73.841,-45.0467,-3.33123,0
73.7777,-44.9408,-3.31591,0
73.7114,-44.8358,-3.30012,0
73.6424,-44.7317,-3.28384,0
73.5706,-44.6287,-3.26709,0
73.4959,-44.5269,-3.24985,0
73.4184,-44.4263,-3.23214,0
73.3382,-44.327,-3.21398,0
73.2552,-44.2292,-3.19533,0
73.1693,-44.1329,-3.17623,0
73.0806,-44.0383,-3.15668,0
73.3958,-54.1404,-2.82409,0
73.4999,-54.0466,-2.84838,0
73.6013,-53.9505,-2.87237,0
73.6999,-53.8521,-2.89605,0
73.7956,-53.7516,-2.91939,0
73.8884,-53.6491,-2.9424,0
73.9784,-53.5447,-2.96506,0
74.0652,-53.4385,-2.98735,0
74.1469,-53.328,-3.00985,0
74.2158,-53.206,-3.03414,0
74.2812,-53.083,-3.05793,0
74.343,-52.9592,-3.08121,0
74.4014,-52.8347,-3.10399,0
74.4562,-52.7096,-3.12625,0
74.5078,-52.584,-3.14799,0
74.5558,-52.458,-3.16918,0
74.6005,-52.3317,-3.18984,0
74.6418,-52.2054,-3.20996,0
74.6799,-52.0789,-3.22954,0
74.7148,-51.9525,-3.24856,0
74.7464,-51.8263,-3.26704,0
74.7749,-51.7003,-3.28497,0
74.8004,-51.5745,-3.30236,0
74.8228,-51.4492,-3.31919,0
74.842,-51.3243,-3.33551,0
74.8584,-51.1999,-3.35129,0
74.8719,-51.0761,-3.36651,0
74.8827,-50.9531,-3.38119,0
74.8998,-50.8345,-3.39421,0
74.9252,-50.7204,-3.40542,0
74.9473,-50.606,-3.41629,0
74.9667,-50.4916,-3.42674,0
74.9837,-50.3771,-3.43675,0
74.998,-50.2627,-3.44634,0
75.0098,-50.1485,-3.45551,0
75.0191,-50.0344,-3.46426,0
75.0259,-49.9206,-3.47258,0
75.0302,-49.8071,-3.48048,0
75.0323,-49.6939,-3.48794,0
75.0317,-49.5811,-3.495,0
75.0287,-49.4688,-3.50163,0
75.0236,-49.357,-3.50782,0
75.0159,-49.2457,-3.51362,0
75.006,-49.135,-3.51899,0
74.9938,-49.0249,-3.52395,0
74.9794,-48.9155,-3.5285,0
74.9628,-48.8068,-3.53264,0
74.9439,-48.6988,-3.53637,0
74.9229,-48.5917,-3.53969,0
74.8998,-48.4854,-3.54261,0
74.877,-48.3797,-3.54492,0
74.8714,-48.2724,-3.54501,0
74.8669,-48.1647,-3.54443,0
74.8604,-48.0567,-3.54342,0
74.8519,-47.9487,-3.54201,0
74.8413,-47.8405,-3.54019,0
74.8288,-47.7323,-3.53794,0
74.8136,-47.6241,-3.53532,0
74.7959,-47.5161,-3.53233,0
74.7762,-47.4081,-3.52892,0
74.7542,-47.3003,-3.52509,0
74.7302,-47.1926,-3.52085,0
74.7038,-47.0852,-3.51619,0
74.6752,-46.978,-3.51111,0
74.6444,-46.871,-3.50561,0
74.6114,-46.7644,-3.49969,0
74.5762,-46.6582,-3.49334,0
74.5387,-46.5524,-3.48658,0
74.4991,-46.447,-3.47938,0
74.4571,-46.3421,-3.47175,0
74.4106,-46.2392,-3.46399,0
74.3612,-46.1374,-3.45589,0
74.3095,-46.0364,-3.44737,0
74.2565,-45.9358,-3.43834,0
74.2153,-45.8256,-3.42697,0
74.1716,-45.7157,-3.41511,0
74.1252,-45.6061,-3.40278,0
74.076,-45.4968,-3.38997,0
74.0241,-45.3881,-3.37668,0
73.9695,-45.2799,-3.36289,0
73.912,-45.1723,-3.34863,0
73.852,-45.0655,-3.33388,0
73.789,-44.9594,-3.31865,0
73.7233,-44.8542,-3.30294,0
73.6548,-44.75,-3.28674,0
73.5834,-44.6468,-3.27007,0
73.5093,-44.5447,-3.25292,0
73.4323,-44.4439,-3.2353,0
73.3526,-44.3444,-3.2172,0
73.27,-44.2463,-3.19864,0
73.1845,-44.1498,-3.17963,0
73.0964,-44.0548,-3.16016,0
73.4818,-54.0633,-2.84412,0
73.5837,-53.9676,-2.86816,0
73.6828,-53.8696,-2.8919,0
73.779,-53.7695,-2.91529,0
73.8723,-53.6674,-2.93837,0
73.9627,-53.5633,-2.96109,0
74.0502,-53.4574,-2.98345,0
74.1343,-53.3494,-3.00551,0
74.2039,-53.2276,-3.02989,0
74.2699,-53.1048,-3.05377,0
74.3324,-52.9811,-3.07715,0
74.3913,-52.8567,-3.10002,0
74.4469,-52.7317,-3.12236,0
74.499,-52.6061,-3.14418,0
74.5476,-52.4802,-3.16548,0
74.5928,-52.354,-3.18623,0
74.6348,-52.2276,-3.20645,0
74.6734,-52.1012,-3.22612,0
74.7087,-51.9748,-3.24524,0
74.741,-51.8485,-3.26382,0
74.7701,-51.7225,-3.28185,0
74.7961,-51.5967,-3.29933,0
74.8191,-51.4713,-3.31626,0
74.8388,-51.3463,-3.33268,0
74.8557,-51.2218,-3.34855,0
74.8698,-51.0979,-3.36386,0
74.881,-50.9747,-3.37864,0
74.8947,-50.8545,-3.39222,0
74.9209,-50.7406,-3.40346,0
74.9435,-50.6262,-3.41441,0
74.9634,-50.5117,-3.42492,0
74.9809,-50.3973,-3.43503,0
74.9956,-50.2829,-3.44469,0
75.008,-50.1686,-3.45394,0
75.0177,-50.0545,-3.46276,0
75.0249,-49.9407,-3.47114,0
75.0298,-49.8271,-3.47912,0
75.032,-49.7138,-3.48666,0
75.032,-49.601,-3.49378,0
75.0294,-49.4886,-3.50049,0
75.0246,-49.3767,-3.50676,0
75.0174,-49.2653,-3.51262,0
75.008,-49.1544,-3.51807,0
74.9961,-49.0443,-3.52311,0
74.9821,-48.9347,-3.52773,0
74.9659,-48.8259,-3.53194,0
74.9474,-48.7178,-3.53573,0
74.9268,-48.6105,-3.53914,0
74.9041,-48.5041,-3.54213,0
74.8802,-48.3984,-3.54463,0
74.872,-48.2914,-3.54507,0
74.8679,-48.1837,-3.54456,0
74.8617,-48.0758,-3.54363,0
74.8535,-47.9677,-3.54229,0
74.8433,-47.8596,-3.54054,0
74.8311,-47.7514,-3.53837,0
74.8165,-47.6432,-3.53581,0
74.7992,-47.5351,-3.53289,0
74.7798,-47.4272,-3.52954,0
74.7582,-47.3193,-3.52579,0
74.7345,-47.2116,-3.52163,0
74.7085,-47.1041,-3.51704,0
74.6804,-46.9969,-3.51204,0
74.65,-46.8899,-3.50661,0
74.6174,-46.7832,-3.50076,0
74.5826,-46.6769,-3.4945,0
74.5455,-46.571,-3.4878,0
74.5062,-46.4655,-3.48068,0
74.4647,-46.3606,-3.47313,0
74.4191,-46.2572,-3.46537,0
74.3701,-46.1553,-3.45734,0
74.3188,-46.0542,-3.4489,0
74.2654,-45.9539,-3.44005,0
74.2228,-45.845,-3.42901,0
74.1795,-45.735,-3.41724,0
74.1335,-45.6253,-3.405,0
74.0848,-45.5161,-3.39227,0
74.0334,-45.4072,-3.37905,0
73.9793,-45.2989,-3.36536,0
73.9224,-45.1913,-3.35118,0
73.8627,-45.0843,-3.33652,0
73.8003,-44.9781,-3.32138,0
73.7351,-44.8727,-3.30575,0
73.6671,-44.7683,-3.28964,0
73.5962,-44.6649,-3.27304,0
73.5226,-44.5626,-3.25598,0
73.4461,-44.4616,-3.23844,0
73.3668,-44.3619,-3.22042,0
73.2848,-44.2635,-3.20195,0
73.1998,-44.1667,-3.18301,0
73.1122,-44.0715,-3.16362,0
73.0217,-43.9779,-3.14378,0
73.3067,-53.9432,-2.82351,0
73.4073,-53.8529,-2.84695,0
73.5052,-53.7603,-2.87009,0
73.6005,-53.6657,-2.89294,0
73.693,-53.5689,-2.91547,0
73.7827,-53.4702,-2.93769,0
73.8696,-53.3697,-2.95957,0
73.9449,-53.2575,-2.98337,0
74.0152,-53.1421,-3.00719,0
74.0821,-53.0255,-3.03056,0
74.1455,-52.908,-3.05346,0
74.2056,-52.7896,-3.07589,0
74.2624,-52.6705,-3.09782,0
74.3159,-52.5508,-3.11928,0
74.366,-52.4306,-3.14024,0
74.4129,-52.3099,-3.16069,0
74.4566,-52.189,-3.18063,0
74.4971,-52.0678,-3.20006,0
74.5345,-51.9466,-3.21898,0
74.5687,-51.8253,-3.23737,0
74.6,-51.7042,-3.25525,0
74.6282,-51.5832,-3.2726,0
74.6534,-51.4624,-3.28943,0
74.6758,-51.342,-3.30574,0
74.6952,-51.2219,-3.32153,0
74.7119,-51.1024,-3.3368,0
74.7258,-50.9834,-3.35155,0
74.7396,-50.8661,-3.36544,0
74.7659,-50.7554,-3.37685,0
74.7897,-50.6446,-3.38784,0
74.8109,-50.5337,-3.39841,0
74.8298,-50.4227,-3.40858,0
74.8463,-50.3119,-3.4183,0
74.8603,-50.201,-3.42761,0
74.8719,-50.0903,-3.43652,0
74.881,-49.9798,-3.445,0
74.8877,-49.8695,-3.45308,0
74.892,-49.7594,-3.46074,0
74.894,-49.6497,-3.468,0
74.8935,-49.5403,-3.47486,0
74.8908,-49.4314,-3.4813,0
74.8857,-49.3229,-3.48733,0
74.8784,-49.2149,-3.49295,0
74.8688,-49.1075,-3.49818,0
74.8571,-49.0007,-3.503,0
74.8431,-48.8945,-3.50742,0
74.8271,-48.789,-3.51144,0
74.809,-48.6842,-3.51505,0
74.7888,-48.5802,-3.51826,0
74.7667,-48.4769,-3.52108,0
74.7564,-48.373,-3.52212,0
74.7532,-48.2682,-3.52184,0
74.748,-48.1633,-3.52117,0
74.7407,-48.0582,-3.52012,0
74.7312,-47.953,-3.51866,0
74.7198,-47.8479,-3.51682,0
74.7062,-47.7427,-3.51459,0
74.6905,-47.6375,-3.51195,0
74.6727,-47.5324,-3.5089,0
74.6528,-47.4274,-3.50546,0
74.6309,-47.3226,-3.5016,0
74.6066,-47.218,-3.49735,0
74.5803,-47.1135,-3.49268,0
74.5518,-47.0093,-3.48761,0
74.5212,-46.9055,-3.48212,0
74.4884,-46.802,-3.47622,0
74.4534,-46.6988,-3.46992,0
74.4163,-46.5961,-3.4632,0
74.377,-46.4938,-3.45606,0
74.3347,-46.3925,-3.4486,0
74.2881,-46.2931,-3.441,0
74.2394,-46.1945,-3.43301,0
74.1885,-46.0966,-3.4246,0
74.1355,-45.9996,-3.4158,0
74.0859,-45.8994,-3.4058,0
74.0423,-45.7935,-3.39411,0
73.9962,-45.688,-3.38197,0
73.9473,-45.5829,-3.36937,0
73.8959,-45.4783,-3.3563,0
73.8418,-45.3743,-3.34277,0
73.7851,-45.271,-3.32877,0
73.7257,-45.1684,-3.31431,0
73.6637,-45.0666,-3.29939,0
73.5989,-44.9657,-3.284,0
73.5315,-44.8658,-3.26816,0
73.4613,-44.767,-3.25185,0
73.3884,-44.6694,-3.2351,0
73.313,-44.573,-3.2179,0
73.2347,-44.4779,-3.20024,0
73.1539,-44.3843,-3.18215,0
73.0702,-44.2922,-3.16362,0
72.9841,-44.2017,-3.14466,0
73.2887,-53.9589,-2.81935,0
73.3897,-53.869,-2.84284,0
73.4882,-53.7768,-2.86603,0
73.5838,-53.6825,-2.88892,0
73.6769,-53.5861,-2.91153,0
73.7671,-53.4878,-2.9338,0
73.8545,-53.3875,-2.95574,0
73.9322,-53.2777,-2.97912,0
74.003,-53.1625,-3.00302,0
74.0705,-53.0461,-3.02648,0
74.1345,-52.9288,-3.04946,0
74.1952,-52.8106,-3.07196,0
74.2527,-52.6916,-3.094,0
74.3067,-52.572,-3.11553,0
74.3574,-52.4518,-3.13657,0
74.4049,-52.3312,-3.15712,0
74.4491,-52.2103,-3.17715,0
74.4902,-52.0892,-3.19667,0
74.5281,-51.968,-3.21568,0
74.563,-51.8467,-3.23417,0
74.5947,-51.7255,-3.25214,0
74.6234,-51.6045,-3.26958,0
74.6492,-51.4837,-3.28651,0
74.672,-51.3632,-3.30291,0
74.6919,-51.2431,-3.31879,0
74.7091,-51.1234,-3.33415,0
74.7236,-51.0043,-3.34899,0
74.7352,-50.8858,-3.36332,0
74.7615,-50.7749,-3.37486,0
74.7857,-50.6641,-3.38593,0
74.8074,-50.5532,-3.39658,0
74.8266,-50.4423,-3.40681,0
74.8436,-50.3314,-3.41662,0
74.858,-50.2206,-3.426,0
74.8701,-50.1098,-3.43497,0
74.8795,-49.9993,-3.44354,0
74.8867,-49.8889,-3.45169,0
74.8914,-49.7788,-3.45943,0
74.8937,-49.669,-3.46675,0
74.8937,-49.5596,-3.47368,0
74.8914,-49.4506,-3.48018,0
74.8868,-49.342,-3.48629,0
74.8798,-49.2339,-3.49199,0
74.8707,-49.1264,-3.49729,0
74.8594,-49.0195,-3.50217,0
74.8458,-48.9132,-3.50667,0
74.83,-48.8076,-3.51076,0
74.8123,-48.7026,-3.51445,0
74.7926,-48.5985,-3.51772,0
74.7708,-48.4951,-3.52061,0
74.7567,-48.3915,-3.52213,0
74.7539,-48.2867,-3.52192,0
74.7491,-48.1818,-3.52132,0
74.7421,-48.0767,-3.52033,0
74.733,-47.9716,-3.51896,0
74.722,-47.8664,-3.51718,0
74.7087,-47.7612,-3.51501,0
74.6934,-47.656,-3.51244,0
74.6761,-47.551,-3.50946,0
74.6566,-47.4459,-3.50609,0
74.6349,-47.3411,-3.50231,0
74.6111,-47.2364,-3.49812,0
74.5852,-47.1319,-3.49353,0
74.557,-47.0277,-3.48853,0
74.5268,-46.9238,-3.48312,0
74.4944,-46.8202,-3.47731,0
74.4598,-46.717,-3.47106,0
74.423,-46.6142,-3.46441,0
74.3841,-46.5118,-3.45735,0
74.3427,-46.4101,-3.4499,0
74.2965,-46.3106,-3.44237,0
74.2482,-46.2118,-3.43445,0
74.1977,-46.1138,-3.42612,0
74.1451,-46.0166,-3.41739,0
74.0933,-45.9181,-3.40781,0
74.0502,-45.8122,-3.39621,0
74.0044,-45.7065,-3.38415,0
73.9561,-45.6014,-3.37162,0
73.9052,-45.4967,-3.35863,0
73.8516,-45.3926,-3.34519,0
73.7953,-45.2891,-3.33127,0
73.7364,-45.1864,-3.31689,0
73.6748,-45.0845,-3.30204,0
73.6105,-44.9835,-3.28674,0
73.5435,-44.8834,-3.27098,0
73.4738,-44.7844,-3.25477,0
73.4015,-44.6865,-3.23808,0
73.3265,-44.5899,-3.22095,0
73.2487,-44.4946,-3.20338,0
73.1683,-44.4007,-3.18537,0
73.0852,-44.3083,-3.16692,0
72.9995,-44.2175,-3.14803,0
73.3722,-53.885,-2.83871,0
73.471,-53.7932,-2.86196,0
73.5672,-53.6993,-2.88492,0
73.6607,-53.6033,-2.90757,0
73.7514,-53.5053,-2.92989,0
73.8393,-53.4053,-2.9519,0
73.9194,-53.2979,-2.97487,0
73.9908,-53.1829,-2.99884,0
74.0588,-53.0667,-3.02237,0
74.1235,-52.9496,-3.04544,0
74.1848,-52.8315,-3.06803,0
74.2427,-52.7126,-3.09015,0
74.2974,-52.5931,-3.11177,0
74.3487,-52.473,-3.1329,0
74.3968,-52.3525,-3.15353,0
74.4416,-52.2316,-3.17366,0
74.4832,-52.1106,-3.19326,0
74.5216,-51.9893,-3.21237,0
74.557,-51.8681,-3.23094,0
74.5893,-51.7469,-3.249,0
74.6186,-51.6258,-3.26654,0
74.6448,-51.5049,-3.28356,0
74.6682,-51.3844,-3.30005,0
74.6887,-51.2642,-3.31603,0
74.7064,-51.1445,-3.33148,0
74.7212,-51.0253,-3.34641,0
74.7334,-50.9066,-3.36083,0
74.757,-50.7944,-3.37287,0
74.7816,-50.6837,-3.38401,0
74.8037,-50.5728,-3.39474,0
74.8234,-50.4618,-3.40505,0
74.8408,-50.351,-3.41491,0
74.8556,-50.2401,-3.42437,0
74.8681,-50.1293,-3.43342,0
74.878,-50.0188,-3.44205,0
74.8855,-49.9083,-3.45028,0
74.8907,-49.7982,-3.4581,0
74.8935,-49.6883,-3.46549,0
74.8939,-49.5788,-3.47248,0
74.892,-49.4697,-3.47906,0
74.8877,-49.3611,-3.48525,0
74.8812,-49.2529,-3.49102,0
74.8725,-49.1453,-3.49639,0
74.8616,-49.0383,-3.50134,0
74.8484,-48.9319,-3.50591,0
74.833,-48.8261,-3.51008,0
74.8155,-48.7211,-3.51383,0
74.7962,-48.6168,-3.51717,0
74.7748,-48.5132,-3.52013,0
74.757,-48.41,-3.52212,0
74.7545,-48.3052,-3.52198,0
74.7501,-48.2003,-3.52145,0
74.7434,-48.0952,-3.52054,0
74.7348,-47.9901,-3.51923,0
74.7241,-47.8849,-3.51752,0
74.7113,-47.7798,-3.51542,0
74.6963,-47.6746,-3.51292,0
74.6793,-47.5695,-3.51003,0
74.6602,-47.4644,-3.50672,0
74.6388,-47.3596,-3.50301,0
74.6155,-47.2548,-3.49889,0
74.5898,-47.1503,-3.49438,0
74.5621,-47.046,-3.48945,0
74.5323,-46.9421,-3.48411,0
74.5002,-46.8384,-3.47836,0
74.466,-46.7351,-3.47219,0
74.4296,-46.6323,-3.46562,0
74.3911,-46.5298,-3.45862,0
74.3503,-46.4279,-3.45121,0
74.3048,-46.3281,-3.44372,0
74.2569,-46.2292,-3.43587,0
74.2067,-46.131,-3.42762,0
74.1544,-46.0337,-3.41895,0
74.1007,-45.9369,-3.40981,0
74.058,-45.8308,-3.39829,0
74.0127,-45.7251,-3.38631,0
73.9648,-45.6199,-3.37386,0
73.9143,-45.5151,-3.36096,0
73.8612,-45.4109,-3.34759,0
73.8054,-45.3073,-3.33375,0
73.7469,-45.2044,-3.31945,0
73.6858,-45.1024,-3.30469,0
73.622,-45.0012,-3.28947,0
73.5555,-44.901,-3.27379,0
73.4864,-44.8018,-3.25765,0
73.4145,-44.7037,-3.24106,0
73.3399,-44.6068,-3.22402,0
73.2626,-44.5113,-3.20653,0
73.1827,-44.4172,-3.18858,0
73.1001,-44.3245,-3.17021,0
73.0148,-44.2334,-3.15139,0
72.9269,-44.144,-3.13216,0
73.2059,-53.7737,-2.81894,0
73.3035,-53.687,-2.84161,0
73.3986,-53.5982,-2.86401,0
73.4912,-53.5073,-2.88613,0
73.5811,-53.4143,-2.90797,0
73.6652,-53.3155,-2.93043,0
73.7403,-53.2079,-2.95425,0
73.8123,-53.0989,-2.97768,0
73.8809,-52.9887,-3.00069,0
73.9463,-52.8773,-3.02327,0
74.0085,-52.765,-3.04542,0
74.0674,-52.6517,-3.06712,0
74.1233,-52.5377,-3.08837,0
74.1759,-52.4231,-3.10915,0
74.2253,-52.3078,-3.12946,0
74.2716,-52.1922,-3.1493,0
74.3149,-52.0762,-3.16865,0
74.3551,-51.9599,-3.18752,0
74.3923,-51.8435,-3.2059,0
74.4264,-51.7269,-3.22379,0
74.4577,-51.6105,-3.24118,0
74.486,-51.4941,-3.25807,0
74.5115,-51.3778,-3.27447,0
74.5341,-51.2619,-3.29037,0
74.5541,-51.1463,-3.30577,0
74.5713,-51.031,-3.32068,0
74.5857,-50.9162,-3.33509,0
74.6093,-50.807,-3.34734,0
74.6353,-50.6998,-3.35848,0
74.6589,-50.5923,-3.36923,0
74.6801,-50.4848,-3.37958,0
74.6987,-50.3772,-3.38951,0
74.7151,-50.2696,-3.39905,0
74.729,-50.1621,-3.40819,0
74.7406,-50.0546,-3.41692,0
74.7498,-49.9473,-3.42526,0
74.7566,-49.8402,-3.43318,0
74.7612,-49.7333,-3.4407,0
74.7636,-49.6268,-3.44783,0
74.7636,-49.5205,-3.45456,0
74.7614,-49.4147,-3.46088,0
74.757,-49.3093,-3.46682,0
74.7505,-49.2044,-3.47235,0
74.7416,-49.1,-3.47749,0
74.7308,-48.9961,-3.48222,0
74.7178,-48.8929,-3.48658,0
74.7027,-48.7902,-3.49054,0
74.6855,-48.6883,-3.49411,0
74.6664,-48.587,-3.4973,0
74.6528,-48.4859,-3.49928,0
74.642,-48.3847,-3.50038,0
74.6387,-48.2826,-3.50007,0
74.6334,-48.1804,-3.49938,0
74.6261,-48.078,-3.49831,0
74.6166,-47.9756,-3.49686,0
74.6052,-47.8732,-3.49501,0
74.5918,-47.7708,-3.49278,0
74.5762,-47.6684,-3.49017,0
74.5587,-47.5661,-3.48715,0
74.539,-47.4639,-3.48374,0
74.5173,-47.3619,-3.47994,0
74.4934,-47.2601,-3.47574,0
74.4675,-47.1585,-3.47114,0
74.4395,-47.0571,-3.46615,0
74.4094,-46.9561,-3.46075,0
74.3772,-46.8555,-3.45495,0
74.3428,-46.7552,-3.44875,0
74.3063,-46.6554,-3.44215,0
74.2677,-46.556,-3.43514,0
74.2255,-46.458,-3.42795,0
74.1798,-46.3615,-3.4205,0
74.1323,-46.2656,-3.41267,0
74.0825,-46.1706,-3.40445,0
74.0307,-46.0764,-3.39585,0
73.9768,-45.983,-3.38685,0
73.9279,-45.8852,-3.37632,0
73.8824,-45.7834,-3.36445,0
73.8344,-45.682,-3.35213,0
73.784,-45.5813,-3.33936,0
73.7309,-45.4811,-3.32614,0
73.6753,-45.3816,-3.31248,0
73.6171,-45.2828,-3.29838,0
73.5563,-45.1849,-3.28382,0
73.493,-45.0879,-3.26884,0
73.4271,-44.992,-3.25341,0
73.3587,-44.897,-3.23755,0
73.2876,-44.8033,-3.22124,0
73.2139,-44.7108,-3.20451,0
73.1377,-44.6196,-3.18737,0
73.0589,-44.5298,-3.16979,0
72.9775,-44.4416,-3.15179,0
72.8936,-44.3549,-3.1334,0
73.1884,-53.7888,-2.81491,0
73.2865,-53.7025,-2.83763,0
73.382,-53.614,-2.86008,0
73.4751,-53.5234,-2.88226,0
73.5655,-53.4308,-2.90414,0
73.6516,-53.3344,-2.92618,0
73.7273,-53.227,-2.95008,0
73.7998,-53.1182,-2.97359,0
73.869,-53.0082,-2.99667,0
73.9351,-52.897,-3.01933,0
73.9978,-52.7849,-3.04155,0
74.0573,-52.6718,-3.06333,0
74.1137,-52.5579,-3.08466,0
74.1668,-52.4433,-3.10552,0
74.2168,-52.3282,-3.12591,0
74.2637,-52.2126,-3.14584,0
74.3075,-52.0966,-3.16527,0
74.3482,-51.9804,-3.18423,0
74.3859,-51.864,-3.2027,0
74.4206,-51.7475,-3.22067,0
74.4523,-51.631,-3.23814,0
74.4812,-51.5146,-3.25513,0
74.5073,-51.3983,-3.27161,0
74.5304,-51.2823,-3.2876,0
74.5508,-51.1666,-3.3031,0
74.5684,-51.0513,-3.31809,0
74.5834,-50.9364,-3.33258,0
74.6045,-50.8259,-3.34533,0
74.6309,-50.7187,-3.35655,0
74.6549,-50.6113,-3.36737,0
74.6765,-50.5038,-3.37778,0
74.6956,-50.3962,-3.38779,0
74.7124,-50.2886,-3.3974,0
74.7267,-50.181,-3.40661,0
74.7387,-50.0735,-3.41541,0
74.7484,-49.9662,-3.42381,0
74.7556,-49.859,-3.43182,0
74.7606,-49.7521,-3.43941,0
74.7634,-49.6455,-3.44661,0
74.7637,-49.5392,-3.45341,0
74.762,-49.4333,-3.4598,0
74.758,-49.3279,-3.46579,0
74.7517,-49.2228,-3.4714,0
74.7434,-49.1183,-3.47661,0
74.7329,-49.0144,-3.48141,0
74.7202,-48.911,-3.48584,0
74.7055,-48.8083,-3.48987,0
74.6888,-48.7062,-3.49351,0
74.6698,-48.6048,-3.49676,0
74.6551,-48.5037,-3.49899,0
74.6424,-48.4027,-3.50039,0
74.6395,-48.3006,-3.50015,0
74.6345,-48.1984,-3.49953,0
74.6275,-48.0961,-3.49853,0
74.6184,-47.9937,-3.49714,0
74.6074,-47.8912,-3.49537,0
74.5943,-47.7888,-3.4932,0
74.5791,-47.6864,-3.49066,0
74.5619,-47.5841,-3.4877,0
74.5426,-47.4819,-3.48437,0
74.5212,-47.3799,-3.48064,0
74.4978,-47.278,-3.47651,0
74.4723,-47.1764,-3.47198,0
74.4446,-47.075,-3.46706,0
74.4149,-46.9739,-3.46173,0
74.383,-46.8732,-3.45601,0
74.349,-46.7728,-3.44988,0
74.313,-46.6729,-3.44335,0
74.2747,-46.5735,-3.43641,0
74.2333,-46.4752,-3.42922,0
74.1881,-46.3784,-3.42184,0
74.1408,-46.2825,-3.41408,0
74.0914,-46.1873,-3.40593,0
74.04,-46.0929,-3.39739,0
73.9865,-45.9994,-3.38845,0
73.9357,-45.9032,-3.37838,0
73.8906,-45.8013,-3.36657,0
73.843,-45.6999,-3.35433,0
73.793,-45.599,-3.34163,0
73.7405,-45.4987,-3.32851,0
73.6853,-45.3991,-3.31492,0
73.6276,-45.3002,-3.30089,0
73.5673,-45.2021,-3.28643,0
73.5044,-45.105,-3.27152,0
73.439,-45.0088,-3.25616,0
73.3709,-44.9137,-3.24037,0
73.3002,-44.8197,-3.22415,0
73.227,-44.727,-3.2075,0
73.1512,-44.6356,-3.19042,0
73.0729,-44.5455,-3.17291,0
72.992,-44.457,-3.155,0
72.9085,-44.3701,-3.13668,0
73.2694,-53.7179,-2.83364,0
73.3654,-53.6298,-2.85615,0
73.4588,-53.5396,-2.87837,0
73.5497,-53.4473,-2.9003,0
73.6379,-53.3532,-2.92193,0
73.7142,-53.246,-2.9459,0
73.7873,-53.1375,-2.96946,0
73.8571,-53.0277,-2.99262,0
73.9236,-52.9167,-3.01535,0
73.987,-52.8047,-3.03766,0
74.0471,-52.6918,-3.05953,0
74.104,-52.578,-3.08093,0
74.1577,-52.4636,-3.10188,0
74.2082,-52.3485,-3.12236,0
74.2556,-52.233,-3.14235,0
74.3,-52.1171,-3.16188,0
74.3413,-52.0009,-3.18093,0
74.3795,-51.8845,-3.19947,0
74.4148,-51.768,-3.21754,0
74.447,-51.6515,-3.2351,0
74.4763,-51.5351,-3.25217,0
74.5029,-51.4188,-3.26875,0
74.5265,-51.3027,-3.28482,0
74.5473,-51.187,-3.30039,0
74.5655,-51.0716,-3.31548,0
74.581,-50.9567,-3.33006,0
74.5996,-50.8448,-3.34332,0
74.6265,-50.7376,-3.35461,0
74.6509,-50.6302,-3.36549,0
74.6729,-50.5227,-3.37597,0
74.6924,-50.4152,-3.38605,0
74.7096,-50.3075,-3.39573,0
74.7244,-50.2,-3.40502,0
74.7367,-50.0925,-3.41388,0
74.7468,-49.9851,-3.42236,0
74.7545,-49.8779,-3.43043,0
74.7599,-49.771,-3.4381,0
74.763,-49.6643,-3.44536,0
74.7639,-49.558,-3.45223,0
74.7625,-49.452,-3.4587,0
74.7588,-49.3464,-3.46477,0
74.753,-49.2413,-3.47044,0
74.7451,-49.1367,-3.47571,0
74.7348,-49.0327,-3.4806,0
74.7227,-48.9292,-3.48508,0
74.7083,-48.8263,-3.48919,0
74.6918,-48.7241,-3.4929,0
74.6734,-48.6227,-3.49622,0
74.6573,-48.5216,-3.49867,0
74.6438,-48.4206,-3.50027,0
74.6401,-48.3186,-3.50022,0
74.6355,-48.2164,-3.49966,0
74.6288,-48.1141,-3.49874,0
74.6202,-48.0117,-3.49741,0
74.6095,-47.9093,-3.4957,0
74.5967,-47.8069,-3.49362,0
74.582,-47.7045,-3.49113,0
74.5652,-47.6021,-3.48825,0
74.5462,-47.4999,-3.48499,0
74.5252,-47.3978,-3.48133,0
74.5021,-47.2959,-3.47726,0
74.477,-47.1942,-3.47281,0
74.4496,-47.0928,-3.46796,0
74.4202,-46.9917,-3.4627,0
74.3888,-46.8909,-3.45704,0
74.3552,-46.7905,-3.45099,0
74.3195,-46.6905,-3.44453,0
74.2816,-46.591,-3.43766,0
74.241,-46.4923,-3.43048,0
74.1963,-46.3954,-3.42318,0
74.1494,-46.2993,-3.41548,0
74.1003,-46.204,-3.4074,0
74.0492,-46.1095,-3.39892,0
73.9961,-46.0158,-3.39006,0
73.9434,-45.9212,-3.38041,0
73.8988,-45.8192,-3.36868,0
73.8516,-45.7177,-3.35653,0
73.802,-45.6167,-3.34391,0
73.7499,-45.5163,-3.33086,0
73.6952,-45.4166,-3.31735,0
73.6379,-45.3176,-3.3034,0
73.578,-45.2194,-3.28901,0
73.5156,-45.122,-3.27418,0
73.4506,-45.0257,-3.25889,0
73.3831,-44.9304,-3.24319,0
73.3129,-44.8362,-3.22704,0
73.2402,-44.7432,-3.21046,0
73.1648,-44.6516,-3.19346,0
73.087,-44.5613,-3.17603,0
73.0065,-44.4725,-3.15819,0
72.9234,-44.3853,-3.13993,0
72.838,-44.2997,-3.12127,0
73.1111,-53.6145,-2.81464,0
73.206,-53.5312,-2.8366,0
73.2985,-53.4458,-2.85831,0
73.3884,-53.3584,-2.87975,0
73.4684,-53.2592,-2.90332,0
73.5448,-53.1579,-2.9267,0
73.6181,-53.055,-2.94972,0
73.6883,-52.9508,-2.97236,0
73.7554,-52.8453,-2.99462,0
73.8194,-52.7388,-3.01647,0
73.8803,-52.6312,-3.03791,0
73.9381,-52.5227,-3.05891,0
73.993,-52.4134,-3.07951,0
74.0448,-52.3034,-3.09966,0
74.0934,-52.1928,-3.11937,0
74.1391,-52.0818,-3.13862,0
74.1819,-51.9703,-3.15741,0
74.2218,-51.8585,-3.17575,0
74.2587,-51.7466,-3.19361,0
74.2927,-51.6345,-3.21102,0
74.3239,-51.5224,-3.22795,0
74.3523,-51.4103,-3.24441,0
74.378,-51.2983,-3.26039,0
74.4009,-51.1865,-3.2759,0
74.4211,-51.075,-3.29093,0
74.4387,-50.9638,-3.30548,0
74.4579,-50.8549,-3.31892,0
74.486,-50.7511,-3.3302,0
74.5117,-50.6471,-3.34109,0
74.5351,-50.5429,-3.35159,0
74.556,-50.4385,-3.36171,0
74.5747,-50.3341,-3.37144,0
74.5909,-50.2296,-3.38078,0
74.6049,-50.1252,-3.38972,0
74.6166,-50.0208,-3.39828,0
74.626,-49.9166,-3.40644,0
74.633,-49.8125,-3.41422,0
74.638,-49.7087,-3.42161,0
74.6406,-49.6051,-3.42861,0
74.6412,-49.5019,-3.43521,0
74.6395,-49.399,-3.44142,0
74.6355,-49.2965,-3.44726,0
74.6294,-49.1944,-3.45271,0
74.6214,-49.0928,-3.45777,0
74.6112,-48.9918,-3.46245,0
74.5988,-48.8913,-3.46674,0
74.5845,-48.7914,-3.47066,0
74.5682,-48.6921,-3.4742,0
74.5566,-48.5932,-3.4766,0
74.5447,-48.4945,-3.47842,0
74.533,-48.3959,-3.47965,0
74.5295,-48.2963,-3.47931,0
74.5241,-48.1967,-3.4786,0
74.5167,-48.0969,-3.47752,0
74.5074,-47.9971,-3.47606,0
74.4961,-47.8973,-3.47422,0
74.4827,-47.7975,-3.472,0
74.4673,-47.6978,-3.4694,0
74.4499,-47.5982,-3.46641,0
74.4305,-47.4987,-3.46305,0
74.4091,-47.3993,-3.4593,0
74.3856,-47.3002,-3.45516,0
74.3602,-47.2013,-3.45063,0
74.3326,-47.1027,-3.44571,0
74.3029,-47.0043,-3.44041,0
74.2712,-46.9064,-3.43469,0
74.2375,-46.8089,-3.42861,0
74.2016,-46.7118,-3.42212,0
74.1638,-46.6151,-3.41524,0
74.1216,-46.5204,-3.4083,0
74.077,-46.4264,-3.40101,0
74.0304,-46.3333,-3.39334,0
73.9817,-46.2409,-3.3853,0
73.931,-46.1494,-3.37686,0
73.8783,-46.0587,-3.36806,0
73.8236,-45.9689,-3.35888,0
73.7751,-45.8735,-3.34789,0
73.728,-45.7757,-3.33584,0
73.6784,-45.6785,-3.32336,0
73.6263,-45.5818,-3.31046,0
73.5717,-45.4859,-3.29711,0
73.5148,-45.3908,-3.28335,0
73.4552,-45.2965,-3.26916,0
73.3934,-45.2031,-3.25455,0
73.3289,-45.1107,-3.23953,0
73.262,-45.0194,-3.22406,0
73.1926,-44.9293,-3.2082,0
73.1206,-44.8404,-3.19193,0
73.0463,-44.7528,-3.17525,0
72.9695,-44.6666,-3.15816,0
72.8903,-44.5819,-3.14069,0
72.8087,-44.4988,-3.12281,0
73.0941,-53.629,-2.81074,0
73.1895,-53.5461,-2.83274,0
73.2823,-53.461,-2.8545,0
73.3727,-53.3739,-2.87599,0
73.4546,-53.2769,-2.89916,0
73.5316,-53.1758,-2.92261,0
73.6054,-53.0732,-2.94569,0
73.6762,-52.9693,-2.9684,0
73.7438,-52.864,-2.99072,0
73.8084,-52.7576,-3.01264,0
73.8698,-52.6502,-3.03416,0
73.9282,-52.5419,-3.05525,0
73.9835,-52.4327,-3.07591,0
74.0358,-52.3228,-3.09613,0
74.0851,-52.2124,-3.11592,0
74.1313,-52.1014,-3.13526,0
74.1746,-51.99,-3.15414,0
74.2149,-51.8783,-3.17256,0
74.2524,-51.7663,-3.1905,0
74.2869,-51.6542,-3.20799,0
74.3186,-51.5421,-3.225,0
74.3475,-51.43,-3.24154,0
74.3737,-51.318,-3.2576,0
74.397,-51.2062,-3.2732,0
74.4177,-51.0946,-3.28831,0
74.4358,-50.9833,-3.30295,0
74.4527,-50.8731,-3.31691,0
74.4812,-50.7694,-3.32824,0
74.5073,-50.6654,-3.3392,0
74.5311,-50.5612,-3.34977,0
74.5525,-50.4569,-3.35996,0
74.5716,-50.3525,-3.36974,0
74.5882,-50.248,-3.37916,0
74.6027,-50.1436,-3.38817,0
74.6147,-50.0392,-3.3968,0
74.6245,-49.935,-3.40503,0
74.632,-49.8309,-3.41288,0
74.6373,-49.727,-3.42033,0
74.6403,-49.6234,-3.42739,0
74.6413,-49.5201,-3.43407,0
74.6398,-49.4171,-3.44036,0
74.6363,-49.3145,-3.44626,0
74.6308,-49.2124,-3.45178,0
74.623,-49.1107,-3.45691,0
74.6131,-49.0095,-3.46165,0
74.6012,-48.909,-3.46602,0
74.5873,-48.809,-3.47,0
74.5713,-48.7096,-3.47361,0
74.5584,-48.6106,-3.47625,0
74.547,-48.5118,-3.47813,0
74.5336,-48.4134,-3.47964,0
74.5302,-48.3139,-3.47939,0
74.5252,-48.2143,-3.47875,0
74.5182,-48.1145,-3.47774,0
74.5092,-48.0147,-3.47634,0
74.4982,-47.9149,-3.47457,0
74.4852,-47.8151,-3.47241,0
74.4702,-47.7154,-3.46989,0
74.4532,-47.6157,-3.46697,0
74.4341,-47.5162,-3.46367,0
74.413,-47.4168,-3.45999,0
74.3899,-47.3176,-3.45591,0
74.3648,-47.2187,-3.45145,0
74.3375,-47.12,-3.44661,0
74.3083,-47.0217,-3.44136,0
74.277,-46.9237,-3.43573,0
74.2436,-46.826,-3.42971,0
74.2081,-46.7288,-3.42329,0
74.1707,-46.6321,-3.41648,0
74.1292,-46.537,-3.40954,0
74.0849,-46.443,-3.40232,0
74.0387,-46.3496,-3.39472,0
73.9904,-46.2571,-3.38674,0
73.9401,-46.1654,-3.37838,0
73.8878,-46.0746,-3.36965,0
73.8334,-45.9847,-3.36053,0
73.7831,-45.8908,-3.34997,0
73.7364,-45.7929,-3.33799,0
73.6873,-45.6956,-3.3256,0
73.6356,-45.5988,-3.31276,0
73.5816,-45.5028,-3.2995,0
73.525,-45.4075,-3.28581,0
73.4659,-45.313,-3.27169,0
73.4044,-45.2195,-3.25716,0
73.3404,-45.1269,-3.2422,0
73.2739,-45.0354,-3.22682,0
73.205,-44.9451,-3.21103,0
73.1335,-44.8559,-3.19483,0
73.0596,-44.7681,-3.17821,0
72.9833,-44.6817,-3.16121,0
72.9044,-44.5968,-3.1438,0
72.8232,-44.5134,-3.12599,0
73.1728,-53.5608,-2.82889,0
73.2662,-53.4762,-2.85069,0
73.357,-53.3894,-2.87222,0
73.4407,-53.2946,-2.89499,0
73.5182,-53.1938,-2.9185,0
73.5926,-53.0914,-2.94165,0
73.6638,-52.9877,-2.96443,0
73.7321,-52.8826,-2.98681,0
73.7972,-52.7765,-3.00881,0
73.8592,-52.6692,-3.03039,0
73.9181,-52.561,-3.05155,0
73.9741,-52.452,-3.0723,0
74.0268,-52.3423,-3.0926,0
74.0766,-52.2319,-3.11246,0
74.1234,-52.121,-3.13188,0
74.1672,-52.0096,-3.15084,0
74.208,-51.898,-3.16934,0
74.246,-51.7861,-3.18737,0
74.2811,-51.674,-3.20494,0
74.3133,-51.5619,-3.22203,0
74.3426,-51.4498,-3.23867,0
74.3692,-51.3377,-3.25481,0
74.3931,-51.2259,-3.27048,0
74.4143,-51.1143,-3.28569,0
74.4328,-51.0029,-3.30041,0
74.4487,-50.892,-3.31465,0
74.4763,-50.7877,-3.32627,0
74.5029,-50.6838,-3.3373,0
74.5271,-50.5796,-3.34793,0
74.5488,-50.4753,-3.35819,0
74.5683,-50.3709,-3.36805,0
74.5855,-50.2665,-3.37753,0
74.6003,-50.162,-3.38661,0
74.6127,-50.0576,-3.3953,0
74.6229,-49.9533,-3.40361,0
74.6309,-49.8492,-3.41153,0
74.6366,-49.7453,-3.41904,0
74.6399,-49.6416,-3.42617,0
74.6413,-49.5382,-3.43292,0
74.6402,-49.4352,-3.43927,0
74.6372,-49.3326,-3.44525,0
74.6319,-49.2303,-3.45083,0
74.6245,-49.1286,-3.45603,0
74.615,-49.0273,-3.46084,0
74.6034,-48.9267,-3.46527,0
74.5898,-48.8265,-3.46933,0
74.5742,-48.7271,-3.473,0
74.5602,-48.6281,-3.47588,0
74.5491,-48.5292,-3.47783,0
74.536,-48.4307,-3.4794,0
74.531,-48.3315,-3.47946,0
74.5262,-48.2318,-3.47889,0
74.5196,-48.1321,-3.47794,0
74.5109,-48.0323,-3.47662,0
74.5003,-47.9325,-3.47491,0
74.4877,-47.8327,-3.47282,0
74.473,-47.733,-3.47036,0
74.4563,-47.6333,-3.46751,0
74.4377,-47.5337,-3.46428,0
74.417,-47.4343,-3.46066,0
74.3941,-47.3351,-3.45666,0
74.3694,-47.2361,-3.45227,0
74.3425,-47.1374,-3.44749,0
74.3136,-47.039,-3.44232,0
74.2827,-46.9409,-3.43675,0
74.2496,-46.8432,-3.4308,0
74.2145,-46.7459,-3.42445,0
74.1774,-46.6491,-3.41771,0
74.1368,-46.5536,-3.41077,0
74.093,-46.4595,-3.40362,0
74.047,-46.366,-3.39609,0
73.9991,-46.2734,-3.38818,0
73.9491,-46.1815,-3.37989,0
73.8971,-46.0905,-3.37121,0
73.8431,-46.0005,-3.36216,0
73.7911,-45.9081,-3.35204,0
73.7448,-45.8102,-3.34013,0
73.6961,-45.7127,-3.32781,0
73.6449,-45.6158,-3.31505,0
73.5912,-45.5197,-3.30187,0
73.5352,-45.4242,-3.28825,0
73.4765,-45.3296,-3.27421,0
73.4155,-45.2359,-3.25975,0
73.3519,-45.1432,-3.24486,0
73.2859,-45.0515,-3.22956,0
73.2173,-44.9609,-3.21384,0
73.1462,-44.8716,-3.19772,0
73.0728,-44.7835,-3.18117,0
72.9969,-44.6968,-3.16423,0
72.9185,-44.6116,-3.1469,0
72.8377,-44.5279,-3.12917,0
72.7544,-44.4459,-3.11104,0
73.0219,-53.4647,-2.8106,0
73.1142,-53.3846,-2.83188,0
73.1999,-53.2964,-2.85445,0
73.2802,-53.2027,-2.87769,0
73.3577,-53.1073,-2.90062,0
73.4322,-53.0103,-2.92322,0
73.5037,-52.9119,-2.94548,0
73.5722,-52.8121,-2.96738,0
73.6378,-52.7111,-2.98892,0
73.7004,-52.6089,-3.01008,0
73.7602,-52.5057,-3.03086,0
73.8169,-52.4016,-3.05123,0
73.8707,-52.2967,-3.0712,0
73.9216,-52.191,-3.09074,0
73.9696,-52.0848,-3.10988,0
74.0147,-51.978,-3.12858,0
74.0569,-51.8708,-3.14685,0
74.0963,-51.7632,-3.16467,0
74.133,-51.6554,-3.18206,0
74.1668,-51.5474,-3.19901,0
74.1979,-51.4394,-3.21549,0
74.2263,-51.3313,-3.23153,0
74.252,-51.2233,-3.24712,0
74.2751,-51.1154,-3.26225,0
74.2956,-51.0077,-3.27692,0
74.3135,-50.9003,-3.29114,0
74.3412,-50.7987,-3.30292,0
74.369,-50.698,-3.31395,0
74.3944,-50.5971,-3.32459,0
74.4175,-50.4959,-3.33487,0
74.4384,-50.3946,-3.34476,0
74.4568,-50.2932,-3.35428,0
74.4731,-50.1917,-3.36342,0
74.4871,-50.0902,-3.37218,0
74.4989,-49.9888,-3.38057,0
74.5084,-49.8875,-3.38858,0
74.5157,-49.7863,-3.3962,0
74.5208,-49.6853,-3.40345,0
74.5238,-49.5846,-3.41032,0
74.5247,-49.4841,-3.41681,0
74.5234,-49.384,-3.42293,0
74.5199,-49.2843,-3.42866,0
74.5145,-49.1849,-3.43403,0
74.5069,-49.086,-3.43902,0
74.4973,-48.9877,-3.44362,0
74.4857,-48.8898,-3.44787,0
74.4721,-48.7925,-3.45175,0
74.4624,-48.6956,-3.45453,0
74.4529,-48.5989,-3.4567,0
74.4414,-48.5026,-3.45849,0
74.4287,-48.4066,-3.45985,0
74.4253,-48.3095,-3.45948,0
74.4198,-48.2123,-3.45875,0
74.4124,-48.115,-3.45767,0
74.4031,-48.0177,-3.4562,0
74.3918,-47.9204,-3.45437,0
74.3786,-47.8231,-3.45216,0
74.3634,-47.7259,-3.44959,0
74.3462,-47.6288,-3.44664,0
74.327,-47.5318,-3.44331,0
74.3059,-47.435,-3.43961,0
74.2828,-47.3384,-3.43552,0
74.2577,-47.2421,-3.43106,0
74.2305,-47.1461,-3.42623,0
74.2014,-47.0503,-3.42099,0
74.1703,-46.955,-3.41539,0
74.1371,-46.86,-3.4094,0
74.102,-46.7655,-3.40302,0
74.0642,-46.6718,-3.39634,0
74.0226,-46.5797,-3.38958,0
73.9789,-46.4883,-3.38245,0
73.9334,-46.3977,-3.37493,0
73.8857,-46.3079,-3.36706,0
73.8362,-46.2188,-3.35881,0
73.7846,-46.1307,-3.35019,0
73.731,-46.0434,-3.3412,0
73.6756,-45.9571,-3.33185,0
73.6271,-45.8643,-3.32044,0
73.5784,-45.7704,-3.30823,0
73.5274,-45.6771,-3.29563,0
73.4738,-45.5845,-3.28259,0
73.418,-45.4927,-3.26916,0
73.3598,-45.4018,-3.25531,0
73.2991,-45.3118,-3.24106,0
73.2362,-45.2228,-3.22642,0
73.1708,-45.1349,-3.21136,0
73.103,-45.0481,-3.1959,0
73.0328,-44.9625,-3.18007,0
72.9602,-44.8783,-3.16383,0
72.8854,-44.7955,-3.14721,0
72.8082,-44.7141,-3.13022,0
72.7287,-44.6343,-3.11285,0
73.0054,-53.4786,-2.80682,0
73.0981,-53.3988,-2.82815,0
73.1855,-53.3128,-2.85032,0
73.2663,-53.2194,-2.87362,0
73.3442,-53.1243,-2.8966,0
73.4192,-53.0275,-2.91925,0
73.4912,-52.9293,-2.94158,0
73.5603,-52.8298,-2.96354,0
73.6265,-52.729,-2.98514,0
73.6896,-52.627,-3.00637,0
73.7498,-52.524,-3.02721,0
73.8071,-52.42,-3.04766,0
73.8614,-52.3152,-3.0677,0
73.9128,-52.2097,-3.08733,0
73.9613,-52.1035,-3.10653,0
74.007,-51.9968,-3.12531,0
74.0497,-51.8897,-3.14366,0
74.0896,-51.7822,-3.16156,0
74.1267,-51.6744,-3.17903,0
74.161,-51.5665,-3.19605,0
74.1926,-51.4584,-3.21261,0
74.2215,-51.3503,-3.22874,0
74.2477,-51.2423,-3.2444,0
74.2712,-51.1344,-3.25961,0
74.2922,-51.0266,-3.27437,0
74.3106,-50.9192,-3.28866,0
74.3361,-50.8164,-3.30095,0
74.3642,-50.7158,-3.31203,0
74.3901,-50.6149,-3.32274,0
74.4136,-50.5137,-3.33308,0
74.4348,-50.4124,-3.34304,0
74.4538,-50.311,-3.35263,0
74.4704,-50.2096,-3.36183,0
74.4848,-50.1081,-3.37067,0
74.4969,-50.0067,-3.37912,0
74.5069,-49.9053,-3.38719,0
74.5145,-49.8041,-3.39488,0
74.5202,-49.7031,-3.4022,0
74.5234,-49.6023,-3.40914,0
74.5247,-49.5018,-3.4157,0
74.5238,-49.4016,-3.42188,0
74.5207,-49.3018,-3.42767,0
74.5155,-49.2024,-3.43311,0
74.5084,-49.1034,-3.43816,0
74.4991,-49.005,-3.44284,0
74.4879,-48.907,-3.44715,0
74.4747,-48.8096,-3.4511,0
74.4639,-48.7127,-3.45411,0
74.4547,-48.616,-3.45635,0
74.4436,-48.5196,-3.4582,0
74.4306,-48.4235,-3.4597,0
74.426,-48.3266,-3.45958,0
74.4209,-48.2294,-3.45891,0
74.4139,-48.1321,-3.45788,0
74.4048,-48.0348,-3.45649,0
74.3939,-47.9375,-3.45472,0
74.381,-47.8402,-3.45258,0
74.3662,-47.743,-3.45007,0
74.3494,-47.6459,-3.44718,0
74.3306,-47.5489,-3.44392,0
74.3098,-47.4521,-3.44028,0
74.287,-47.3554,-3.43628,0
74.2623,-47.2591,-3.43187,0
74.2355,-47.163,-3.4271,0
74.2067,-47.0672,-3.42194,0
74.1759,-46.9718,-3.4164,0
74.1431,-46.8767,-3.41048,0
74.1084,-46.7821,-3.40418,0
74.0714,-46.6881,-3.3975,0
74.0301,-46.5959,-3.3908,0
73.9868,-46.5044,-3.38373,0
73.9416,-46.4136,-3.37629,0
73.8943,-46.3236,-3.36847,0
73.8451,-46.2345,-3.36029,0
73.7937,-46.1462,-3.35173,0
73.7406,-46.0588,-3.3428,0
73.6855,-45.9723,-3.33353,0
73.6355,-45.8809,-3.32255,0
73.5872,-45.7869,-3.31042,0
73.5365,-45.6935,-3.29788,0
73.4835,-45.6008,-3.28492,0
73.4281,-45.5088,-3.27156,0
73.3702,-45.4177,-3.25779,0
73.31,-45.3276,-3.24361,0
73.2474,-45.2384,-3.22903,0
73.1824,-45.1503,-3.21404,0
73.1152,-45.0633,-3.19866,0
73.0454,-44.9775,-3.18288,0
72.9732,-44.8931,-3.16672,0
72.8988,-44.81,-3.15017,0
72.822,-44.7283,-3.13325,0
72.7428,-44.6482,-3.11594,0
73.082,-53.4131,-2.82441,0
73.1709,-53.329,-2.84618,0
73.2523,-53.236,-2.86953,0
73.3307,-53.1411,-2.89257,0
73.4062,-53.0447,-2.91528,0
73.4788,-52.9468,-2.93767,0
73.5484,-52.8474,-2.9597,0
73.615,-52.7468,-2.98137,0
73.6787,-52.645,-3.00266,0
73.7394,-52.5422,-3.02357,0
73.7973,-52.4384,-3.04409,0
73.852,-52.3337,-3.0642,0
73.904,-52.2283,-3.0839,0
73.953,-52.1223,-3.10318,0
73.9991,-52.0157,-3.12203,0
74.0423,-51.9086,-3.14046,0
74.0827,-51.8012,-3.15844,0
74.1204,-51.6934,-3.17598,0
74.1552,-51.5855,-3.19308,0
74.1873,-51.4775,-3.20973,0
74.2166,-51.3694,-3.22593,0
74.2433,-51.2613,-3.24168,0
74.2673,-51.1534,-3.25696,0
74.2887,-51.0456,-3.2718,0
74.3075,-50.9381,-3.28617,0
74.3309,-50.8342,-3.29895,0
74.3595,-50.7336,-3.3101,0
74.3857,-50.6327,-3.32088,0
74.4096,-50.5316,-3.33129,0
74.4313,-50.4303,-3.34131,0
74.4505,-50.3289,-3.35096,0
74.4676,-50.2275,-3.36024,0
74.4824,-50.126,-3.36914,0
74.4949,-50.0245,-3.37766,0
74.5053,-49.9232,-3.38579,0
74.5134,-49.8219,-3.39356,0
74.5193,-49.7209,-3.40094,0
74.523,-49.6201,-3.40794,0
74.5246,-49.5195,-3.41456,0
74.5241,-49.4193,-3.42081,0
74.5214,-49.3194,-3.42668,0
74.5166,-49.2199,-3.43217,0
74.5098,-49.1209,-3.43729,0
74.5009,-49.0223,-3.44205,0
74.4901,-48.9242,-3.44641,0
74.4771,-48.8267,-3.45042,0
74.4653,-48.7297,-3.45368,0
74.4564,-48.633,-3.45598,0
74.4456,-48.5365,-3.4579,0
74.433,-48.4404,-3.45946,0
74.4267,-48.3437,-3.45965,0
74.422,-48.2465,-3.45906,0
74.4152,-48.1493,-3.45809,0
74.4066,-48.052,-3.45676,0
74.396,-47.9547,-3.45506,0
74.3834,-47.8574,-3.45299,0
74.369,-47.7602,-3.45054,0
74.3525,-47.663,-3.44772,0
74.3341,-47.566,-3.44453,0
74.3136,-47.4691,-3.44096,0
74.2912,-47.3725,-3.437,0
74.2667,-47.276,-3.43268,0
74.2403,-47.1799,-3.42798,0
74.212,-47.0841,-3.42288,0
74.1815,-46.9886,-3.4174,0
74.1491,-46.8935,-3.41155,0
74.1146,-46.7988,-3.40532,0
74.0781,-46.7046,-3.3987,0
74.0375,-46.6121,-3.39201,0
73.9945,-46.5205,-3.385,0
73.9496,-46.4296,-3.37763,0
73.9027,-46.3395,-3.36987,0
73.8538,-46.2501,-3.36175,0
73.803,-46.1617,-3.35326,0
73.7502,-46.0741,-3.34441,0
73.6954,-45.9874,-3.33519,0
73.6438,-45.8976,-3.32465,0
73.5959,-45.8034,-3.31258,0
73.5456,-45.7099,-3.30011,0
73.493,-45.6171,-3.28724,0
73.438,-45.525,-3.27394,0
73.3806,-45.4338,-3.26024,0
73.3208,-45.3434,-3.24613,0
73.2587,-45.2541,-3.23163,0
73.1941,-45.1657,-3.21671,0
73.1271,-45.0785,-3.20141,0
73.0578,-44.9926,-3.18569,0
72.9861,-44.9079,-3.1696,0
72.9121,-44.8245,-3.15313,0
72.8356,-44.7426,-3.13626,0
72.757,-44.6622,-3.11902,0
72.6759,-44.5835,-3.10141,0
72.9357,-53.32,-2.8077,0
73.0194,-53.2339,-2.8307,0
73.1003,-53.146,-2.85345,0
73.1785,-53.0563,-2.87591,0
73.2539,-52.965,-2.89808,0
73.3266,-52.872,-2.91996,0
73.3963,-52.7776,-2.9415,0
73.4633,-52.6819,-2.96272,0
73.5274,-52.585,-2.98358,0
73.5887,-52.4869,-3.00408,0
73.6472,-52.3878,-3.02423,0
73.7028,-52.2878,-3.044,0
73.7557,-52.1869,-3.06337,0
73.8057,-52.0853,-3.08236,0
73.853,-51.9831,-3.10094,0
73.8974,-51.8803,-3.11912,0
73.9391,-51.777,-3.1369,0
73.9781,-51.6734,-3.15424,0
74.0144,-51.5695,-3.17116,0
74.048,-51.4653,-3.18767,0
74.079,-51.361,-3.20373,0
74.1073,-51.2567,-3.21937,0
74.133,-51.1524,-3.23458,0
74.1562,-51.0482,-3.24935,0
74.177,-50.9441,-3.26367,0
74.2009,-50.8429,-3.2766,0
74.2305,-50.7454,-3.28773,0
74.2578,-50.6476,-3.2985,0
74.283,-50.5496,-3.30891,0
74.3058,-50.4513,-3.31897,0
74.3265,-50.3528,-3.32865,0
74.3448,-50.2542,-3.33797,0
74.361,-50.1556,-3.34693,0
74.3751,-50.0569,-3.3555,0
74.3869,-49.9583,-3.36373,0
74.3965,-49.8597,-3.37158,0
