63.4031,-48.047,-1.77742,0
63.3695,-47.978,-1.77393,0
63.3343,-47.9098,-1.77023,0
63.2975,-47.8423,-1.76632,0
63.2592,-47.7756,-1.7622,0
63.2195,-47.7097,-1.75789,0
63.1795,-47.6438,-1.75298,0
63.139,-47.5781,-1.74756,0
63.097,-47.5131,-1.74191,0
63.0535,-47.4491,-1.73606,0
63.0085,-47.3859,-1.73,0
62.9621,-47.3236,-1.72373,0
62.9142,-47.2623,-1.71726,0
62.8649,-47.202,-1.7106,0
62.8141,-47.1427,-1.70373,0
62.7621,-47.0845,-1.69666,0
62.7085,-47.0273,-1.6894,0
62.6537,-46.9713,-1.68195,0
62.5975,-46.9165,-1.6743,0
62.54,-46.8629,-1.66647,0
62.4812,-46.8105,-1.65846,0
62.4205,-46.7604,-1.65063,0
62.3583,-46.7119,-1.64272,0
62.2948,-46.6649,-1.63466,0
62.2304,-46.6192,-1.62643,0
62.1647,-46.575,-1.61806,0
62.098,-46.5324,-1.60955,0
62.0303,-46.4912,-1.6009,0
61.9615,-46.4516,-1.5921,0
61.8905,-46.4161,-1.58402,0
62.5035,-52.4011,-1.51225,0
62.5614,-52.3472,-1.52301,0
62.618,-52.2921,-1.53367,0
62.6731,-52.2358,-1.54419,0
62.7268,-52.1783,-1.55458,0
62.7791,-52.1198,-1.56483,0
62.8297,-52.0601,-1.57493,0
62.8789,-51.9993,-1.58489,0
62.9266,-51.9376,-1.59469,0
62.9727,-51.8749,-1.60434,0
63.0173,-51.8113,-1.61382,0
63.0603,-51.7468,-1.62313,0
63.1018,-51.6815,-1.63228,0
63.1417,-51.6154,-1.64125,0
63.1799,-51.5485,-1.65005,0
63.2166,-51.481,-1.65866,0
63.2516,-51.4127,-1.66709,0
63.2849,-51.3438,-1.67534,0
63.3167,-51.2743,-1.68339,0
63.3469,-51.2043,-1.69125,0
63.3753,-51.1338,-1.69891,0
63.4021,-51.0628,-1.70638,0
63.4273,-50.9913,-1.71364,0
63.4509,-50.9195,-1.7207,0
63.4756,-50.8484,-1.72671,0
63.502,-50.778,-1.73162,0
63.5266,-50.7071,-1.73633,0
63.55,-50.6357,-1.74086,0
63.5716,-50.5638,-1.74517,0
63.5917,-50.4914,-1.74927,0
63.6103,-50.4187,-1.75318,0
63.6273,-50.3456,-1.75688,0
63.6427,-50.2721,-1.76037,0
63.6565,-50.1983,-1.76364,0
63.6687,-50.1243,-1.76671,0
63.6794,-50.0499,-1.76957,0
63.6884,-49.9754,-1.77221,0
63.6958,-49.9007,-1.77463,0
63.7016,-49.8259,-1.77684,0
63.7057,-49.751,-1.77883,0
63.7084,-49.6759,-1.78061,0
63.7086,-49.6009,-1.78234,0
63.7067,-49.5258,-1.78399,0
63.7032,-49.4509,-1.78543,0
63.698,-49.376,-1.78666,0
63.6912,-49.3013,-1.78767,0
63.6828,-49.2268,-1.78845,0
63.6728,-49.1525,-1.78903,0
63.6611,-49.0785,-1.78939,0
63.6478,-49.0047,-1.78953,0
63.633,-48.9313,-1.78947,0
63.6165,-48.8582,-1.78919,0
63.5984,-48.7855,-1.78868,0
63.5787,-48.7132,-1.78797,0
63.5576,-48.6414,-1.78703,0
63.5348,-48.57,-1.78589,0
63.5105,-48.4992,-1.78452,0
63.4847,-48.4289,-1.78296,0
63.459,-48.3586,-1.78072,0
63.4321,-48.2886,-1.77814,0
63.4038,-48.2192,-1.77534,0
63.3739,-48.1504,-1.77233,0
63.3426,-48.0822,-1.76913,0
63.3096,-48.0147,-1.7657,0
63.2752,-47.9478,-1.76209,0
63.2392,-47.8817,-1.75826,0
63.2018,-47.8164,-1.75424,0
63.1629,-47.7519,-1.75001,0
63.124,-47.6873,-1.74511,0
63.0843,-47.6229,-1.7398,0
63.0431,-47.5594,-1.73426,0
63.0005,-47.4967,-1.72854,0
62.9565,-47.4348,-1.7226,0
62.911,-47.3739,-1.71647,0
62.8641,-47.3139,-1.71013,0
62.8158,-47.2549,-1.7036,0
62.7661,-47.1969,-1.69686,0
62.715,-47.14,-1.68994,0
62.6627,-47.0841,-1.68283,0
62.6089,-47.0294,-1.67553,0
62.554,-46.9757,-1.66805,0
62.4977,-46.9233,-1.66039,0
62.4396,-46.8727,-1.65276,0
62.38,-46.824,-1.64518,0
62.3191,-46.7766,-1.63744,0
62.2571,-46.7305,-1.62955,0
62.1941,-46.6859,-1.62151,0
62.1298,-46.6427,-1.61333,0
62.0646,-46.601,-1.605,0
61.9983,-46.5607,-1.59653,0
61.9311,-46.522,-1.58794,0
61.862,-46.4863,-1.57971,0
62.4752,-52.4264,-1.50704,0
62.5338,-52.3732,-1.51788,0
62.5911,-52.3187,-1.52859,0
62.647,-52.2629,-1.53917,0
62.7013,-52.206,-1.54962,0
62.7541,-52.148,-1.55993,0
62.8055,-52.0888,-1.57011,0
62.8555,-52.0286,-1.58014,0
62.904,-51.9673,-1.59002,0
62.9509,-51.9051,-1.59973,0
62.9962,-51.8419,-1.60929,0
63.04,-51.7778,-1.61869,0
63.0821,-51.7129,-1.62791,0
63.1227,-51.6472,-1.63698,0
63.1618,-51.5807,-1.64586,0
63.1992,-51.5134,-1.65455,0
63.235,-51.4455,-1.66308,0
63.2692,-51.3769,-1.67141,0
63.3017,-51.3077,-1.67956,0
63.3326,-51.2379,-1.68751,0
63.3619,-51.1676,-1.69527,0
63.3895,-51.0968,-1.70282,0
63.4155,-51.0256,-1.71019,0
63.4398,-50.9539,-1.71734,0
63.4624,-50.8819,-1.72429,0
63.4895,-50.8118,-1.7293,0
63.515,-50.7411,-1.73411,0
63.539,-50.67,-1.73872,0
63.5614,-50.5983,-1.74313,0
63.5823,-50.5262,-1.74733,0
63.6016,-50.4536,-1.75133,0
63.6193,-50.3806,-1.75513,0
63.6355,-50.3073,-1.75872,0
63.6501,-50.2337,-1.7621,0
63.663,-50.1598,-1.76526,0
63.6744,-50.0856,-1.76822,0
63.6842,-50.0112,-1.77096,0
63.6924,-49.9365,-1.7735,0
63.6991,-49.8618,-1.77581,0
63.7039,-49.7869,-1.7779,0
63.7073,-49.7119,-1.77978,0
63.709,-49.6368,-1.78147,0
63.7078,-49.5618,-1.78322,0
63.7051,-49.4868,-1.78477,0
63.7007,-49.4119,-1.7861,0
63.6947,-49.3371,-1.78721,0
63.687,-49.2625,-1.7881,0
63.6777,-49.1881,-1.78879,0
63.6669,-49.1139,-1.78925,0
63.6544,-49.04,-1.7895,0
63.6403,-48.9664,-1.78953,0
63.6246,-48.8931,-1.78935,0
63.6073,-48.8203,-1.78895,0
63.5884,-48.7478,-1.78834,0
63.5679,-48.6757,-1.78751,0
63.5459,-48.6041,-1.78646,0
63.5223,-48.5331,-1.78521,0
63.4973,-48.4625,-1.78374,0
63.4712,-48.3923,-1.78189,0
63.4452,-48.3221,-1.7794,0
63.4176,-48.2524,-1.77671,0
63.3884,-48.1833,-1.7738,0
63.3578,-48.1148,-1.7707,0
63.3255,-48.0469,-1.76737,0
63.2918,-47.9798,-1.76385,0
63.2566,-47.9133,-1.76012,0
63.2198,-47.8476,-1.75619,0
63.1816,-47.7827,-1.75206,0
63.1424,-47.7184,-1.74758,0
63.1034,-47.6536,-1.74237,0
63.063,-47.5897,-1.73695,0
63.0212,-47.5266,-1.73131,0
62.9778,-47.4644,-1.72547,0
62.9329,-47.403,-1.71944,0
62.8867,-47.3426,-1.71319,0
62.8391,-47.2831,-1.70675,0
62.7901,-47.2246,-1.70011,0
62.7397,-47.1671,-1.69328,0
62.688,-47.1108,-1.68627,0
62.6348,-47.0555,-1.67906,0
62.5805,-47.0013,-1.67166,0
62.5248,-46.9483,-1.66408,0
62.4678,-46.8965,-1.65634,0
62.4087,-46.8472,-1.64883,0
62.3484,-46.7991,-1.64117,0
62.287,-46.7524,-1.63336,0
62.2244,-46.7071,-1.62538,0
62.1607,-46.6632,-1.61726,0
62.0959,-46.6208,-1.609,0
62.0302,-46.5798,-1.60061,0
61.9634,-46.5404,-1.59207,0
61.8955,-46.5028,-1.58352,0
62.5059,-52.3989,-1.5127,0
62.5638,-52.345,-1.52347,0
62.6203,-52.2898,-1.53411,0
62.6755,-52.2334,-1.54464,0
62.7291,-52.1759,-1.55501,0
62.7812,-52.1173,-1.56526,0
62.8318,-52.0576,-1.57535,0
62.8809,-51.9968,-1.5853,0
62.9285,-51.935,-1.59509,0
62.9747,-51.8723,-1.60473,0
63.0191,-51.8087,-1.61421,0
63.0622,-51.7441,-1.62352,0
63.1035,-51.6788,-1.63266,0
63.1433,-51.6126,-1.64162,0
63.1815,-51.5457,-1.65041,0
63.218,-51.4781,-1.65902,0
63.253,-51.4098,-1.66744,0
63.2863,-51.3409,-1.67568,0
63.318,-51.2714,-1.68372,0
63.348,-51.2014,-1.69157,0
63.3765,-51.1308,-1.69923,0
63.4032,-51.0598,-1.70669,0
63.4283,-50.9883,-1.71394,0
63.4518,-50.9165,-1.721,0
63.4767,-50.8455,-1.72692,0
63.503,-50.7751,-1.73183,0
63.5277,-50.7041,-1.73653,0
63.5509,-50.6327,-1.74104,0
63.5725,-50.5608,-1.74534,0
63.5926,-50.4884,-1.74944,0
63.611,-50.4156,-1.75334,0
63.6279,-50.3425,-1.75703,0
63.6433,-50.269,-1.7605,0
63.657,-50.1952,-1.76378,0
63.6691,-50.1212,-1.76683,0
63.6797,-50.0468,-1.76967,0
63.6887,-49.9723,-1.77231,0
63.696,-49.8976,-1.77472,0
63.7018,-49.8228,-1.77693,0
63.7059,-49.7478,-1.77891,0
63.7084,-49.6728,-1.78068,0
63.7086,-49.5977,-1.78241,0
63.7066,-49.5227,-1.78405,0
63.703,-49.4478,-1.78548,0
63.6977,-49.3729,-1.7867,0
63.6909,-49.2982,-1.7877,0
63.6824,-49.2237,-1.78848,0
63.6723,-49.1494,-1.78905,0
63.6605,-49.0754,-1.78941,0
63.6473,-49.0016,-1.78955,0
63.6323,-48.9282,-1.78946,0
63.6158,-48.8551,-1.78916,0
63.5977,-48.7825,-1.78865,0
63.578,-48.7102,-1.78793,0
63.5566,-48.6384,-1.78698,0
63.5338,-48.5671,-1.78583,0
63.5095,-48.4963,-1.78446,0
63.4835,-48.426,-1.78288,0
63.4578,-48.3557,-1.78062,0
63.431,-48.2857,-1.77803,0
63.4026,-48.2163,-1.77523,0
63.3727,-48.1475,-1.7722,0
63.3412,-48.0793,-1.76899,0
63.3082,-48.0118,-1.76556,0
63.2737,-47.9451,-1.76193,0
63.2377,-47.879,-1.7581,0
63.2002,-47.8137,-1.75406,0
63.1612,-47.7493,-1.74983,0
63.1223,-47.6846,-1.74489,0
63.0826,-47.6202,-1.73957,0
63.0414,-47.5567,-1.73403,0
62.9987,-47.4941,-1.7283,0
62.9545,-47.4323,-1.72235,0
62.909,-47.3714,-1.71621,0
62.862,-47.3115,-1.70987,0
62.8137,-47.2525,-1.70332,0
62.764,-47.1945,-1.69658,0
62.7129,-47.1376,-1.68965,0
62.6605,-47.0818,-1.68253,0
62.6067,-47.0271,-1.67522,0
62.5516,-46.9735,-1.66773,0
62.4952,-46.9212,-1.66006,0
62.4371,-46.8706,-1.65245,0
62.3774,-46.8219,-1.64487,0
62.3166,-46.7746,-1.63711,0
62.2545,-46.7286,-1.62921,0
62.1913,-46.6841,-1.62117,0
62.1271,-46.6409,-1.61298,0
62.0618,-46.5992,-1.60465,0
61.9955,-46.5591,-1.59617,0
61.9282,-46.5204,-1.58758,0
61.8592,-46.4849,-1.57938,0
62.4577,-52.3387,-1.50977,0
62.5152,-52.287,-1.51995,0
62.5705,-52.2333,-1.53038,0
62.6245,-52.1783,-1.54068,0
62.6772,-52.1222,-1.55085,0
62.7284,-52.065,-1.56088,0
62.778,-52.0068,-1.57077,0
62.8263,-51.9475,-1.58052,0
62.8731,-51.8872,-1.59013,0
62.9184,-51.8259,-1.59958,0
62.9622,-51.7638,-1.60886,0
63.0044,-51.7008,-1.61799,0
63.045,-51.637,-1.62695,0
63.0841,-51.5724,-1.63574,0
63.1218,-51.507,-1.64438,0
63.1577,-51.441,-1.65282,0
63.1921,-51.3743,-1.66109,0
63.225,-51.3069,-1.66916,0
63.2562,-51.239,-1.67706,0
63.2859,-51.1705,-1.68477,0
63.3138,-51.1015,-1.69229,0
63.3402,-51.0321,-1.69962,0
63.365,-50.9622,-1.70674,0
63.3882,-50.8919,-1.71366,0
63.4147,-50.8232,-1.71891,0
63.4405,-50.7542,-1.72373,0
63.4648,-50.6847,-1.72836,0
63.4876,-50.6147,-1.73278,0
63.5089,-50.5443,-1.73701,0
63.5286,-50.4734,-1.74104,0
63.5468,-50.4021,-1.74487,0
63.5634,-50.3305,-1.74849,0
63.5786,-50.2585,-1.75191,0
63.5921,-50.1862,-1.75512,0
63.6041,-50.1136,-1.75813,0
63.6145,-50.0408,-1.76093,0
63.6234,-49.9678,-1.76352,0
63.6306,-49.8946,-1.76589,0
63.6364,-49.8212,-1.76805,0
63.6405,-49.7478,-1.77001,0
63.6424,-49.6743,-1.7719,0
63.6422,-49.6007,-1.77373,0
63.6404,-49.5272,-1.77535,0
63.6369,-49.4538,-1.77676,0
63.6319,-49.3805,-1.77797,0
63.6252,-49.3073,-1.77896,0
63.617,-49.2343,-1.77973,0
63.6071,-49.1615,-1.7803,0
63.5957,-49.0889,-1.78066,0
63.5827,-49.0167,-1.7808,0
63.5682,-48.9447,-1.78073,0
63.5521,-48.8731,-1.78046,0
63.5344,-48.8019,-1.77996,0
63.5152,-48.7311,-1.77926,0
63.4944,-48.6607,-1.77835,0
63.4721,-48.5908,-1.77723,0
63.4483,-48.5214,-1.77589,0
63.4229,-48.4526,-1.77435,0
63.397,-48.384,-1.77237,0
63.3707,-48.3154,-1.76983,0
63.3429,-48.2475,-1.76709,0
63.3136,-48.1801,-1.76414,0
63.2827,-48.1133,-1.76099,0
63.2505,-48.0472,-1.75763,0
63.2167,-47.9818,-1.75409,0
63.1814,-47.9171,-1.75033,0
63.1448,-47.8531,-1.74638,0
63.1066,-47.79,-1.74224,0
63.0688,-47.7265,-1.73732,0
63.0299,-47.6635,-1.7321,0
62.9895,-47.6014,-1.72667,0
62.9477,-47.54,-1.72105,0
62.9045,-47.4795,-1.71522,0
62.8598,-47.4199,-1.7092,0
62.8138,-47.3613,-1.70299,0
62.7665,-47.3036,-1.69658,0
62.7177,-47.2469,-1.68997,0
62.6676,-47.1912,-1.68319,0
62.6162,-47.1366,-1.67621,0
62.5636,-47.083,-1.66906,0
62.5096,-47.0306,-1.66172,0
62.4542,-46.9797,-1.65432,0
62.397,-46.9308,-1.64705,0
62.3385,-46.8831,-1.63962,0
62.2789,-46.8368,-1.63204,0
62.2182,-46.7918,-1.62431,0
62.1564,-46.7482,-1.61644,0
62.0935,-46.706,-1.60842,0
62.0297,-46.6653,-1.60027,0
61.9648,-46.626,-1.59198,0
61.8989,-46.5882,-1.58356,0
61.8318,-46.5525,-1.57524,0
62.4284,-52.3615,-1.5055,0
62.488,-52.3124,-1.51492,0
62.5441,-52.2592,-1.5254,0
62.5988,-52.2048,-1.53576,0
62.6521,-52.1492,-1.54599,0
62.704,-52.0926,-1.5561,0
62.7545,-52.0348,-1.56605,0
62.8034,-51.976,-1.57587,0
62.8509,-51.9162,-1.58554,0
62.8969,-51.8554,-1.59507,0
62.9414,-51.7937,-1.60443,0
62.9844,-51.7311,-1.61364,0
63.0257,-51.6677,-1.62268,0
63.0656,-51.6034,-1.63155,0
63.1039,-51.5384,-1.64027,0
63.1407,-51.4727,-1.64879,0
63.1759,-51.4063,-1.65715,0
63.2095,-51.3393,-1.66531,0
63.2414,-51.2716,-1.6733,0
63.2718,-51.2034,-1.6811,0
63.3006,-51.1346,-1.68871,0
63.3278,-51.0654,-1.69612,0
63.3534,-50.9957,-1.70335,0
63.3773,-50.9256,-1.71037,0
63.4018,-50.856,-1.71653,0
63.4284,-50.7873,-1.72145,0
63.4534,-50.7181,-1.72617,0
63.4769,-50.6483,-1.73069,0
63.4989,-50.5781,-1.73501,0
63.5194,-50.5074,-1.73913,0
63.5383,-50.4363,-1.74305,0
63.5557,-50.3648,-1.74678,0
63.5716,-50.293,-1.75029,0
63.5859,-50.2209,-1.75361,0
63.5986,-50.1484,-1.75672,0
63.6098,-50.0757,-1.75961,0
63.6193,-50.0028,-1.7623,0
63.6274,-49.9297,-1.76478,0
63.6338,-49.8564,-1.76704,0
63.6387,-49.783,-1.7691,0
63.642,-49.7095,-1.77095,0
63.6425,-49.636,-1.77288,0
63.6414,-49.5624,-1.7746,0
63.6387,-49.489,-1.77611,0
63.6345,-49.4156,-1.77742,0
63.6286,-49.3423,-1.77851,0
63.6212,-49.2692,-1.77938,0
63.6121,-49.1963,-1.78006,0
63.6014,-49.1237,-1.78051,0
63.5891,-49.0513,-1.78076,0
63.5754,-48.9791,-1.7808,0
63.56,-48.9074,-1.78062,0
63.543,-48.836,-1.78022,0
63.5245,-48.7649,-1.77962,0
63.5045,-48.6944,-1.77881,0
63.483,-48.6242,-1.77778,0
63.4598,-48.5546,-1.77656,0
63.4353,-48.4855,-1.77512,0
63.4092,-48.4169,-1.77347,0
63.3835,-48.3482,-1.77107,0
63.3564,-48.28,-1.76842,0
63.3278,-48.2123,-1.76557,0
63.2977,-48.1452,-1.76253,0
63.2662,-48.0788,-1.75927,0
63.233,-48.013,-1.75581,0
63.1985,-47.948,-1.75215,0
63.1625,-47.8837,-1.7483,0
63.125,-47.8201,-1.74424,0
63.087,-47.7569,-1.73974,0
63.0487,-47.6936,-1.73462,0
63.009,-47.631,-1.72929,0
62.9679,-47.5693,-1.72376,0
62.9253,-47.5084,-1.71804,0
62.8813,-47.4484,-1.71212,0
62.836,-47.3893,-1.70599,0
62.7893,-47.3311,-1.69967,0
62.7412,-47.2739,-1.69316,0
62.6918,-47.2177,-1.68646,0
62.6411,-47.1626,-1.67958,0
62.589,-47.1086,-1.6725,0
62.5356,-47.0556,-1.66526,0
62.4811,-47.0038,-1.65782,0
62.4245,-46.9541,-1.65055,0
62.3667,-46.9058,-1.6432,0
62.3076,-46.8588,-1.6357,0
62.2474,-46.8132,-1.62803,0
62.1861,-46.769,-1.62023,0
62.1237,-46.7261,-1.61228,0
62.0605,-46.6846,-1.60419,0
61.9959,-46.6446,-1.59597,0
61.9306,-46.6061,-1.58761,0
61.8642,-46.5691,-1.57913,0
62.4602,-52.3367,-1.51014,0
62.5175,-52.2848,-1.52039,0
62.5728,-52.231,-1.53081,0
62.6268,-52.176,-1.54111,0
62.6794,-52.1199,-1.55127,0
62.7305,-52.0626,-1.5613,0
62.7801,-52.0043,-1.57119,0
62.8284,-51.945,-1.58093,0
62.875,-51.8846,-1.59052,0
62.9202,-51.8234,-1.59997,0
62.964,-51.7612,-1.60925,0
63.0062,-51.6982,-1.61837,0
63.0467,-51.6343,-1.62733,0
63.0859,-51.5697,-1.63611,0
63.1233,-51.5043,-1.64473,0
63.1592,-51.4382,-1.65316,0
63.1936,-51.3715,-1.66142,0
63.2263,-51.3041,-1.6695,0
63.2575,-51.2361,-1.67738,0
63.287,-51.1676,-1.68509,0
63.3149,-51.0986,-1.6926,0
63.3412,-51.0291,-1.69991,0
63.366,-50.9592,-1.70703,0
63.3891,-50.8889,-1.71396,0
63.4159,-50.8203,-1.71911,0
63.4416,-50.7513,-1.72393,0
63.4659,-50.6818,-1.72854,0
63.4885,-50.6118,-1.73296,0
63.5098,-50.5413,-1.73718,0
63.5295,-50.4704,-1.7412,0
63.5476,-50.3991,-1.74502,0
63.5641,-50.3275,-1.74863,0
63.5792,-50.2555,-1.75205,0
63.5927,-50.1831,-1.75525,0
63.6045,-50.1106,-1.75825,0
63.6149,-50.0377,-1.76104,0
63.6237,-49.9647,-1.76362,0
63.6309,-49.8915,-1.76599,0
63.6365,-49.8182,-1.76815,0
63.6406,-49.7447,-1.77008,0
63.6424,-49.6712,-1.77198,0
63.6421,-49.5976,-1.7738,0
63.6402,-49.5241,-1.77542,0
63.6367,-49.4507,-1.77682,0
63.6316,-49.3774,-1.77801,0
63.6249,-49.3042,-1.77899,0
63.6166,-49.2312,-1.77976,0
63.6067,-49.1584,-1.78032,0
63.5952,-49.0859,-1.78066,0
63.5822,-49.0137,-1.7808,0
63.5675,-48.9417,-1.78072,0
63.5513,-48.8701,-1.78043,0
63.5336,-48.7989,-1.77994,0
63.5143,-48.7281,-1.77923,0
63.4935,-48.6578,-1.77831,0
63.4711,-48.5879,-1.77717,0
63.4473,-48.5185,-1.77584,0
63.4219,-48.4497,-1.77428,0
63.3959,-48.3811,-1.77227,0
63.3695,-48.3126,-1.76972,0
63.3417,-48.2446,-1.76697,0
63.3123,-48.1773,-1.76401,0
63.2815,-48.1105,-1.76085,0
63.2491,-48.0444,-1.75749,0
63.2153,-47.979,-1.75394,0
63.1799,-47.9144,-1.75017,0
63.1432,-47.8505,-1.74621,0
63.105,-47.7874,-1.74206,0
63.0672,-47.7238,-1.7371,0
63.0282,-47.6609,-1.73187,0
62.9877,-47.5988,-1.72644,0
62.9459,-47.5375,-1.72081,0
62.9026,-47.477,-1.71497,0
62.8579,-47.4175,-1.70895,0
62.8119,-47.3588,-1.70272,0
62.7644,-47.3012,-1.6963,0
62.7156,-47.2445,-1.68969,0
62.6655,-47.1889,-1.6829,0
62.6141,-47.1343,-1.67591,0
62.5614,-47.0808,-1.66876,0
62.5074,-47.0285,-1.66141,0
62.4519,-46.9776,-1.65402,0
62.3945,-46.9288,-1.64674,0
62.3361,-46.8812,-1.63931,0
62.2765,-46.8349,-1.63172,0
62.2157,-46.79,-1.62399,0
62.1537,-46.7464,-1.61611,0
62.0909,-46.7043,-1.60809,0
62.027,-46.6636,-1.59992,0
61.962,-46.6244,-1.59163,0
61.8962,-46.5866,-1.58321,0
61.829,-46.5511,-1.57491,0
62.4118,-52.2766,-1.50833,0
62.4705,-52.2291,-1.517,0
62.5248,-52.1766,-1.52721,0
62.5778,-52.123,-1.53729,0
62.6294,-52.0682,-1.54725,0
62.6796,-52.0123,-1.55708,0
62.7284,-51.9554,-1.56678,0
62.7757,-51.8975,-1.57633,0
62.8216,-51.8386,-1.58573,0
62.866,-51.7788,-1.59499,0
62.909,-51.718,-1.60409,0
62.9504,-51.6565,-1.61304,0
62.9904,-51.5941,-1.62183,0
63.0288,-51.5309,-1.63045,0
63.0657,-51.467,-1.6389,0
63.1011,-51.4025,-1.64718,0
63.1349,-51.3372,-1.65529,0
63.1672,-51.2713,-1.66321,0
63.1979,-51.2049,-1.67096,0
63.227,-51.1379,-1.67853,0
63.2545,-51.0704,-1.68591,0
63.2805,-51.0024,-1.69309,0
63.305,-50.9341,-1.70008,0
63.3291,-50.8658,-1.70647,0
63.3559,-50.7988,-1.71138,0
63.3812,-50.7312,-1.71611,0
63.4051,-50.6631,-1.72064,0
63.4274,-50.5945,-1.72498,0
63.4484,-50.5255,-1.72913,0
63.4677,-50.456,-1.73307,0
63.4855,-50.3861,-1.73683,0
63.5019,-50.3159,-1.74038,0
63.5167,-50.2453,-1.74374,0
63.53,-50.1745,-1.74689,0
63.5417,-50.1033,-1.74984,0
63.552,-50.0319,-1.75258,0
63.5606,-49.9604,-1.75512,0
63.5677,-49.8886,-1.75746,0
63.5734,-49.8167,-1.75957,0
63.5769,-49.7447,-1.76162,0
63.5782,-49.6726,-1.76362,0
63.578,-49.6006,-1.76542,0
63.5762,-49.5285,-1.76701,0
63.5729,-49.4566,-1.7684,0
63.568,-49.3847,-1.76957,0
63.5615,-49.313,-1.77055,0
63.5534,-49.2415,-1.77131,0
63.5437,-49.1701,-1.77188,0
63.5327,-49.099,-1.77222,0
63.5199,-49.0282,-1.77237,0
63.5056,-48.9577,-1.7723,0
63.4898,-48.8875,-1.77202,0
63.4725,-48.8177,-1.77154,0
63.4537,-48.7483,-1.77086,0
63.4334,-48.6793,-1.76997,0
63.4116,-48.6109,-1.76886,0
63.3882,-48.5429,-1.76756,0
63.3634,-48.4754,-1.76605,0
63.3372,-48.4085,-1.76431,0
63.3114,-48.3413,-1.76181,0
63.2841,-48.2747,-1.75912,0
63.2554,-48.2087,-1.75623,0
63.2252,-48.1433,-1.75314,0
63.1935,-48.0786,-1.74984,0
63.1603,-48.0145,-1.74636,0
63.1258,-47.9512,-1.74268,0
63.0898,-47.8886,-1.7388,0
63.0524,-47.8267,-1.73471,0
63.0156,-47.7643,-1.72979,0
62.9773,-47.7027,-1.72467,0
62.9377,-47.6418,-1.71934,0
62.8966,-47.5818,-1.71382,0
62.8542,-47.5226,-1.7081,0
62.8105,-47.4643,-1.70219,0
62.7653,-47.4069,-1.6961,0
62.7188,-47.3505,-1.68981,0
62.671,-47.295,-1.68334,0
62.6219,-47.2406,-1.67667,0
62.5716,-47.1871,-1.66983,0
62.5199,-47.1348,-1.66281,0
62.467,-47.0836,-1.65564,0
62.412,-47.0346,-1.64866,0
62.3559,-46.9867,-1.64154,0
62.2986,-46.9402,-1.63427,0
62.2402,-46.8949,-1.62684,0
62.1808,-46.8509,-1.61927,0
62.1202,-46.8083,-1.61155,0
62.0586,-46.7671,-1.6037,0
61.996,-46.7273,-1.59571,0
61.9325,-46.6889,-1.58759,0
61.868,-46.6519,-1.57935,0
61.8027,-46.6165,-1.57099,0
62.3832,-52.2988,-1.50415,0
62.4426,-52.252,-1.51285,0
62.4989,-52.2019,-1.52233,0
62.5526,-52.1488,-1.53248,0
62.6048,-52.0946,-1.5425,0
62.6557,-52.0392,-1.55239,0
62.7052,-51.9828,-1.56215,0
62.7532,-51.9254,-1.57177,0
62.7998,-51.8669,-1.58125,0
62.8449,-51.8075,-1.59057,0
62.8886,-51.7472,-1.59975,0
62.9307,-51.6861,-1.60878,0
62.9715,-51.6241,-1.61764,0
63.0105,-51.5613,-1.62634,0
63.0482,-51.4977,-1.63487,0
63.0843,-51.4335,-1.64324,0
63.1189,-51.3685,-1.65143,0
63.1519,-51.303,-1.65944,0
63.1834,-51.2368,-1.66728,0
63.2133,-51.1701,-1.67493,0
63.2416,-51.1028,-1.68239,0
63.2683,-51.0351,-1.68967,0
63.2934,-50.9669,-1.69675,0
63.317,-50.8983,-1.70365,0
63.3433,-50.831,-1.70904,0
63.3693,-50.7637,-1.71387,0
63.3938,-50.6958,-1.71849,0
63.4169,-50.6274,-1.72293,0
63.4385,-50.5586,-1.72717,0
63.4586,-50.4893,-1.73121,0
63.4771,-50.4196,-1.73507,0
63.4942,-50.3496,-1.7387,0
63.5098,-50.2792,-1.74216,0
63.5238,-50.2084,-1.74541,0
63.5363,-50.1374,-1.74845,0
63.5473,-50.0662,-1.75129,0
63.5566,-49.9947,-1.75393,0
63.5645,-49.923,-1.75636,0
63.5709,-49.8512,-1.75858,0
63.5756,-49.7792,-1.76059,0
63.5778,-49.7072,-1.76269,0
63.5783,-49.6351,-1.76458,0
63.5773,-49.563,-1.76627,0
63.5747,-49.491,-1.76776,0
63.5705,-49.4191,-1.76903,0
63.5648,-49.3474,-1.7701,0
63.5575,-49.2757,-1.77098,0
63.5486,-49.2043,-1.77163,0
63.5382,-49.1331,-1.77208,0
63.5262,-49.0621,-1.77233,0
63.5127,-48.9914,-1.77236,0
63.4977,-48.9211,-1.77218,0
63.4811,-48.8511,-1.7718,0
63.4629,-48.7815,-1.77121,0
63.4433,-48.7123,-1.77042,0
63.4222,-48.6436,-1.76941,0
63.3995,-48.5754,-1.76821,0
63.3754,-48.5077,-1.7668,0
63.3498,-48.4405,-1.76518,0
63.3239,-48.3734,-1.76303,0
63.2974,-48.3066,-1.76044,0
63.2694,-48.2403,-1.75764,0
63.2398,-48.1746,-1.75465,0
63.2088,-48.1095,-1.75145,0
63.1764,-48.0451,-1.74805,0
63.1425,-47.9814,-1.74446,0
63.1072,-47.9185,-1.74069,0
63.0705,-47.8562,-1.73671,0
63.0334,-47.7941,-1.73217,0
62.9959,-47.7321,-1.72715,0
62.9569,-47.6709,-1.72192,0
62.9165,-47.6105,-1.71649,0
62.8747,-47.5509,-1.71086,0
62.8316,-47.4922,-1.70505,0
62.7871,-47.4343,-1.69904,0
62.7412,-47.3774,-1.69284,0
62.6941,-47.3215,-1.68645,0
62.6456,-47.2665,-1.67988,0
62.5959,-47.2126,-1.67312,0
62.5448,-47.1597,-1.6662,0
62.4925,-47.108,-1.65908,0
62.4384,-47.0579,-1.65203,0
62.3829,-47.0095,-1.64498,0
62.3262,-46.9623,-1.63777,0
62.2683,-46.9164,-1.63042,0
62.2094,-46.8718,-1.62291,0
62.1493,-46.8286,-1.61527,0
62.0883,-46.7866,-1.60748,0
62.0261,-46.7462,-1.59956,0
61.9631,-46.7071,-1.5915,0
61.899,-46.6694,-1.58332,0
61.8341,-46.6333,-1.57501,0
62.4143,-52.2746,-1.50869,0
62.4728,-52.2269,-1.51743,0
62.527,-52.1744,-1.52763,0
62.58,-52.1207,-1.53771,0
62.6315,-52.0659,-1.54767,0
62.6816,-52.01,-1.55749,0
62.7303,-51.953,-1.56718,0
62.7777,-51.895,-1.57672,0
62.8234,-51.8361,-1.58612,0
62.8679,-51.7762,-1.59537,0
62.9108,-51.7155,-1.60447,0
62.9522,-51.6539,-1.61341,0
62.992,-51.5915,-1.62219,0
63.0304,-51.5283,-1.63081,0
63.0672,-51.4643,-1.63925,0
63.1026,-51.3997,-1.64753,0
63.1362,-51.3345,-1.65562,0
63.1684,-51.2686,-1.66354,0
63.1991,-51.2021,-1.67128,0
63.2282,-51.1351,-1.67883,0
63.2557,-51.0676,-1.6862,0
63.2816,-50.9996,-1.69339,0
63.306,-50.9312,-1.70038,0
63.3303,-50.863,-1.70668,0
63.357,-50.796,-1.71158,0
63.3823,-50.7284,-1.7163,0
63.406,-50.6603,-1.72083,0
63.4284,-50.5917,-1.72515,0
63.4491,-50.5226,-1.72929,0
63.4684,-50.4531,-1.73324,0
63.4862,-50.3832,-1.73698,0
63.5026,-50.3129,-1.74053,0
63.5173,-50.2424,-1.74388,0
63.5305,-50.1715,-1.74702,0
63.5422,-50.1003,-1.74995,0
63.5523,-50.029,-1.75269,0
63.5609,-49.9574,-1.75523,0
63.568,-49.8856,-1.75754,0
63.5735,-49.8137,-1.75966,0
63.577,-49.7417,-1.76171,0
63.5782,-49.6696,-1.7637,0
63.578,-49.5976,-1.76549,0
63.5761,-49.5255,-1.76707,0
63.5727,-49.4536,-1.76845,0
63.5677,-49.3817,-1.76962,0
63.5612,-49.31,-1.77058,0
63.553,-49.2385,-1.77134,0
63.5434,-49.1671,-1.77189,0
63.5322,-49.0961,-1.77223,0
63.5194,-49.0253,-1.77236,0
63.505,-48.9548,-1.77229,0
63.4892,-48.8846,-1.77201,0
63.4718,-48.8148,-1.77152,0
63.4529,-48.7454,-1.77082,0
63.4325,-48.6765,-1.76993,0
63.4105,-48.608,-1.76881,0
63.3872,-48.54,-1.7675,0
63.3623,-48.4726,-1.76598,0
63.3362,-48.4056,-1.76421,0
63.3103,-48.3385,-1.76171,0
63.283,-48.272,-1.759,0
63.2541,-48.206,-1.7561,0
63.2239,-48.1406,-1.753,0
63.1921,-48.0759,-1.74971,0
63.1589,-48.0118,-1.74621,0
63.1243,-47.9485,-1.74252,0
63.0882,-47.886,-1.73864,0
63.0509,-47.8241,-1.73452,0
63.0141,-47.7617,-1.72958,0
62.9758,-47.7001,-1.72445,0
62.936,-47.6393,-1.71912,0
62.8949,-47.5793,-1.71359,0
62.8524,-47.5202,-1.70786,0
62.8086,-47.4619,-1.70195,0
62.7634,-47.4046,-1.69584,0
62.7169,-47.3481,-1.68954,0
62.669,-47.2927,-1.68306,0
62.6198,-47.2383,-1.67639,0
62.5695,-47.1849,-1.66954,0
62.5177,-47.1326,-1.66252,0
62.4647,-47.0816,-1.65535,0
62.4097,-47.0325,-1.64838,0
62.3535,-46.9848,-1.64124,0
62.2962,-46.9382,-1.63396,0
62.2377,-46.893,-1.62653,0
62.1782,-46.8491,-1.61895,0
62.1177,-46.8066,-1.61123,0
62.0561,-46.7654,-1.60337,0
61.9934,-46.7256,-1.59538,0
61.9298,-46.6873,-1.58725,0
61.8653,-46.6504,-1.57901,0
61.7998,-46.615,-1.57064,0
62.3677,-52.2168,-1.50694,0
62.4252,-52.1705,-1.51542,0
62.4808,-52.122,-1.52416,0
62.5327,-52.0696,-1.53403,0
62.5833,-52.0161,-1.54379,0
62.6326,-51.9615,-1.55342,0
62.6804,-51.9059,-1.56292,0
62.7269,-51.8493,-1.57228,0
62.772,-51.7918,-1.5815,0
62.8155,-51.7333,-1.59057,0
62.8577,-51.6739,-1.59949,0
62.8984,-51.6137,-1.60827,0
62.9377,-51.5527,-1.61689,0
62.9755,-51.491,-1.62533,0
63.0116,-51.4285,-1.63362,0
63.0464,-51.3653,-1.64175,0
63.0796,-51.3015,-1.6497,0
63.1114,-51.237,-1.65748,0
63.1416,-51.172,-1.66508,0
63.1702,-51.1065,-1.6725,0
63.1974,-51.0404,-1.67974,0
63.223,-50.9739,-1.6868,0
63.247,-50.907,-1.69366,0
63.2728,-50.841,-1.69928,0
63.2991,-50.7753,-1.7041,0
63.3239,-50.709,-1.70874,0
63.3473,-50.6422,-1.71319,0
63.3693,-50.575,-1.71745,0
63.3898,-50.5073,-1.72152,0
63.4087,-50.4392,-1.72539,0
63.4263,-50.3707,-1.72906,0
63.4423,-50.3018,-1.73256,0
63.4569,-50.2326,-1.73585,0
63.4699,-50.1631,-1.73893,0
63.4814,-50.0934,-1.74182,0
63.4915,-50.0234,-1.74452,0
63.5,-49.9532,-1.74701,0
63.507,-49.8829,-1.74929,0
63.512,-49.8124,-1.7515,0
63.5149,-49.7417,-1.75366,0
63.5162,-49.6711,-1.75562,0
63.5161,-49.6004,-1.75739,0
63.5144,-49.5298,-1.75895,0
63.5111,-49.4593,-1.76031,0
63.5062,-49.3888,-1.76147,0
63.4999,-49.3185,-1.76243,0
63.492,-49.2484,-1.76318,0
63.4827,-49.1785,-1.76372,0
63.4717,-49.1088,-1.76407,0
63.4592,-49.0394,-1.76421,0
63.4452,-48.9702,-1.76415,0
63.4298,-48.9014,-1.76388,0
63.4128,-48.833,-1.76341,0
63.3944,-48.765,-1.76274,0
63.3744,-48.6974,-1.76187,0
63.353,-48.6302,-1.76079,0
63.3301,-48.5636,-1.7595,0
63.3058,-48.4974,-1.75802,0
63.2801,-48.4319,-1.75635,0
63.2541,-48.3663,-1.75408,0
63.2274,-48.3011,-1.75143,0
63.1991,-48.2364,-1.74859,0
63.1695,-48.1723,-1.74556,0
63.1384,-48.1089,-1.74233,0
63.1059,-48.0461,-1.73891,0
63.072,-47.9841,-1.73529,0
63.0366,-47.9227,-1.73149,0
63.0004,-47.8619,-1.72736,0
62.9642,-47.8008,-1.72253,0
62.9266,-47.7405,-1.7175,0
62.8877,-47.681,-1.71226,0
62.8474,-47.6222,-1.70684,0
62.8058,-47.5643,-1.70123,0
62.7628,-47.5072,-1.69543,0
62.7185,-47.451,-1.68945,0
62.6729,-47.3958,-1.68327,0
62.626,-47.3415,-1.67692,0
62.5778,-47.2882,-1.67038,0
62.5284,-47.2359,-1.66367,0
62.4777,-47.1847,-1.65678,0
62.4252,-47.1354,-1.65006,0
62.3713,-47.0875,-1.64322,0
62.3162,-47.0407,-1.63624,0
62.2601,-46.9951,-1.62911,0
62.2029,-46.9508,-1.62183,0
62.1446,-46.9079,-1.61441,0
62.0853,-46.8662,-1.60684,0
62.0249,-46.8259,-1.59915,0
61.9636,-46.787,-1.59133,0
61.9014,-46.7495,-1.58337,0
61.8383,-46.7134,-1.57529,0
61.7741,-46.6787,-1.56711,0
62.3398,-52.2385,-1.50286,0
62.3977,-52.1929,-1.51136,0
62.4546,-52.1458,-1.51982,0
62.508,-52.0949,-1.52932,0
62.5593,-52.0419,-1.53913,0
62.6091,-51.9878,-1.54882,0
62.6577,-51.9327,-1.55839,0
62.7048,-51.8765,-1.56781,0
62.7505,-51.8194,-1.5771,0
62.7948,-51.7614,-1.58625,0
62.8377,-51.7025,-1.59524,0
62.8791,-51.6427,-1.60409,0
62.9191,-51.582,-1.61278,0
62.9575,-51.5206,-1.62131,0
62.9945,-51.4585,-1.62968,0
63.0299,-51.3956,-1.63788,0
63.064,-51.3321,-1.64591,0
63.0964,-51.268,-1.65378,0
63.1273,-51.2032,-1.66146,0
63.1567,-51.1379,-1.66897,0
63.1846,-51.0721,-1.6763,0
63.2109,-51.0058,-1.68343,0
63.2357,-50.9391,-1.6904,0
63.2598,-50.8723,-1.69691,0
63.2867,-50.8068,-1.70181,0
63.3123,-50.7408,-1.70654,0
63.3363,-50.6743,-1.71108,0
63.359,-50.6073,-1.71543,0
63.3801,-50.5398,-1.71959,0
63.3998,-50.4718,-1.72356,0
63.4181,-50.4035,-1.72733,0
63.4348,-50.3348,-1.73091,0
63.4501,-50.2658,-1.73429,0
63.4637,-50.1964,-1.73748,0
63.4761,-50.1268,-1.74047,0
63.4869,-50.0569,-1.74325,0
63.4961,-49.9869,-1.74584,0
63.5037,-49.9166,-1.74822,0
63.51,-49.8462,-1.75041,0
63.5137,-49.7756,-1.75265,0
63.5158,-49.7049,-1.75471,0
63.5163,-49.6343,-1.75657,0
63.5154,-49.5636,-1.75822,0
63.5129,-49.4931,-1.75968,0
63.5088,-49.4226,-1.76094,0
63.5031,-49.3522,-1.76199,0
63.496,-49.282,-1.76284,0
63.4873,-49.212,-1.76349,0
63.4771,-49.1421,-1.76393,0
63.4654,-49.0726,-1.76417,0
63.4521,-49.0033,-1.7642,0
63.4374,-48.9344,-1.76404,0
63.4211,-48.8658,-1.76366,0
63.4034,-48.7975,-1.76309,0
63.3841,-48.7297,-1.76231,0
63.3634,-48.6623,-1.76133,0
63.3412,-48.5954,-1.76015,0
63.3176,-48.5291,-1.75876,0
63.2926,-48.4632,-1.75718,0
63.2665,-48.3978,-1.75527,0
63.2404,-48.3323,-1.75273,0
63.2129,-48.2673,-1.74998,0
63.1839,-48.2029,-1.74703,0
63.1534,-48.1392,-1.7439,0
63.1216,-48.0761,-1.74057,0
63.0884,-48.0137,-1.73705,0
63.0537,-47.952,-1.73333,0
63.0177,-47.8911,-1.72944,0
62.9817,-47.83,-1.72487,0
62.9448,-47.7693,-1.71992,0
62.9066,-47.7094,-1.71479,0
62.8669,-47.6502,-1.70946,0
62.8259,-47.5919,-1.70394,0
62.7836,-47.5344,-1.69823,0
62.7399,-47.4778,-1.69233,0
62.6949,-47.4221,-1.68625,0
62.6486,-47.3674,-1.67999,0
62.601,-47.3136,-1.67354,0
62.5522,-47.2609,-1.66691,0
62.5021,-47.2091,-1.6601,0
62.4505,-47.1589,-1.65327,0
62.3973,-47.1103,-1.64651,0
62.3427,-47.0629,-1.6396,0
62.2872,-47.0168,-1.63254,0
62.2305,-46.9719,-1.62533,0
62.1727,-46.9283,-1.61797,0
62.1138,-46.886,-1.61048,0
62.054,-46.8451,-1.60285,0
61.9931,-46.8055,-1.59508,0
61.9313,-46.7673,-1.5872,0
61.8686,-46.7305,-1.57918,0
61.8049,-46.6951,-1.57104,0
62.3702,-52.2149,-1.50729,0
62.4276,-52.1685,-1.51578,0
62.483,-52.1199,-1.52457,0
62.5349,-52.0674,-1.53445,0
62.5854,-52.0139,-1.54419,0
62.6346,-51.9592,-1.55383,0
62.6823,-51.9036,-1.56331,0
62.7288,-51.8469,-1.57266,0
62.7738,-51.7893,-1.58188,0
62.8173,-51.7308,-1.59094,0
62.8594,-51.6714,-1.59987,0
62.9002,-51.6112,-1.60863,0
62.9392,-51.5501,-1.61724,0
62.977,-51.4883,-1.62569,0
63.0131,-51.4258,-1.63398,0
63.0478,-51.3626,-1.64209,0
63.081,-51.2988,-1.65003,0
63.1127,-51.2343,-1.6578,0
63.1428,-51.1693,-1.66539,0
63.1714,-51.1037,-1.67281,0
63.1984,-51.0376,-1.68004,0
63.2241,-50.9711,-1.68709,0
63.248,-50.9041,-1.69394,0
63.2739,-50.8382,-1.69948,0
63.3002,-50.7725,-1.7043,0
63.325,-50.7062,-1.70892,0
63.3483,-50.6394,-1.71336,0
63.3702,-50.5722,-1.71761,0
63.3905,-50.5044,-1.72168,0
63.4095,-50.4363,-1.72554,0
63.427,-50.3678,-1.72922,0
63.443,-50.2989,-1.7327,0
63.4573,-50.2297,-1.73598,0
63.4704,-50.1602,-1.73905,0
63.4819,-50.0904,-1.74195,0
63.4919,-50.0205,-1.74463,0
63.5003,-49.9503,-1.74711,0
63.5072,-49.8799,-1.74938,0
63.5121,-49.8094,-1.75159,0
63.515,-49.7388,-1.75375,0
63.5162,-49.6681,-1.7557,0
63.516,-49.5975,-1.75746,0
63.5142,-49.5269,-1.75902,0
63.5109,-49.4563,-1.76036,0
63.506,-49.3859,-1.76152,0
63.4996,-49.3156,-1.76246,0
63.4917,-49.2455,-1.7632,0
63.4822,-49.1756,-1.76375,0
63.4712,-49.1059,-1.76407,0
63.4587,-49.0365,-1.76422,0
63.4446,-48.9673,-1.76414,0
63.4291,-48.8986,-1.76386,0
63.412,-48.8302,-1.76339,0
63.3935,-48.7621,-1.76271,0
63.3735,-48.6946,-1.76182,0
63.352,-48.6274,-1.76073,0
63.3291,-48.5608,-1.75945,0
63.3048,-48.4947,-1.75796,0
63.2789,-48.4291,-1.75627,0
63.253,-48.3636,-1.75397,0
63.2262,-48.2984,-1.75132,0
63.198,-48.2337,-1.74846,0
63.1682,-48.1697,-1.74543,0
63.1371,-48.1063,-1.74219,0
63.1045,-48.0435,-1.73875,0
63.0705,-47.9815,-1.73513,0
63.0352,-47.9202,-1.73133,0
62.9989,-47.8593,-1.72717,0
62.9627,-47.7983,-1.72232,0
62.9251,-47.738,-1.71728,0
62.8861,-47.6785,-1.71204,0
62.8457,-47.6197,-1.70661,0
62.804,-47.5618,-1.70099,0
62.7609,-47.5048,-1.69518,0
62.7166,-47.4487,-1.68919,0
62.6709,-47.3935,-1.68301,0
62.624,-47.3392,-1.67665,0
62.5758,-47.286,-1.6701,0
62.5262,-47.2338,-1.66338,0
62.4755,-47.1826,-1.6565,0
62.4229,-47.1334,-1.64977,0
62.369,-47.0855,-1.64293,0
62.3139,-47.0387,-1.63594,0
62.2577,-46.9933,-1.6288,0
62.2005,-46.949,-1.62152,0
62.1422,-46.9061,-1.61409,0
62.0827,-46.8645,-1.60653,0
62.0224,-46.8243,-1.59883,0
61.9611,-46.7854,-1.59099,0
61.8988,-46.7479,-1.58303,0
61.8355,-46.7119,-1.57495,0
61.7714,-46.6773,-1.56676,0
62.3253,-52.1594,-1.5056,0
62.3816,-52.114,-1.5139,0
62.4365,-52.0674,-1.52216,0
62.4893,-52.0182,-1.53089,0
62.5389,-51.9659,-1.54046,0
62.5873,-51.9126,-1.54989,0
62.6342,-51.8582,-1.55921,0
62.6798,-51.8029,-1.56837,0
62.724,-51.7466,-1.57741,0
62.7668,-51.6894,-1.58631,0
62.8082,-51.6313,-1.59506,0
62.8483,-51.5725,-1.60366,0
62.8868,-51.5128,-1.61211,0
62.9239,-51.4524,-1.62041,0
62.9595,-51.3912,-1.62854,0
62.9937,-51.3294,-1.63651,0
63.0263,-51.267,-1.6443,0
63.0576,-51.2039,-1.65194,0
63.0873,-51.1402,-1.6594,0
63.1155,-51.0761,-1.66669,0
63.1421,-51.0114,-1.67379,0
63.1673,-50.9463,-1.68071,0
63.1912,-50.8808,-1.68742,0
63.2184,-50.8169,-1.69233,0
63.2441,-50.7525,-1.69706,0
63.2685,-50.6875,-1.70161,0
63.2915,-50.622,-1.70598,0
63.313,-50.5561,-1.71015,0
63.3331,-50.4897,-1.71414,0
63.3517,-50.4229,-1.71795,0
63.3689,-50.3557,-1.72156,0
63.3847,-50.2882,-1.72498,0
63.399,-50.2203,-1.72821,0
63.4118,-50.1522,-1.73124,0
63.423,-50.0838,-1.73407,0
63.4329,-50.0151,-1.73672,0
63.4412,-49.9463,-1.73916,0
63.4477,-49.8773,-1.74153,0
63.4521,-49.8081,-1.74384,0
63.455,-49.7388,-1.74596,0
63.4563,-49.6696,-1.7479,0
63.4562,-49.6003,-1.74963,0
63.4545,-49.531,-1.75116,0
63.4513,-49.4619,-1.7525,0
63.4466,-49.3928,-1.75364,0
63.4404,-49.3239,-1.75457,0
63.4327,-49.2551,-1.75531,0
63.4234,-49.1866,-1.75585,0
63.4127,-49.1182,-1.75619,0
63.4005,-49.0502,-1.75633,0
63.3868,-48.9824,-1.75627,0
63.3716,-48.9149,-1.75601,0
63.3551,-48.8478,-1.75555,0
63.337,-48.7811,-1.75489,0
63.3173,-48.7148,-1.75403,0
63.2964,-48.649,-1.75298,0
63.2739,-48.5836,-1.75173,0
63.2501,-48.5187,-1.75028,0
63.2248,-48.4545,-1.74862,0
63.1988,-48.3905,-1.74659,0
63.1725,-48.3265,-1.74399,0
63.1448,-48.2631,-1.74121,0
63.1158,-48.2004,-1.73823,0
63.0852,-48.1382,-1.73506,0
63.0534,-48.0767,-1.7317,0
63.02,-48.0159,-1.72816,0
62.9854,-47.9558,-1.72442,0
62.95,-47.896,-1.72026,0
62.9145,-47.8362,-1.7155,0
62.8777,-47.7771,-1.71056,0
62.8395,-47.7187,-1.70543,0
62.7998,-47.6612,-1.7001,0
62.759,-47.6044,-1.69459,0
62.7168,-47.5486,-1.68889,0
62.6733,-47.4936,-1.68302,0
62.6284,-47.4395,-1.67696,0
62.5825,-47.3864,-1.67071,0
62.5352,-47.3342,-1.66431,0
62.4866,-47.2831,-1.65772,0
62.4364,-47.2336,-1.65121,0
62.3848,-47.1855,-1.64466,0
62.332,-47.1385,-1.63797,0
62.278,-47.0927,-1.63112,0
62.223,-47.0482,-1.62412,0
62.1669,-47.0049,-1.61699,0
62.1098,-46.9628,-1.60971,0
62.0516,-46.9221,-1.6023,0
61.9925,-46.8827,-1.59476,0
61.9324,-46.8446,-1.58709,0
61.8713,-46.8079,-1.5793,0
61.8095,-46.7726,-1.57138,0
61.7467,-46.7387,-1.56335,0
62.298,-52.1806,-1.50161,0
62.3548,-52.1359,-1.50993,0
62.4103,-52.0899,-1.51821,0
62.4647,-52.0425,-1.52643,0
62.5153,-51.9911,-1.53589,0
62.5642,-51.9382,-1.54539,0
62.6119,-51.8844,-1.55475,0
62.6581,-51.8295,-1.564,0
62.703,-51.7737,-1.5731,0
62.7466,-51.7169,-1.58207,0
62.7886,-51.6593,-1.59089,0
62.8292,-51.6008,-1.59956,0
62.8685,-51.5415,-1.60809,0
62.9063,-51.4814,-1.61645,0
62.9427,-51.4206,-1.62466,0
62.9775,-51.3591,-1.63271,0
63.0109,-51.297,-1.64059,0
63.0428,-51.2342,-1.6483,0
63.0732,-51.1708,-1.65585,0
63.1021,-51.1069,-1.66322,0
63.1295,-51.0425,-1.67041,0
63.1555,-50.9775,-1.67742,0
63.1799,-50.9122,-1.68424,0
63.2055,-50.8476,-1.69,0
63.232,-50.7834,-1.69482,0
63.257,-50.7187,-1.69945,0
63.2806,-50.6535,-1.7039,0
63.3029,-50.5877,-1.70817,0
63.3237,-50.5216,-1.71225,0
63.343,-50.4549,-1.71615,0
63.3609,-50.3879,-1.71986,0
63.3773,-50.3206,-1.72336,0
63.3923,-50.2529,-1.72669,0
63.4058,-50.1848,-1.72981,0
63.4179,-50.1166,-1.73274,0
63.4284,-50.048,-1.73547,0
63.4375,-49.9793,-1.73801,0
63.445,-49.9104,-1.74035,0
63.4502,-49.8412,-1.74275,0
63.4537,-49.772,-1.74498,0
63.4559,-49.7027,-1.747,0
63.4565,-49.6335,-1.74882,0
63.4555,-49.5642,-1.75045,0
63.453,-49.495,-1.75188,0
63.4491,-49.4259,-1.75312,0
63.4436,-49.3569,-1.75414,0
63.4366,-49.288,-1.75499,0
63.428,-49.2194,-1.75562,0
63.4181,-49.1509,-1.75606,0
63.4066,-49.0827,-1.75629,0
63.3936,-49.0148,-1.75632,0
63.3791,-48.9472,-1.75616,0
63.3632,-48.8799,-1.7558,0
63.3458,-48.813,-1.75523,0
63.327,-48.7465,-1.75447,0
63.3066,-48.6804,-1.75351,0
63.2848,-48.6148,-1.75235,0
63.2617,-48.5498,-1.75099,0
63.2371,-48.4852,-1.74944,0
63.2112,-48.4212,-1.74769,0
63.1853,-48.3571,-1.74527,0
63.1583,-48.2934,-1.74257,0
63.1298,-48.2304,-1.73968,0
63.1,-48.1679,-1.7366,0
63.0687,-48.1061,-1.73334,0
63.0362,-48.0449,-1.72987,0
63.0021,-47.9845,-1.72623,0
62.9668,-47.9248,-1.7224,0
62.9317,-47.8647,-1.7178,0
62.8955,-47.8053,-1.71295,0
62.8579,-47.7466,-1.70791,0
62.819,-47.6887,-1.70267,0
62.7787,-47.6315,-1.69725,0
62.7371,-47.5752,-1.69164,0
62.6943,-47.5198,-1.68586,0
62.6501,-47.4653,-1.67988,0
62.6046,-47.4117,-1.67372,0
62.558,-47.3591,-1.6674,0
62.5101,-47.3074,-1.6609,0
62.4608,-47.257,-1.65429,0
62.4097,-47.2084,-1.64782,0
62.3574,-47.1608,-1.64119,0
62.304,-47.1145,-1.63442,0
62.2495,-47.0694,-1.62749,0
62.1939,-47.0254,-1.62043,0
62.1373,-46.9828,-1.61322,0
62.0796,-46.9414,-1.60587,0
62.0209,-46.9014,-1.59839,0
61.9613,-46.8627,-1.59078,0
61.9008,-46.8253,-1.58304,0
61.8392,-46.7893,-1.57519,0
61.7769,-46.7548,-1.56721,0
62.3277,-52.1575,-1.50595,0
62.3839,-52.1121,-1.51425,0
62.4388,-52.0654,-1.5225,0
62.4914,-52.016,-1.5313,0
62.5409,-51.9637,-1.54085,0
62.5893,-51.9103,-1.55028,0
62.6362,-51.8559,-1.55959,0
62.6817,-51.8005,-1.56876,0
62.7258,-51.7442,-1.57779,0
62.7687,-51.687,-1.58668,0
62.8099,-51.6289,-1.59542,0
62.8499,-51.57,-1.60402,0
62.8884,-51.5103,-1.61246,0
62.9254,-51.4498,-1.62075,0
62.9609,-51.3887,-1.62887,0
62.9951,-51.3268,-1.63683,0
63.0277,-51.2643,-1.64463,0
63.0588,-51.2012,-1.65225,0
63.0884,-51.1376,-1.65971,0
63.1166,-51.0734,-1.66698,0
63.1433,-51.0087,-1.67409,0
63.1684,-50.9436,-1.68101,0
63.1923,-50.8781,-1.68762,0
63.2195,-50.8142,-1.69253,0
63.2452,-50.7498,-1.69725,0
63.2695,-50.6848,-1.70179,0
63.2924,-50.6193,-1.70615,0
63.3139,-50.5533,-1.71032,0
63.334,-50.4869,-1.7143,0
63.3525,-50.4201,-1.7181,0
63.3696,-50.3529,-1.72171,0
63.3853,-50.2853,-1.72512,0
63.3995,-50.2175,-1.72833,0
63.4123,-50.1493,-1.73136,0
63.4235,-50.0809,-1.73419,0
63.4333,-50.0123,-1.73682,0
63.4416,-49.9434,-1.73926,0
63.448,-49.8744,-1.74162,0
63.4523,-49.8052,-1.74393,0
63.4551,-49.7359,-1.74606,0
63.4564,-49.6666,-1.74798,0
63.4562,-49.5974,-1.74969,0
63.4545,-49.5282,-1.75122,0
63.4511,-49.459,-1.75255,0
63.4464,-49.3899,-1.75368,0
63.4401,-49.321,-1.75461,0
63.4323,-49.2523,-1.75533,0
63.423,-49.1837,-1.75587,0
63.4123,-49.1154,-1.75619,0
63.4,-49.0473,-1.75633,0
63.3862,-48.9795,-1.75626,0
63.3709,-48.9121,-1.75599,0
63.3543,-48.845,-1.75553,0
63.3362,-48.7783,-1.75486,0
63.3166,-48.712,-1.754,0
63.2955,-48.6462,-1.75293,0
63.273,-48.5809,-1.75167,0
63.2491,-48.5161,-1.7502,0
63.2238,-48.4518,-1.74855,0
63.1977,-48.3878,-1.74649,0
63.1714,-48.3239,-1.74389,0
63.1437,-48.2605,-1.74109,0
63.1145,-48.1977,-1.7381,0
63.0839,-48.1356,-1.73492,0
63.052,-48.0741,-1.73155,0
63.0186,-48.0133,-1.728,0
62.9839,-47.9533,-1.72426,0
62.9486,-47.8935,-1.72007,0
62.913,-47.8337,-1.71529,0
62.8761,-47.7746,-1.71035,0
62.8378,-47.7163,-1.7052,0
62.7982,-47.6588,-1.69987,0
62.7573,-47.6021,-1.69436,0
62.7149,-47.5463,-1.68865,0
62.6715,-47.4913,-1.68277,0
62.6266,-47.4373,-1.6767,0
62.5805,-47.3842,-1.67045,0
62.5332,-47.3321,-1.66403,0
62.4846,-47.281,-1.65743,0
62.4343,-47.2315,-1.65094,0
62.3826,-47.1835,-1.64439,0
62.3297,-47.1366,-1.63768,0
62.2757,-47.0908,-1.63083,0
62.2206,-47.0463,-1.62382,0
62.1645,-47.0031,-1.61668,0
62.1073,-46.9611,-1.6094,0
62.0491,-46.9204,-1.60198,0
61.99,-46.8811,-1.59444,0
61.9298,-46.843,-1.58676,0
61.8687,-46.8064,-1.57897,0
61.8069,-46.7712,-1.57104,0
61.7441,-46.7374,-1.56301,0
62.2845,-52.104,-1.50432,0
62.3395,-52.0597,-1.51244,0
62.3934,-52.0141,-1.52052,0
62.4461,-51.9672,-1.52853,0
62.4961,-51.9175,-1.53722,0
62.5435,-51.8653,-1.54648,0
62.5895,-51.8121,-1.55561,0
62.6344,-51.758,-1.56461,0
62.6778,-51.703,-1.57347,0
62.7198,-51.647,-1.58219,0
62.7605,-51.5902,-1.59078,0
62.7998,-51.5326,-1.59922,0
62.8377,-51.4742,-1.60751,0
62.8741,-51.4151,-1.61564,0
62.9091,-51.3553,-1.62361,0
62.9427,-51.2948,-1.63144,0
62.9748,-51.2336,-1.6391,0
63.0055,-51.1719,-1.64658,0
63.0348,-51.1096,-1.65391,0
63.0625,-51.0467,-1.66107,0
63.0888,-50.9834,-1.66804,0
63.1137,-50.9196,-1.67484,0
63.1389,-50.8563,-1.68078,0
63.1656,-50.7936,-1.68561,0
63.1909,-50.7304,-1.69025,0
63.2149,-50.6667,-1.6947,0
63.2374,-50.6025,-1.699,0
63.2586,-50.5378,-1.70309,0
63.2783,-50.4727,-1.70701,0
63.2966,-50.4071,-1.71075,0
63.3134,-50.3412,-1.71429,0
63.3289,-50.275,-1.71764,0
63.3429,-50.2084,-1.72081,0
63.3555,-50.1416,-1.72379,0
63.3666,-50.0744,-1.72657,0
63.3762,-50.0071,-1.72916,0
63.384,-49.9395,-1.73169,0
63.3898,-49.8718,-1.73416,0
63.3942,-49.8039,-1.73643,0
63.397,-49.736,-1.73852,0
63.3984,-49.6681,-1.74042,0
63.3983,-49.6001,-1.74212,0
63.3966,-49.5323,-1.74362,0
63.3935,-49.4644,-1.74494,0
63.3889,-49.3967,-1.74605,0
63.3828,-49.3291,-1.74698,0
63.3753,-49.2616,-1.7477,0
63.3662,-49.1944,-1.74823,0
63.3558,-49.1273,-1.74857,0
63.3438,-49.0606,-1.74871,0
63.3303,-48.9941,-1.74864,0
63.3155,-48.9279,-1.7484,0
63.2991,-48.8621,-1.74794,0
63.2814,-48.7967,-1.7473,0
63.2623,-48.7317,-1.74645,0
63.2416,-48.6671,-1.74542,0
63.2197,-48.603,-1.74419,0
63.1962,-48.5394,-1.74277,0
63.1715,-48.4763,-1.74115,0
63.1454,-48.4138,-1.73934,0
63.1195,-48.3511,-1.73681,0
63.0923,-48.289,-1.73407,0
63.0637,-48.2275,-1.73114,0
63.0338,-48.1665,-1.72803,0
63.0024,-48.1062,-1.72473,0
62.9698,-48.0466,-1.72125,0
62.9358,-47.9877,-1.71758,0
62.9014,-47.9289,-1.71339,0
62.8665,-47.8703,-1.70872,0
62.8303,-47.8124,-1.70385,0
62.7927,-47.7553,-1.69881,0
62.7538,-47.6989,-1.69358,0
62.7137,-47.6433,-1.68817,0
62.6723,-47.5886,-1.68257,0
62.6295,-47.5347,-1.67681,0
62.5855,-47.4818,-1.67085,0
62.5404,-47.4297,-1.66473,0
62.494,-47.3787,-1.65843,0
62.446,-47.329,-1.65215,0
62.3965,-47.2808,-1.64588,0
62.3458,-47.2337,-1.63945,0
62.294,-47.1878,-1.63288,0
62.2411,-47.143,-1.62617,0
62.1871,-47.0994,-1.61931,0
62.1321,-47.057,-1.61231,0
62.0761,-47.0159,-1.60518,0
62.0191,-46.976,-1.59791,0
61.9612,-46.9375,-1.59051,0
61.9022,-46.9002,-1.58299,0
61.8424,-46.8643,-1.57536,0
61.7817,-46.8298,-1.56759,0
61.7202,-46.7967,-1.55973,0
62.2577,-52.1248,-1.50042,0
62.3133,-52.0811,-1.50856,0
62.3677,-52.0361,-1.51665,0
62.421,-51.9898,-1.5247,0
62.473,-51.9421,-1.53275,0
62.5209,-51.8904,-1.54206,0
62.5677,-51.8377,-1.55126,0
62.6131,-51.7841,-1.56031,0
62.6571,-51.7295,-1.56924,0
62.6998,-51.6739,-1.57803,0
62.7412,-51.6176,-1.58669,0
62.7812,-51.5603,-1.5952,0
62.8197,-51.5023,-1.60355,0
62.8569,-51.4435,-1.61176,0
62.8925,-51.384,-1.61982,0
62.9268,-51.3238,-1.62771,0
62.9596,-51.263,-1.63545,0
62.991,-51.2015,-1.64302,0
63.021,-51.1395,-1.65042,0
63.0494,-51.0769,-1.65766,0
63.0764,-51.0138,-1.66472,0
63.1019,-50.9502,-1.6716,0
63.1259,-50.8862,-1.67831,0
63.153,-50.8237,-1.68332,0
63.179,-50.7608,-1.68804,0
63.2036,-50.6973,-1.69259,0
63.2268,-50.6333,-1.69696,0
63.2486,-50.5688,-1.70115,0
63.2691,-50.5039,-1.70516,0
63.288,-50.4386,-1.70898,0
63.3056,-50.3728,-1.71261,0
63.3217,-50.3067,-1.71607,0
63.3364,-50.2403,-1.71932,0
63.3496,-50.1736,-1.72239,0
63.3615,-50.1066,-1.72527,0
63.3718,-50.0394,-1.72795,0
63.3807,-49.972,-1.73044,0
63.3873,-49.9043,-1.733,0
63.3923,-49.8365,-1.73537,0
63.3959,-49.7686,-1.73755,0
63.3979,-49.7006,-1.73953,0
63.3985,-49.6327,-1.74133,0
63.3976,-49.5648,-1.74293,0
63.3952,-49.4969,-1.74434,0
63.3912,-49.4291,-1.74554,0
63.3859,-49.3614,-1.74656,0
63.3791,-49.2939,-1.74737,0
63.3708,-49.2266,-1.748,0
63.3609,-49.1594,-1.74843,0
63.3496,-49.0925,-1.74867,0
63.337,-49.0259,-1.7487,0
63.3228,-48.9596,-1.74854,0
63.3071,-48.8936,-1.74818,0
63.2901,-48.828,-1.74763,0
63.2716,-48.7628,-1.74688,0
63.2517,-48.698,-1.74594,0
63.2304,-48.6336,-1.74481,0
63.2077,-48.5698,-1.74347,0
63.1835,-48.5064,-1.74195,0
63.158,-48.4437,-1.74024,0
63.132,-48.3811,-1.73806,0
63.1055,-48.3187,-1.73541,0
63.0776,-48.2569,-1.73257,0
63.0483,-48.1956,-1.72954,0
63.0176,-48.135,-1.72634,0
62.9856,-48.0751,-1.72294,0
62.9522,-48.0159,-1.71936,0
62.9177,-47.9572,-1.71555,0
62.8834,-47.8983,-1.71098,0
62.8478,-47.8401,-1.7062,0
62.8109,-47.7825,-1.70125,0
62.7727,-47.7258,-1.69611,0
62.7331,-47.6698,-1.69079,0
62.6923,-47.6147,-1.68528,0
62.6502,-47.5604,-1.67959,0
62.6068,-47.507,-1.67373,0
62.5622,-47.4546,-1.66769,0
62.5163,-47.403,-1.66147,0
62.4693,-47.3525,-1.6551,0
62.4203,-47.3038,-1.64891,0
62.3702,-47.2562,-1.64255,0
62.319,-47.2097,-1.63605,0
62.2666,-47.1643,-1.6294,0
62.2131,-47.1201,-1.62261,0
62.1586,-47.0772,-1.61568,0
62.103,-47.0354,-1.60862,0
62.0465,-46.9949,-1.60141,0
61.9891,-46.9558,-1.59408,0
61.9305,-46.9179,-1.58662,0
61.8712,-46.8813,-1.57904,0
61.8109,-46.8462,-1.57134,0
61.7498,-46.8124,-1.56351,0
62.2869,-52.1022,-1.50466,0
62.3418,-52.0578,-1.51278,0
62.3956,-52.0122,-1.52085,0
62.4483,-51.9652,-1.52886,0
62.4981,-51.9153,-1.53762,0
62.5455,-51.8631,-1.54687,0
62.5916,-51.8099,-1.55599,0
62.6362,-51.7557,-1.56498,0
62.6796,-51.7006,-1.57383,0
62.7216,-51.6447,-1.58256,0
62.7622,-51.5879,-1.59113,0
62.8013,-51.5302,-1.59957,0
62.8392,-51.4718,-1.60785,0
62.8756,-51.4126,-1.61598,0
62.9106,-51.3528,-1.62395,0
62.9441,-51.2922,-1.63176,0
62.9762,-51.231,-1.63941,0
63.0068,-51.1693,-1.6469,0
63.036,-51.107,-1.65422,0
63.0637,-51.0441,-1.66136,0
63.0899,-50.9808,-1.66832,0
63.1146,-50.917,-1.67512,0
63.1401,-50.8537,-1.68099,0
63.1667,-50.791,-1.6858,0
63.192,-50.7278,-1.69044,0
63.2159,-50.664,-1.69489,0
63.2384,-50.5998,-1.69917,0
63.2594,-50.5351,-1.70326,0
63.2791,-50.4699,-1.70717,0
63.2973,-50.4044,-1.7109,0
63.3141,-50.3385,-1.71443,0
63.3295,-50.2722,-1.71779,0
63.3434,-50.2056,-1.72094,0
63.3559,-50.1387,-1.72391,0
63.367,-50.0716,-1.72669,0
63.3766,-50.0043,-1.72927,0
63.3843,-49.9367,-1.73179,0
63.3901,-49.8689,-1.73426,0
63.3944,-49.8011,-1.73653,0
63.3971,-49.7332,-1.73861,0
63.3984,-49.6652,-1.7405,0
63.3982,-49.5973,-1.74218,0
63.3966,-49.5294,-1.74368,0
63.3934,-49.4616,-1.74499,0
63.3887,-49.3938,-1.74609,0
63.3825,-49.3262,-1.74701,0
63.3749,-49.2588,-1.74773,0
63.3659,-49.1916,-1.74825,0
63.3552,-49.1245,-1.74858,0
63.3432,-49.0578,-1.74871,0
63.3298,-48.9913,-1.74863,0
63.3148,-48.9252,-1.74838,0
63.2984,-48.8594,-1.74792,0
63.2806,-48.7939,-1.74727,0
63.2614,-48.729,-1.74642,0
63.2408,-48.6644,-1.74538,0
63.2188,-48.6003,-1.74413,0
63.1953,-48.5367,-1.74271,0
63.1704,-48.4737,-1.74108,0
63.1443,-48.4112,-1.73926,0
63.1184,-48.3485,-1.7367,0
63.0912,-48.2864,-1.73395,0
63.0625,-48.2249,-1.73101,0
63.0325,-48.164,-1.7279,0
63.0011,-48.1037,-1.72459,0
62.9684,-48.0441,-1.7211,0
62.9344,-47.9853,-1.71743,0
62.9,-47.9264,-1.71319,0
62.8651,-47.8679,-1.70851,0
62.8287,-47.81,-1.70365,0
62.7912,-47.7529,-1.69859,0
62.7522,-47.6965,-1.69336,0
62.712,-47.641,-1.68794,0
62.6705,-47.5863,-1.68234,0
62.6277,-47.5325,-1.67656,0
62.5837,-47.4796,-1.6706,0
62.5385,-47.4276,-1.66447,0
62.492,-47.3766,-1.65817,0
62.444,-47.327,-1.65189,0
62.3944,-47.2788,-1.64561,0
