60.4296,-46.0565,-1.41301,0
60.3487,-45.9929,-1.40409,0
60.2666,-45.9303,-1.39477,0
60.185,-45.8659,-1.38436,0
60.1017,-45.8033,-1.37377,0
60.0167,-45.7427,-1.36298,0
59.9304,-45.6834,-1.35182,0
59.8425,-45.6259,-1.34043,0
60.0153,-52.7059,-1.44557,174
60.0754,-52.6523,-1.45532,174
60.1733,-52.6429,-1.45005,174
60.3368,-52.7025,-1.42106,174
60.4128,-52.6593,-1.42517,174
60.8428,-52.974,-1.3071,0
60.9088,-52.903,-1.31781,0
60.973,-52.8305,-1.32841,0
61.0355,-52.7566,-1.3389,0
61.0961,-52.6813,-1.34927,0
61.1548,-52.6047,-1.35952,0
61.2116,-52.5268,-1.36964,0
61.2665,-52.4476,-1.37961,0
61.3195,-52.3673,-1.38946,0
61.3704,-52.2858,-1.39916,0
61.4194,-52.2033,-1.4087,0
61.4662,-52.1197,-1.41809,0
61.5112,-52.0352,-1.42732,0
61.554,-51.9497,-1.43639,0
61.5948,-51.8634,-1.44528,0
61.6334,-51.7762,-1.45401,0
61.67,-51.6883,-1.46255,0
61.7073,-51.6009,-1.47028,0
61.743,-51.5129,-1.47774,0
61.7767,-51.4242,-1.48499,0
61.8085,-51.3349,-1.49202,0
61.8384,-51.245,-1.49883,0
61.8663,-51.1545,-1.50543,0
61.8923,-51.0635,-1.5118,0
61.9164,-50.972,-1.51795,0
61.9386,-50.88,-1.52386,0
61.9614,-50.7883,-1.529,0
61.9824,-50.696,-1.53392,0
62.0014,-50.6033,-1.5386,0
62.0184,-50.5102,-1.54306,0
62.0335,-50.4167,-1.54729,0
62.0466,-50.3229,-1.55128,0
62.0577,-50.2288,-1.55503,0
62.067,-50.1344,-1.55855,0
62.0741,-50.0398,-1.56183,0
62.0792,-49.945,-1.56486,0
62.0823,-49.8501,-1.56765,0
62.0836,-49.7551,-1.5702,0
62.0827,-49.6601,-1.57249,0
62.0799,-49.565,-1.57455,0
62.075,-49.4699,-1.57635,0
62.0681,-49.3749,-1.57791,0
62.0592,-49.28,-1.57921,0
62.0483,-49.1852,-1.58026,0
62.0353,-49.0906,-1.58107,0
62.0204,-48.9963,-1.58161,0
62.0035,-48.9022,-1.5819,0
61.9863,-48.8079,-1.5816,0
61.9676,-48.7138,-1.58096,0
61.9469,-48.62,-1.58006,0
61.9242,-48.5264,-1.57889,0
61.8995,-48.4333,-1.57746,0
61.8762,-48.3392,-1.57508,0
61.8521,-48.245,-1.57225,0
61.8258,-48.1511,-1.56914,0
61.7974,-48.0575,-1.56576,0
60.0049,-52.7017,-1.41985,174
60.0564,-52.6379,-1.43314,174
60.1299,-52.6011,-1.43685,174
60.3277,-52.7013,-1.39307,174
60.3981,-52.6524,-1.3991,174
60.7562,-52.8957,-1.30227,0
60.8207,-52.8268,-1.31271,0
60.8835,-52.7566,-1.32304,0
60.9445,-52.6849,-1.33326,0
61.0037,-52.6119,-1.34337,0
61.0612,-52.5376,-1.35336,0
61.1169,-52.462,-1.36322,0
61.1705,-52.3852,-1.37296,0
61.2223,-52.3072,-1.38256,0
61.2723,-52.2281,-1.39201,0
61.3202,-52.148,-1.40133,0
61.3662,-52.0669,-1.41049,0
61.4103,-51.9848,-1.4195,0
61.4523,-51.9018,-1.42835,0
61.4947,-51.8191,-1.43647,0
61.5352,-51.7356,-1.44437,0
61.574,-51.6514,-1.45208,0
61.6109,-51.5664,-1.45959,0
61.6459,-51.4806,-1.4669,0
61.6791,-51.3942,-1.47399,0
61.7104,-51.3072,-1.48088,0
61.7398,-51.2196,-1.48756,0
61.7673,-51.1313,-1.49402,0
61.793,-51.0426,-1.50027,0
61.8167,-50.9534,-1.5063,0
61.839,-50.8638,-1.51199,0
61.8616,-50.7743,-1.51703,0
61.8821,-50.6844,-1.52185,0
61.9009,-50.594,-1.52644,0
61.9177,-50.5031,-1.53082,0
61.9326,-50.4119,-1.53495,0
61.9455,-50.3204,-1.53887,0
61.9566,-50.2286,-1.54256,0
61.9656,-50.1365,-1.546,0
61.9728,-50.0443,-1.54923,0
61.978,-49.9518,-1.5522,0
61.9812,-49.8592,-1.55495,0
61.9826,-49.7665,-1.55745,0
61.9819,-49.6737,-1.55971,0
61.9792,-49.581,-1.56174,0
61.9746,-49.4882,-1.56352,0
61.968,-49.3955,-1.56505,0
61.9595,-49.3029,-1.56634,0
61.949,-49.2104,-1.56738,0
61.9366,-49.1181,-1.56818,0
61.9221,-49.026,-1.56873,0
61.9066,-48.934,-1.56887,0
61.8902,-48.842,-1.56851,0
61.8721,-48.7501,-1.5679,0
61.852,-48.6586,-1.56702,0
61.8298,-48.5673,-1.56589,0
61.8059,-48.4764,-1.5645,0
61.7811,-48.3854,-1.5626,0
61.7574,-48.2936,-1.55982,0
61.7318,-48.2021,-1.55679,0
61.7041,-48.1109,-1.55349,0
61.6744,-48.02,-1.54993,0
61.6427,-47.9296,-1.5461,0
61.609,-47.8397,-1.54201,0
61.5732,-47.7502,-1.53765,0
61.5354,-47.6613,-1.53304,0
61.4955,-47.573,-1.52815,0
61.4537,-47.4854,-1.523,0
61.4098,-47.3984,-1.51759,0
61.364,-47.3122,-1.51191,0
61.3161,-47.2268,-1.50598,0
61.2662,-47.1423,-1.4998,0
61.2109,-47.0613,-1.49419,0
61.1537,-46.9815,-1.48832,0
61.0948,-46.9028,-1.48223,0
61.0338,-46.8254,-1.4759,0
60.9712,-46.7492,-1.46933,0
60.9066,-46.6744,-1.46252,0
60.8403,-46.6008,-1.45548,0
60.7722,-46.5287,-1.44821,0
60.7024,-46.4581,-1.44071,0
60.6309,-46.3889,-1.43299,0
60.5577,-46.3213,-1.42505,0
60.4827,-46.2552,-1.41688,0
60.4062,-46.1908,-1.40851,0
60.3281,-46.128,-1.39992,0
60.2485,-46.067,-1.39112,0
60.1674,-46.0078,-1.38211,0
60.0848,-45.9503,-1.37292,0
60.0025,-45.8913,-1.36268,0
59.9195,-45.8328,-1.35189,0
59.8348,-45.7762,-1.34091,0
59.9801,-52.7283,-1.41437,174
60.0351,-52.6685,-1.42655,174
60.0846,-52.603,-1.44017,174
60.3067,-52.7348,-1.3862,174
60.3583,-52.6654,-1.39954,174
60.7266,-52.926,-1.29757,0
60.792,-52.8579,-1.30805,0
60.8556,-52.7882,-1.31843,0
60.9174,-52.7172,-1.32869,0
60.9774,-52.6448,-1.33886,0
61.0357,-52.571,-1.3489,0
61.0921,-52.496,-1.35883,0
61.1467,-52.4197,-1.36862,0
61.1993,-52.3423,-1.37827,0
61.2502,-52.2637,-1.3878,0
61.299,-52.184,-1.39717,0
61.3459,-52.1033,-1.40641,0
61.3908,-52.0217,-1.41549,0
61.4338,-51.9391,-1.42441,0
61.4759,-51.8562,-1.43286,0
61.5173,-51.7731,-1.44086,0
61.5569,-51.6892,-1.44866,0
61.5945,-51.6046,-1.45625,0
61.6305,-51.5192,-1.46364,0
61.6645,-51.433,-1.47084,0
61.6966,-51.3463,-1.47782,0
61.7269,-51.2589,-1.4846,0
61.7552,-51.1709,-1.49115,0
61.7817,-51.0824,-1.4975,0
61.8062,-50.9934,-1.50362,0
61.829,-50.9039,-1.50953,0
61.8516,-50.8145,-1.5148,0
61.8731,-50.7248,-1.51971,0
61.8927,-50.6345,-1.52441,0
61.9104,-50.5439,-1.52889,0
61.9262,-50.4528,-1.53314,0
61.9399,-50.3615,-1.53715,0
61.9519,-50.2698,-1.54094,0
61.9618,-50.1778,-1.54449,0
61.9699,-50.0856,-1.54782,0
61.9759,-49.9932,-1.55091,0
61.9801,-49.9007,-1.55375,0
61.9823,-49.808,-1.55636,0
61.9824,-49.7153,-1.55873,0
61.9807,-49.6225,-1.56086,0
61.977,-49.5297,-1.56276,0
61.9712,-49.437,-1.56439,0
61.9636,-49.3444,-1.56579,0
61.954,-49.2518,-1.56695,0
61.9423,-49.1594,-1.56785,0
61.9288,-49.0673,-1.56851,0
61.9133,-48.9753,-1.56892,0
61.8978,-48.8832,-1.5687,0
61.8805,-48.7912,-1.5682,0
61.8612,-48.6995,-1.56745,0
61.84,-48.6081,-1.56643,0
61.8168,-48.5171,-1.56515,0
61.7917,-48.4264,-1.56362,0
61.7683,-48.3347,-1.5611,0
61.7435,-48.2431,-1.55818,0
61.7168,-48.1517,-1.555,0
61.688,-48.0607,-1.55156,0
61.6572,-47.9701,-1.54785,0
61.6244,-47.8799,-1.54388,0
61.5895,-47.7902,-1.53964,0
61.5526,-47.7011,-1.53514,0
61.5137,-47.6125,-1.53037,0
61.4727,-47.5246,-1.52535,0
61.4298,-47.4373,-1.52005,0
61.3848,-47.3507,-1.51449,0
61.3378,-47.2649,-1.50868,0
61.2888,-47.18,-1.50259,0
61.2359,-47.0975,-1.49673,0
61.1796,-47.0171,-1.49098,0
61.1215,-46.9379,-1.48499,0
61.0613,-46.86,-1.47877,0
60.9995,-46.7832,-1.4723,0
60.9358,-46.7077,-1.4656,0
60.8702,-46.6336,-1.45866,0
60.803,-46.5609,-1.4515,0
60.7339,-46.4895,-1.4441,0
60.6631,-46.4197,-1.43648,0
60.5906,-46.3514,-1.42863,0
60.5165,-46.2846,-1.42057,0
60.4407,-46.2194,-1.41229,0
60.3634,-46.1559,-1.40379,0
60.2844,-46.0941,-1.39509,0
60.204,-46.0341,-1.38617,0
60.122,-45.9758,-1.37706,0
60.0394,-45.9178,-1.36736,0
59.9569,-45.8588,-1.35675,0
59.8729,-45.8013,-1.34585,0
59.7874,-45.7458,-1.33477,0
60.0113,-52.6963,-1.42082,174
60.0616,-52.6313,-1.4345,174
60.1488,-52.6102,-1.43282,174
60.3326,-52.6935,-1.39463,174
60.4183,-52.661,-1.39497,174
60.763,-52.8886,-1.30337,0
60.8273,-52.8196,-1.31379,0
60.8899,-52.7492,-1.32411,0
60.9508,-52.6774,-1.33432,0
61.0098,-52.6042,-1.34441,0
61.0671,-52.5298,-1.35439,0
61.1225,-52.454,-1.36424,0
61.176,-52.3771,-1.37396,0
61.2276,-52.299,-1.38355,0
61.2773,-52.2199,-1.39299,0
61.3251,-52.1396,-1.40228,0
61.3709,-52.0584,-1.41144,0
61.4148,-51.9762,-1.42043,0
61.4567,-51.8932,-1.42922,0
61.499,-51.8105,-1.4373,0
61.5394,-51.7269,-1.44519,0
61.5779,-51.6426,-1.45287,0
61.6146,-51.5575,-1.46036,0
61.6495,-51.4717,-1.46765,0
61.6824,-51.3852,-1.47472,0
61.7135,-51.2981,-1.48159,0
61.7428,-51.2104,-1.48824,0
61.7701,-51.1221,-1.49468,0
61.7955,-51.0333,-1.50091,0
61.819,-50.9441,-1.50691,0
61.8415,-50.8546,-1.51252,0
61.8638,-50.765,-1.51754,0
61.8841,-50.675,-1.52234,0
61.9027,-50.5845,-1.52691,0
61.9193,-50.4937,-1.53126,0
61.934,-50.4024,-1.53538,0
61.9467,-50.3109,-1.53926,0
61.9576,-50.2191,-1.54293,0
61.9665,-50.127,-1.54635,0
61.9734,-50.0347,-1.54955,0
61.9785,-49.9422,-1.5525,0
61.9815,-49.8496,-1.55522,0
61.9826,-49.7569,-1.5577,0
61.9817,-49.6641,-1.55993,0
61.9788,-49.5713,-1.56194,0
61.9741,-49.4786,-1.56369,0
61.9673,-49.3859,-1.5652,0
61.9585,-49.2933,-1.56646,0
61.9478,-49.2008,-1.56748,0
61.9352,-49.1085,-1.56825,0
61.9205,-49.0165,-1.56877,0
61.9049,-48.9245,-1.56884,0
61.8884,-48.8324,-1.56845,0
61.8701,-48.7406,-1.56781,0
61.8497,-48.6491,-1.56692,0
61.8275,-48.5578,-1.56576,0
61.8032,-48.467,-1.56434,0
61.7787,-48.3759,-1.56232,0
61.7548,-48.2841,-1.55953,0
61.729,-48.1926,-1.55646,0
61.7012,-48.1014,-1.55313,0
60.003,-52.6947,-1.39423,174
60.0438,-52.6183,-1.41208,174
60.1101,-52.5739,-1.41836,174
60.3301,-52.6996,-1.36409,174
60.4122,-52.6632,-1.3656,174
60.6805,-52.8142,-1.29876,0
60.7434,-52.7473,-1.30891,0
60.8045,-52.679,-1.31897,0
60.8641,-52.6093,-1.32893,0
60.9219,-52.5383,-1.33878,0
60.9779,-52.4661,-1.3485,0
61.0321,-52.3926,-1.35812,0
61.0846,-52.3179,-1.3676,0
61.1351,-52.2421,-1.37695,0
61.1841,-52.1653,-1.38612,0
61.2324,-52.0883,-1.39477,0
61.2791,-52.0104,-1.40323,0
61.3241,-51.9316,-1.41152,0
61.3673,-51.8518,-1.41962,0
61.4087,-51.7712,-1.42753,0
61.4483,-51.6898,-1.43526,0
61.4862,-51.6076,-1.44279,0
61.5223,-51.5247,-1.45012,0
61.5566,-51.441,-1.45725,0
61.589,-51.3567,-1.46419,0
61.6196,-51.2718,-1.47091,0
61.6484,-51.1862,-1.47745,0
61.6753,-51.1002,-1.48376,0
61.7004,-51.0136,-1.48986,0
61.7236,-50.9265,-1.49575,0
61.7462,-50.8393,-1.50115,0
61.7681,-50.7519,-1.50608,0
61.7883,-50.6641,-1.51078,0
61.8065,-50.5758,-1.51526,0
61.8229,-50.4871,-1.51953,0
61.8374,-50.3981,-1.52357,0
61.85,-50.3087,-1.52738,0
61.8608,-50.2191,-1.53099,0
61.8696,-50.1292,-1.53435,0
61.8766,-50.0391,-1.53749,0
61.8816,-49.9488,-1.54039,0
61.8848,-49.8584,-1.54307,0
61.8859,-49.7679,-1.5455,0
61.8852,-49.6774,-1.54771,0
61.8827,-49.5868,-1.54967,0
61.878,-49.4962,-1.55141,0
61.8716,-49.4058,-1.5529,0
61.8632,-49.3154,-1.55415,0
61.8529,-49.2251,-1.55516,0
61.8406,-49.135,-1.55592,0
61.8267,-49.0451,-1.55641,0
61.8126,-48.955,-1.55629,0
61.7966,-48.8652,-1.55592,0
61.7787,-48.7755,-1.55531,0
61.7589,-48.6862,-1.55445,0
61.7373,-48.5971,-1.55332,0
61.7137,-48.5084,-1.55195,0
61.6882,-48.4201,-1.55031,0
61.6645,-48.3307,-1.54766,0
61.6393,-48.2415,-1.54467,0
61.6119,-48.1526,-1.54141,0
61.5828,-48.0641,-1.53791,0
61.5516,-47.976,-1.53414,0
61.5185,-47.8884,-1.53012,0
61.4834,-47.8013,-1.52584,0
61.4462,-47.7147,-1.52131,0
61.4071,-47.6287,-1.51651,0
61.3661,-47.5434,-1.51146,0
61.323,-47.4588,-1.50615,0
61.2781,-47.3749,-1.50059,0
61.2312,-47.2917,-1.49477,0
61.1819,-47.2098,-1.48882,0
61.1279,-47.1311,-1.48332,0
61.072,-47.0534,-1.47759,0
61.0143,-46.9768,-1.47164,0
60.9548,-46.9015,-1.46544,0
60.8936,-46.8274,-1.45902,0
60.8305,-46.7546,-1.45237,0
60.7658,-46.6831,-1.44549,0
60.6993,-46.613,-1.43838,0
60.6312,-46.5443,-1.43106,0
60.5612,-46.477,-1.42352,0
60.4898,-46.4113,-1.41576,0
60.4167,-46.3471,-1.40779,0
60.3421,-46.2845,-1.39962,0
60.2659,-46.2235,-1.39123,0
60.1882,-46.1643,-1.38264,0
60.1091,-46.1067,-1.37386,0
60.0284,-46.0509,-1.36488,0
59.9451,-45.9995,-1.35638,0
59.8637,-45.9436,-1.34606,0
59.7812,-45.8889,-1.33537,0
59.9771,-52.7198,-1.38923,174
60.0239,-52.6502,-1.40494,174
60.0711,-52.5828,-1.41943,174
60.2068,-52.6171,-1.39781,174
60.362,-52.6652,-1.3701,174
60.52,-52.7072,-1.34313,174
60.7154,-52.7775,-1.30437,0
60.7773,-52.7098,-1.31447,0
60.8377,-52.6407,-1.32448,0
60.8962,-52.5703,-1.33438,0
60.953,-52.4986,-1.34416,0
61.008,-52.4256,-1.35383,0
61.0612,-52.3515,-1.36337,0
61.1127,-52.2762,-1.37278,0
61.1623,-52.1997,-1.38206,0
61.2109,-52.1229,-1.39091,0
61.2584,-52.0454,-1.39946,0
61.3041,-51.967,-1.40782,0
61.3481,-51.8877,-1.41601,0
61.3903,-51.8074,-1.42401,0
61.4308,-51.7264,-1.43181,0
61.4695,-51.6445,-1.43944,0
61.5063,-51.5619,-1.44686,0
61.5414,-51.4786,-1.45408,0
61.5747,-51.3946,-1.46111,0
61.6061,-51.3099,-1.46793,0
61.6357,-51.2246,-1.47455,0
61.6634,-51.1388,-1.48095,0
61.6894,-51.0524,-1.48716,0
61.7134,-50.9656,-1.49314,0
61.7357,-50.8783,-1.49888,0
61.7584,-50.7911,-1.50389,0
61.7795,-50.7035,-1.5087,0
61.7985,-50.6154,-1.51328,0
61.8158,-50.5269,-1.51764,0
61.8312,-50.438,-1.52179,0
61.8446,-50.3488,-1.52571,0
61.8562,-50.2593,-1.52941,0
61.8659,-50.1695,-1.53287,0
61.8737,-50.0795,-1.53611,0
61.8795,-49.9893,-1.53912,0
61.8836,-49.8989,-1.5419,0
61.8857,-49.8085,-1.54444,0
61.8858,-49.7179,-1.54675,0
61.884,-49.6274,-1.54883,0
61.8803,-49.5368,-1.55066,0
61.8748,-49.4463,-1.55226,0
61.8672,-49.3559,-1.55362,0
61.8577,-49.2655,-1.55473,0
61.8464,-49.1754,-1.55561,0
61.833,-49.0854,-1.55624,0
61.8191,-48.9954,-1.55638,0
61.804,-48.9054,-1.55612,0
61.787,-48.8157,-1.55562,0
61.768,-48.7262,-1.55487,0
61.7473,-48.637,-1.55385,0
61.7245,-48.5481,-1.55259,0
61.6998,-48.4596,-1.55107,0
61.6752,-48.3708,-1.54892,0
61.6508,-48.2814,-1.54604,0
61.6245,-48.1924,-1.54291,0
61.5962,-48.1037,-1.53951,0
61.5659,-48.0154,-1.53586,0
61.5336,-47.9276,-1.53196,0
61.4994,-47.8402,-1.52779,0
61.463,-47.7534,-1.52337,0
61.4249,-47.6672,-1.5187,0
61.3848,-47.5815,-1.51376,0
61.3426,-47.4966,-1.50857,0
61.2985,-47.4124,-1.50311,0
61.2525,-47.3289,-1.4974,0
61.2045,-47.2462,-1.49144,0
61.1523,-47.1662,-1.48581,0
61.0973,-47.088,-1.48019,0
61.0404,-47.011,-1.47433,0
60.9817,-46.9351,-1.46824,0
60.9212,-46.8605,-1.46192,0
60.859,-46.787,-1.45537,0
60.795,-46.715,-1.4486,0
60.7293,-46.6442,-1.44159,0
60.6619,-46.5749,-1.43437,0
60.5927,-46.507,-1.42693,0
60.522,-46.4405,-1.41926,0
60.4497,-46.3757,-1.41139,0
60.3757,-46.3123,-1.40331,0
60.3002,-46.2506,-1.39501,0
60.2233,-46.1906,-1.38652,0
60.1447,-46.1323,-1.37782,0
60.0648,-46.0757,-1.36893,0
59.9829,-46.0217,-1.36004,0
59.9003,-45.9685,-1.35072,0
59.8184,-45.9132,-1.34019,0
59.7351,-45.8595,-1.3294,0
60.0103,-52.6905,-1.39485,174
60.0486,-52.6112,-1.4136,174
60.1254,-52.5789,-1.41561,174
60.335,-52.6919,-1.36567,174
60.4317,-52.6709,-1.36163,174
60.687,-52.8073,-1.29981,0
60.7498,-52.7403,-1.30996,0
60.8108,-52.6718,-1.32002,0
60.8702,-52.602,-1.32996,0
60.9277,-52.5309,-1.33979,0
60.9836,-52.4585,-1.34951,0
61.0377,-52.3849,-1.35911,0
61.0898,-52.3101,-1.36858,0
61.1403,-52.2341,-1.37792,0
61.1891,-52.1573,-1.38702,0
61.2373,-52.0803,-1.39565,0
61.2838,-52.0023,-1.40409,0
61.3286,-51.9233,-1.41237,0
61.3716,-51.8435,-1.42045,0
61.4129,-51.7628,-1.42834,0
61.4523,-51.6813,-1.43605,0
61.4901,-51.599,-1.44355,0
61.5259,-51.516,-1.45087,0
61.56,-51.4323,-1.45798,0
61.5923,-51.3479,-1.4649,0
61.6227,-51.2629,-1.47161,0
61.6512,-51.1773,-1.4781,0
61.678,-51.0912,-1.4844,0
61.7029,-51.0045,-1.49049,0
61.7259,-50.9174,-1.49635,0
61.7485,-50.8302,-1.50168,0
61.7703,-50.7428,-1.50658,0
61.7902,-50.6549,-1.51126,0
61.8083,-50.5666,-1.51572,0
61.8245,-50.4779,-1.51996,0
61.8387,-50.3888,-1.52398,0
61.8512,-50.2994,-1.52778,0
61.8618,-50.2097,-1.53134,0
61.8705,-50.1198,-1.53469,0
61.8771,-50.0297,-1.53779,0
61.882,-49.9394,-1.54068,0
61.8849,-49.849,-1.54333,0
61.8859,-49.7585,-1.54574,0
61.8851,-49.668,-1.54792,0
61.8822,-49.5774,-1.54987,0
61.8774,-49.4868,-1.55157,0
61.8708,-49.3964,-1.55303,0
61.8622,-49.306,-1.55426,0
61.8517,-49.2157,-1.55525,0
61.8393,-49.1257,-1.55599,0
61.8253,-49.0358,-1.55641,0
61.811,-48.9457,-1.55627,0
61.7949,-48.8559,-1.55587,0
61.7768,-48.7662,-1.55523,0
61.7568,-48.6769,-1.55434,0
61.7348,-48.5879,-1.55319,0
61.7111,-48.4992,-1.55179,0
61.6855,-48.4109,-1.55012,0
61.662,-48.3214,-1.54736,0
61.6365,-48.2323,-1.54434,0
61.6091,-48.1434,-1.54107,0
60.0012,-52.6878,-1.36861,174
60.0339,-52.6019,-1.39011,174
60.0995,-52.5573,-1.39646,174
60.3335,-52.699,-1.33463,174
60.4316,-52.6796,-1.32969,174
60.6087,-52.737,-1.29527,0
60.6702,-52.6721,-1.30512,0
60.7302,-52.6059,-1.31482,0
60.7887,-52.5384,-1.32438,0
60.8456,-52.4698,-1.3338,0
60.9011,-52.4,-1.34305,0
60.9549,-52.3291,-1.35216,0
61.0072,-52.2571,-1.36111,0
61.0577,-52.184,-1.36989,0
61.1066,-52.1099,-1.3785,0
61.154,-52.0348,-1.38695,0
61.1996,-51.9588,-1.39523,0
61.2436,-51.8819,-1.40332,0
61.2858,-51.804,-1.41124,0
61.3264,-51.7254,-1.41898,0
61.3652,-51.6459,-1.42652,0
61.4022,-51.5657,-1.43388,0
61.4375,-51.4847,-1.44105,0
61.471,-51.4031,-1.44802,0
61.5027,-51.3208,-1.4548,0
61.5327,-51.2379,-1.46138,0
61.5609,-51.1544,-1.46775,0
61.5873,-51.0703,-1.47393,0
61.6117,-50.9858,-1.47989,0
61.6345,-50.9007,-1.48565,0
61.6572,-50.8158,-1.49078,0
61.6786,-50.7304,-1.49559,0
61.6983,-50.6446,-1.50018,0
61.7161,-50.5584,-1.50456,0
61.7321,-50.4717,-1.50872,0
61.7463,-50.3848,-1.51267,0
61.7585,-50.2975,-1.5164,0
61.7691,-50.2099,-1.51989,0
61.7777,-50.1221,-1.52319,0
61.7844,-50.0341,-1.52624,0
61.7892,-49.946,-1.52907,0
61.7923,-49.8577,-1.53168,0
61.7934,-49.7693,-1.53406,0
61.7927,-49.6808,-1.5362,0
61.7901,-49.5924,-1.53812,0
61.7856,-49.504,-1.5398,0
61.7792,-49.4156,-1.54126,0
61.771,-49.3273,-1.54247,0
61.7608,-49.2392,-1.54345,0
61.7488,-49.1512,-1.54419,0
61.7366,-49.0631,-1.54438,0
61.7227,-48.9752,-1.54425,0
61.7069,-48.8874,-1.54388,0
61.6893,-48.7999,-1.54326,0
61.6699,-48.7126,-1.54239,0
61.6486,-48.6257,-1.54128,0
61.6254,-48.539,-1.53992,0
61.6005,-48.4528,-1.53832,0
61.5755,-48.3662,-1.53601,0
61.5507,-48.2792,-1.53306,0
61.5239,-48.1925,-1.52987,0
61.4952,-48.1063,-1.52641,0
61.4645,-48.0204,-1.52271,0
61.432,-47.935,-1.51876,0
61.3974,-47.8501,-1.51455,0
61.361,-47.7657,-1.51009,0
61.3226,-47.682,-1.50538,0
61.2823,-47.5989,-1.50043,0
61.2402,-47.5164,-1.49522,0
61.1961,-47.4347,-1.48976,0
61.1501,-47.3538,-1.48405,0
61.1013,-47.2744,-1.47833,0
61.0485,-47.1977,-1.47295,0
60.9939,-47.122,-1.46735,0
60.9376,-47.0475,-1.46152,0
60.8795,-46.9742,-1.45546,0
60.8195,-46.902,-1.44917,0
60.758,-46.8312,-1.44267,0
60.6946,-46.7616,-1.43594,0
60.6297,-46.6933,-1.42901,0
60.5631,-46.6265,-1.42185,0
60.4949,-46.5611,-1.41448,0
60.4252,-46.4972,-1.4069,0
60.3537,-46.4347,-1.39912,0
60.2809,-46.3739,-1.39113,0
60.2065,-46.3146,-1.38294,0
60.1307,-46.257,-1.37456,0
60.0534,-46.201,-1.36598,0
59.9741,-46.148,-1.35753,0
59.892,-46.0993,-1.34959,0
59.8112,-46.0479,-1.34025,0
59.7306,-45.9954,-1.32997,0
59.9754,-52.7131,-1.36351,174
60.0192,-52.64,-1.38067,174
60.0624,-52.5683,-1.39692,174
60.1816,-52.5844,-1.38104,174
60.3685,-52.668,-1.33944,174
60.5422,-52.7259,-1.3055,174
60.6427,-52.7013,-1.30072,0
60.7034,-52.6357,-1.3105,0
60.7627,-52.5688,-1.32012,0
60.8203,-52.5007,-1.3296,0
60.8764,-52.4314,-1.33893,0
60.931,-52.361,-1.3481,0
60.9839,-52.2895,-1.35712,0
61.0352,-52.2169,-1.36598,0
61.0849,-52.1432,-1.37466,0
61.133,-52.0686,-1.3832,0
61.1794,-51.993,-1.39154,0
61.2241,-51.9165,-1.39971,0
61.2671,-51.839,-1.40771,0
61.3084,-51.7607,-1.41552,0
61.348,-51.6816,-1.42316,0
61.3858,-51.6017,-1.4306,0
61.4219,-51.5211,-1.43786,0
61.4562,-51.4398,-1.44493,0
61.4888,-51.3577,-1.45179,0
61.5195,-51.2751,-1.45846,0
61.5485,-51.1918,-1.46492,0
61.5756,-51.108,-1.47119,0
61.6009,-51.0237,-1.47725,0
61.6245,-50.9389,-1.4831,0
61.647,-50.8538,-1.48856,0
61.6693,-50.7687,-1.49346,0
61.6897,-50.6831,-1.49815,0
61.7084,-50.597,-1.50262,0
61.7252,-50.5106,-1.50688,0
61.7402,-50.4238,-1.51092,0
61.7533,-50.3366,-1.51475,0
61.7646,-50.2492,-1.51836,0
61.774,-50.1615,-1.52174,0
61.7816,-50.0736,-1.5249,0
61.7873,-49.9855,-1.52783,0
61.7912,-49.8973,-1.53054,0
61.7931,-49.8089,-1.53303,0
61.7932,-49.7205,-1.53527,0
61.7915,-49.632,-1.53729,0
61.7878,-49.5436,-1.53908,0
61.7823,-49.4552,-1.54064,0
61.7749,-49.3669,-1.54195,0
61.7656,-49.2787,-1.54303,0
61.7545,-49.1906,-1.54388,0
61.7421,-49.1026,-1.54436,0
61.7291,-49.0146,-1.54433,0
61.7142,-48.9267,-1.54407,0
61.6974,-48.8391,-1.54357,0
61.6788,-48.7517,-1.54281,0
61.6584,-48.6646,-1.5418,0
61.636,-48.5778,-1.54056,0
61.6118,-48.4914,-1.53906,0
61.5861,-48.4053,-1.53725,0
61.562,-48.3182,-1.53442,0
61.5361,-48.2313,-1.53133,0
61.5083,-48.1449,-1.52799,0
61.4784,-48.0588,-1.5244,0
61.4468,-47.9732,-1.52056,0
61.413,-47.8881,-1.51646,0
61.3776,-47.8034,-1.51212,0
61.34,-47.7194,-1.50753,0
61.3007,-47.636,-1.50268,0
61.2593,-47.5533,-1.49758,0
61.2161,-47.4712,-1.49223,0
61.1709,-47.39,-1.48664,0
61.1238,-47.3095,-1.48079,0
61.0723,-47.2319,-1.47539,0
61.0186,-47.1558,-1.46988,0
60.963,-47.0808,-1.46415,0
60.9057,-47.0069,-1.4582,0
60.8466,-46.9342,-1.45202,0
60.7857,-46.8628,-1.44561,0
60.7232,-46.7926,-1.43898,0
60.6591,-46.7238,-1.43214,0
60.5931,-46.6563,-1.42508,0
60.5257,-46.5902,-1.41781,0
60.4566,-46.5256,-1.41032,0
60.3859,-46.4625,-1.40263,0
60.3137,-46.4009,-1.39474,0
60.2401,-46.341,-1.38664,0
60.1649,-46.2826,-1.37834,0
60.0882,-46.2259,-1.36985,0
60.0102,-46.1709,-1.36117,0
59.929,-46.1208,-1.35317,0
59.847,-46.072,-1.3448,0
59.767,-46.0187,-1.3346,0
59.6855,-45.9673,-1.32423,0
60.0123,-52.6885,-1.36746,174
60.0379,-52.5939,-1.392,174
60.1146,-52.5623,-1.39365,174
60.3383,-52.6913,-1.33624,174
60.4519,-52.6881,-1.32527,174
60.6151,-52.7303,-1.2963,0
60.6765,-52.6652,-1.30614,0
60.7363,-52.5989,-1.31583,0
60.7947,-52.5314,-1.32537,0
60.8515,-52.4626,-1.33476,0
60.9067,-52.3927,-1.34401,0
60.9604,-52.3217,-1.3531,0
61.0124,-52.2495,-1.36202,0
61.0629,-52.1764,-1.37079,0
61.1116,-52.1022,-1.37939,0
61.1587,-52.027,-1.38782,0
61.2042,-51.9509,-1.39608,0
61.248,-51.8738,-1.40415,0
61.2901,-51.7959,-1.41205,0
61.3305,-51.7172,-1.41976,0
61.3691,-51.6376,-1.4273,0
61.4059,-51.5573,-1.43464,0
61.4411,-51.4763,-1.44178,0
61.4744,-51.3946,-1.44874,0
61.5059,-51.3122,-1.45549,0
61.5358,-51.2292,-1.46205,0
61.5637,-51.1457,-1.46841,0
61.5898,-51.0616,-1.47456,0
61.6141,-50.977,-1.4805,0
61.6367,-50.8919,-1.48624,0
61.6595,-50.8069,-1.4913,0
61.6807,-50.7215,-1.49608,0
61.7002,-50.6356,-1.50065,0
61.7178,-50.5494,-1.505,0
61.7337,-50.4627,-1.50914,0
61.7476,-50.3757,-1.51307,0
61.7598,-50.2884,-1.51677,0
61.77,-50.2008,-1.52025,0
61.7784,-50.113,-1.52351,0
61.7849,-50.025,-1.52654,0
61.7897,-49.9368,-1.52936,0
61.7925,-49.8485,-1.53194,0
61.7934,-49.7601,-1.53429,0
61.7925,-49.6717,-1.53641,0
61.7897,-49.5832,-1.53831,0
61.785,-49.4948,-1.53996,0
61.7784,-49.4064,-1.54139,0
61.77,-49.3181,-1.54258,0
61.7597,-49.23,-1.54354,0
61.7475,-49.1421,-1.54426,0
61.7352,-49.054,-1.54438,0
61.7211,-48.966,-1.54423,0
61.7052,-48.8783,-1.54383,0
61.6873,-48.7908,-1.54319,0
61.6677,-48.7036,-1.54229,0
61.6462,-48.6166,-1.54115,0
61.6229,-48.5301,-1.53977,0
61.5977,-48.4439,-1.53814,0
61.573,-48.3572,-1.53572,0
61.548,-48.2702,-1.53275,0
61.5209,-48.1836,-1.52952,0
60.0028,-52.6854,-1.34136,174
60.0288,-52.5914,-1.36619,174
60.0994,-52.553,-1.37025,174
60.2396,-52.5907,-1.34523,174
60.484,-52.7308,-1.28012,0
60.5455,-52.6688,-1.28987,0
60.6057,-52.6055,-1.29948,0
60.6644,-52.5409,-1.30898,0
60.7216,-52.4751,-1.31832,0
60.7773,-52.4081,-1.32751,0
60.8315,-52.34,-1.33656,0
60.8841,-52.2708,-1.34546,0
60.9352,-52.2005,-1.3542,0
60.9847,-52.1292,-1.36279,0
61.0326,-52.0569,-1.37121,0
61.0788,-51.9836,-1.37947,0
61.1235,-51.9094,-1.38756,0
61.1665,-51.8343,-1.39547,0
61.2079,-51.7583,-1.40321,0
61.2475,-51.6815,-1.41077,0
61.2855,-51.6039,-1.41815,0
61.3217,-51.5255,-1.42535,0
61.3562,-51.4465,-1.43236,0
61.3891,-51.3667,-1.43918,0
61.4201,-51.2863,-1.44581,0
61.4495,-51.2054,-1.45223,0
61.477,-51.1238,-1.45847,0
61.5028,-51.0417,-1.46451,0
61.5268,-50.9591,-1.47035,0
61.5491,-50.8761,-1.47594,0
61.5719,-50.7932,-1.48084,0
61.5928,-50.7098,-1.48552,0
61.612,-50.6259,-1.49002,0
61.6294,-50.5417,-1.49429,0
61.645,-50.457,-1.49836,0
61.6588,-50.372,-1.50221,0
61.6709,-50.2867,-1.50585,0
61.681,-50.2012,-1.50927,0
61.6894,-50.1154,-1.51247,0
61.6959,-50.0294,-1.51546,0
61.7007,-49.9432,-1.51823,0
61.7037,-49.857,-1.52077,0
61.7047,-49.7706,-1.52309,0
61.704,-49.6842,-1.52518,0
61.7014,-49.5978,-1.52704,0
61.697,-49.5113,-1.52869,0
61.6907,-49.425,-1.53009,0
61.6826,-49.3388,-1.53128,0
61.6726,-49.2527,-1.53223,0
61.6618,-49.1665,-1.53273,0
61.65,-49.0804,-1.53283,0
61.6363,-48.9945,-1.53269,0
61.6209,-48.9087,-1.53232,0
61.6036,-48.8232,-1.5317,0
61.5845,-48.738,-1.53084,0
61.5636,-48.653,-1.52974,0
61.5408,-48.5684,-1.5284,0
61.5162,-48.4842,-1.52681,0
61.4904,-48.4002,-1.52486,0
61.4659,-48.3153,-1.52195,0
61.4395,-48.2308,-1.51881,0
61.4112,-48.1466,-1.5154,0
61.3811,-48.0629,-1.51176,0
61.3491,-47.9796,-1.50787,0
61.3152,-47.8968,-1.50374,0
61.2794,-47.8146,-1.49936,0
61.2417,-47.7329,-1.49473,0
61.2022,-47.6519,-1.48987,0
61.1608,-47.5716,-1.48475,0
61.1176,-47.492,-1.47941,0
61.0725,-47.4132,-1.47381,0
61.0244,-47.3361,-1.46829,0
60.9727,-47.2613,-1.46303,0
60.9193,-47.1876,-1.45755,0
60.8641,-47.115,-1.45184,0
60.8073,-47.0436,-1.44591,0
60.7487,-46.9733,-1.43977,0
60.6885,-46.9043,-1.4334,0
60.6267,-46.8366,-1.42683,0
60.5632,-46.7701,-1.42004,0
60.4981,-46.7051,-1.41304,0
60.4315,-46.6414,-1.40584,0
60.3634,-46.5792,-1.39844,0
60.2937,-46.5185,-1.39083,0
60.2225,-46.4592,-1.38302,0
60.1498,-46.4016,-1.37503,0
60.0758,-46.3455,-1.36684,0
60.0004,-46.2911,-1.35847,0
59.9216,-46.2418,-1.35086,0
59.8416,-46.1944,-1.34311,0
59.7614,-46.1471,-1.33472,0
59.6827,-46.0963,-1.3247,0
59.9738,-52.7063,-1.33777,174
60.0152,-52.6306,-1.35617,174
60.0573,-52.5579,-1.37302,174
60.1719,-52.5693,-1.35827,174
60.3944,-52.6917,-1.30067,174
60.5181,-52.6967,-1.28551,0
60.579,-52.634,-1.29519,0
60.6383,-52.57,-1.30474,0
60.6962,-52.5047,-1.31415,0
60.7525,-52.4383,-1.32341,0
60.8074,-52.3707,-1.33253,0
60.8607,-52.302,-1.34149,0
60.9125,-52.2321,-1.35031,0
60.9627,-52.1613,-1.35896,0
61.0113,-52.0894,-1.36746,0
61.0584,-52.0166,-1.37579,0
61.1037,-51.9427,-1.38395,0
61.1475,-51.868,-1.39195,0
61.1895,-51.7924,-1.39976,0
61.2299,-51.716,-1.40741,0
61.2686,-51.6387,-1.41487,0
61.3056,-51.5607,-1.42214,0
61.341,-51.482,-1.42924,0
61.3745,-51.4025,-1.43614,0
61.4064,-51.3224,-1.44286,0
61.4366,-51.2417,-1.44938,0
61.4648,-51.1604,-1.4557,0
61.4914,-51.0786,-1.46183,0
61.5162,-50.9962,-1.46776,0
61.5393,-50.9133,-1.47347,0
61.562,-50.8304,-1.47866,0
61.5837,-50.7472,-1.48345,0
61.6036,-50.6636,-1.48802,0
61.6219,-50.5795,-1.4924,0
61.6382,-50.495,-1.49656,0
61.6528,-50.4101,-1.50051,0
61.6656,-50.325,-1.50424,0
61.6766,-50.2395,-1.50777,0
61.6859,-50.1539,-1.51106,0
61.6933,-50.0679,-1.51415,0
61.6988,-49.9819,-1.51701,0
61.7026,-49.8956,-1.51966,0
61.7045,-49.8093,-1.52207,0
61.7045,-49.7229,-1.52427,0
61.7027,-49.6365,-1.52624,0
61.6991,-49.5501,-1.52798,0
61.6937,-49.4637,-1.52949,0
61.6864,-49.3774,-1.53077,0
61.6773,-49.2912,-1.53183,0
61.6665,-49.2052,-1.53261,0
61.6555,-49.119,-1.53281,0
61.6427,-49.033,-1.53279,0
61.628,-48.9471,-1.53251,0
61.6116,-48.8615,-1.532,0
61.5933,-48.7761,-1.53126,0
61.5731,-48.691,-1.53026,0
61.5512,-48.6063,-1.52903,0
61.5274,-48.5219,-1.52755,0
61.5019,-48.4379,-1.52583,0
61.4771,-48.3533,-1.52328,0
61.4516,-48.2686,-1.52025,0
61.4241,-48.1843,-1.51696,0
61.3948,-48.1003,-1.51342,0
61.3636,-48.0168,-1.50964,0
61.3306,-47.9338,-1.50563,0
61.2957,-47.8513,-1.50135,0
61.2588,-47.7694,-1.49684,0
61.2202,-47.6881,-1.49208,0
61.1796,-47.6075,-1.48708,0
61.1372,-47.5276,-1.48183,0
61.093,-47.4484,-1.47634,0
61.0468,-47.37,-1.47061,0
60.9961,-47.2947,-1.46541,0
60.9434,-47.2205,-1.46004,0
60.8891,-47.1474,-1.45442,0
60.833,-47.0755,-1.44859,0
60.7752,-47.0047,-1.44255,0
60.7157,-46.9351,-1.43628,0
60.6546,-46.8668,-1.42981,0
60.5919,-46.7997,-1.42311,0
60.5275,-46.7341,-1.41621,0
60.4616,-46.6698,-1.40909,0
60.3941,-46.6069,-1.40178,0
60.325,-46.5455,-1.39427,0
60.2545,-46.4856,-1.38654,0
60.1825,-46.4272,-1.37864,0
60.1091,-46.3705,-1.37053,0
60.0344,-46.3153,-1.36224,0
59.957,-46.2637,-1.35429,0
59.8776,-46.2154,-1.3466,0
59.797,-46.1691,-1.33878,0
59.7182,-46.1188,-1.32922,0
59.6387,-46.069,-1.3191,0
60.0014,-52.6702,-1.34591,174
60.0319,-52.5824,-1.36848,174
60.1119,-52.5549,-1.36845,174
60.3427,-52.6918,-1.30623,174
60.4905,-52.7245,-1.28113,0
60.5519,-52.6623,-1.29087,0
60.6119,-52.5988,-1.30048,0
60.6704,-52.5341,-1.30995,0
60.7274,-52.4682,-1.31927,0
60.783,-52.4011,-1.32846,0
60.837,-52.3329,-1.33749,0
60.8895,-52.2636,-1.34638,0
60.9404,-52.1932,-1.35511,0
60.9898,-52.1217,-1.36367,0
61.0374,-52.0493,-1.37207,0
61.0836,-51.9759,-1.38032,0
61.128,-51.9016,-1.38839,0
61.1709,-51.8264,-1.39628,0
61.212,-51.7503,-1.40401,0
61.2515,-51.6735,-1.41154,0
61.2893,-51.5958,-1.4189,0
61.3253,-51.5174,-1.42609,0
61.3597,-51.4382,-1.43308,0
61.3923,-51.3584,-1.43987,0
61.4233,-51.278,-1.44649,0
61.4523,-51.1969,-1.4529,0
61.4798,-51.1153,-1.45911,0
61.5054,-51.0332,-1.46512,0
61.5292,-50.9505,-1.47093,0
61.5516,-50.8675,-1.47646,0
61.5741,-50.7845,-1.48133,0
61.5949,-50.7011,-1.48601,0
61.6139,-50.6172,-1.49047,0
61.6311,-50.5329,-1.49472,0
61.6465,-50.4482,-1.49877,0
61.6602,-50.3632,-1.5026,0
61.672,-50.2779,-1.50622,0
61.682,-50.1923,-1.50962,0
61.6902,-50.1065,-1.5128,0
61.6966,-50.0205,-1.51576,0
61.7011,-49.9343,-1.5185,0
61.7038,-49.848,-1.52102,0
61.7047,-49.7616,-1.52332,0
61.7038,-49.6752,-1.52538,0
61.701,-49.5888,-1.52722,0
61.6963,-49.5024,-1.52883,0
61.6899,-49.416,-1.53023,0
61.6816,-49.3298,-1.53139,0
61.6715,-49.2437,-1.53231,0
61.6607,-49.1576,-1.53276,0
61.6486,-49.0715,-1.53283,0
61.6348,-48.9856,-1.53266,0
61.6191,-48.8998,-1.53227,0
61.6017,-48.8143,-1.53162,0
61.5824,-48.7291,-1.53074,0
61.5613,-48.6442,-1.52961,0
61.5383,-48.5597,-1.52824,0
61.5136,-48.4755,-1.52663,0
61.488,-48.3914,-1.52457,0
61.4632,-48.3065,-1.52164,0
61.4367,-48.222,-1.51846,0
59.9942,-52.6698,-1.31887,174
60.0248,-52.5822,-1.34185,174
60.1042,-52.5544,-1.34181,174
60.2347,-52.581,-1.32008,174
60.4248,-52.664,-1.27515,0
60.4851,-52.6034,-1.28468,0
60.5439,-52.5416,-1.29408,0
60.6013,-52.4786,-1.30336,0
60.6573,-52.4144,-1.3125,0
60.7117,-52.349,-1.32148,0
60.7648,-52.2825,-1.33034,0
60.8162,-52.2149,-1.33904,0
60.8662,-52.1463,-1.34758,0
60.9146,-52.0767,-1.35598,0
60.9616,-52.006,-1.36422,0
61.0069,-51.9345,-1.3723,0
61.0505,-51.862,-1.3802,0
61.0926,-51.7886,-1.38794,0
61.133,-51.7144,-1.39551,0
61.1718,-51.6393,-1.40291,0
61.209,-51.5635,-1.41013,0
61.2445,-51.487,-1.41716,0
61.2783,-51.4098,-1.42403,0
61.3104,-51.3319,-1.43069,0
61.3409,-51.2533,-1.43718,0
61.3695,-51.1742,-1.44347,0
61.3965,-51.0945,-1.44957,0
61.4217,-51.0143,-1.45548,0
61.4453,-50.9336,-1.46118,0
61.4678,-50.8526,-1.4665,0
61.4901,-50.7715,-1.47129,0
61.5105,-50.69,-1.47588,0
61.5293,-50.608,-1.48026,0
61.5462,-50.5256,-1.48444,0
61.5615,-50.4429,-1.48841,0
61.5749,-50.3598,-1.49217,0
61.5866,-50.2764,-1.49572,0
61.5966,-50.1928,-1.49907,0
61.6048,-50.1089,-1.5022,0
61.6112,-50.0248,-1.50512,0
61.6158,-49.9406,-1.50781,0
61.6186,-49.8563,-1.5103,0
61.6196,-49.7719,-1.51256,0
61.6188,-49.6874,-1.5146,0
61.6162,-49.6029,-1.51641,0
61.6119,-49.5185,-1.51801,0
61.6057,-49.4341,-1.51939,0
61.5977,-49.3498,-1.52054,0
61.5884,-49.2655,-1.52134,0
61.5786,-49.1812,-1.52167,0
61.567,-49.097,-1.52175,0
61.5534,-49.013,-1.5216,0
61.5383,-48.9292,-1.52122,0
61.5212,-48.8456,-1.5206,0
61.5025,-48.7623,-1.51975,0
61.482,-48.6793,-1.51865,0
61.4596,-48.5966,-1.51733,0
61.4355,-48.5144,-1.51577,0
61.4096,-48.4325,-1.51397,0
61.3846,-48.35,-1.51131,0
61.3586,-48.2675,-1.5082,0
61.3309,-48.1853,-1.50485,0
61.3011,-48.1036,-1.50127,0
61.2697,-48.0223,-1.49745,0
61.2363,-47.9416,-1.49338,0
61.2012,-47.8613,-1.48908,0
61.1643,-47.7817,-1.48453,0
61.1255,-47.7027,-1.47976,0
61.0848,-47.6244,-1.47474,0
61.0424,-47.5468,-1.46949,0
60.9982,-47.47,-1.46399,0
60.9507,-47.3951,-1.45869,0
60.9001,-47.3223,-1.45355,0
60.8478,-47.2504,-1.44818,0
60.7939,-47.1797,-1.44258,0
60.7383,-47.11,-1.43678,0
60.6811,-47.0416,-1.43076,0
60.6222,-46.9743,-1.42454,0
60.5617,-46.9083,-1.41811,0
60.4997,-46.8436,-1.41147,0
60.436,-46.7802,-1.40463,0
60.3709,-46.7182,-1.39759,0
60.3042,-46.6576,-1.39034,0
60.2362,-46.5985,-1.38291,0
60.1666,-46.5408,-1.37529,0
60.0957,-46.4847,-1.36747,0
60.0233,-46.4302,-1.35946,0
59.9483,-46.3794,-1.35191,0
59.8715,-46.3314,-1.34449,0
59.7934,-46.2853,-1.33694,0
59.7142,-46.241,-1.32924,0
59.637,-46.1925,-1.31967,0
59.9722,-52.6996,-1.312,174
60.0112,-52.6212,-1.3317,174
60.0528,-52.5484,-1.34888,174
60.1716,-52.5648,-1.33162,174
60.3974,-52.6907,-1.27083,0
60.4583,-52.6307,-1.28043,0
60.5177,-52.5694,-1.28988,0
60.5758,-52.507,-1.29922,0
60.6323,-52.4433,-1.30842,0
60.6876,-52.3784,-1.31748,0
60.7412,-52.3124,-1.32639,0
60.7934,-52.2453,-1.33516,0
60.8441,-52.1772,-1.34378,0
60.8931,-52.108,-1.35224,0
60.9407,-52.0378,-1.36055,0
60.9867,-51.9666,-1.36869,0
61.0311,-51.8946,-1.37668,0
61.074,-51.8216,-1.3845,0
61.1151,-51.7477,-1.39214,0
61.1546,-51.6731,-1.39962,0
61.1926,-51.5976,-1.40691,0
61.2288,-51.5214,-1.41403,0
61.2634,-51.4445,-1.42097,0
61.2962,-51.3669,-1.42772,0
61.3274,-51.2886,-1.4343,0
61.3569,-51.2097,-1.44067,0
61.3847,-51.1303,-1.44686,0
61.4107,-51.0503,-1.45285,0
61.4349,-50.9698,-1.45864,0
61.4575,-50.8888,-1.46424,0
61.4803,-50.8079,-1.46916,0
61.5015,-50.7266,-1.47384,0
61.521,-50.6448,-1.47832,0
61.5388,-50.5626,-1.48259,0
61.5548,-50.48,-1.48665,0
61.5691,-50.3971,-1.49051,0
61.5816,-50.3138,-1.49416,0
61.5923,-50.2303,-1.4976,0
61.6013,-50.1465,-1.50082,0
61.6085,-50.0625,-1.50383,0
61.6139,-49.9784,-1.50663,0
61.6176,-49.8941,-1.50921,0
61.6194,-49.8097,-1.51157,0
61.6195,-49.7252,-1.51371,0
61.6177,-49.6408,-1.51563,0
61.6141,-49.5563,-1.51733,0
61.6087,-49.4719,-1.5188,0
61.6015,-49.3875,-1.52005,0
61.5925,-49.3033,-1.52107,0
61.5833,-49.219,-1.52154,0
61.5724,-49.1347,-1.52174,0
61.5598,-49.0506,-1.5217,0
61.5453,-48.9667,-1.52142,0
61.5291,-48.883,-1.52091,0
61.5112,-48.7996,-1.52016,0
61.4913,-48.7165,-1.51917,0
61.4698,-48.6336,-1.51796,0
61.4465,-48.5512,-1.5165,0
61.4215,-48.4691,-1.5148,0
61.3956,-48.3871,-1.51262,0
61.3705,-48.3044,-1.50962,0
61.3435,-48.2221,-1.50638,0
61.3147,-48.1401,-1.5029,0
61.284,-48.0587,-1.49919,0
61.2515,-47.9777,-1.49523,0
61.2172,-47.8972,-1.49103,0
61.181,-47.8173,-1.4866,0
61.1431,-47.738,-1.48193,0
61.1033,-47.6594,-1.47701,0
61.0616,-47.5815,-1.47187,0
61.0182,-47.5043,-1.46648,0
60.9727,-47.4281,-1.46093,0
60.923,-47.3548,-1.45588,0
60.8715,-47.2825,-1.4506,0
60.8183,-47.2112,-1.44511,0
60.7634,-47.1411,-1.43941,0
60.707,-47.0721,-1.43349,0
60.6488,-47.0043,-1.42736,0
60.589,-46.9377,-1.42102,0
60.5277,-46.8724,-1.41447,0
60.4647,-46.8085,-1.40772,0
60.4003,-46.7458,-1.40076,0
60.3343,-46.6846,-1.39361,0
60.2668,-46.6248,-1.38627,0
60.1979,-46.5665,-1.37872,0
60.1277,-46.5097,-1.37099,0
60.0559,-46.4544,-1.36307,0
59.9823,-46.4015,-1.35518,0
59.906,-46.3527,-1.34784,0
59.8285,-46.3057,-1.34034,0
59.7498,-46.2606,-1.3327,0
59.6716,-46.2143,-1.32407,0
59.5941,-46.166,-1.31422,0
59.9974,-52.6606,-1.32131,174
60.0287,-52.5742,-1.34379,174
60.1168,-52.5563,-1.33993,174
60.2501,-52.5855,-1.31709,174
60.4312,-52.6577,-1.27615,0
60.4912,-52.597,-1.28567,0
60.5499,-52.5351,-1.29506,0
60.6072,-52.472,-1.30431,0
60.663,-52.4076,-1.31343,0
60.7173,-52.3421,-1.32241,0
60.7702,-52.2755,-1.33125,0
60.8215,-52.2079,-1.33993,0
60.8713,-52.1391,-1.34847,0
60.9196,-52.0694,-1.35685,0
60.9662,-51.9986,-1.36507,0
61.0115,-51.927,-1.37313,0
61.0549,-51.8544,-1.38102,0
61.0969,-51.7809,-1.38874,0
61.1371,-51.7066,-1.39629,0
61.1757,-51.6315,-1.40366,0
61.2127,-51.5556,-1.41087,0
61.248,-51.479,-1.41789,0
61.2816,-51.4017,-1.42472,0
61.3137,-51.3237,-1.43138,0
61.3439,-51.2451,-1.43784,0
61.3723,-51.1659,-1.44411,0
61.3992,-51.0862,-1.45019,0
61.4243,-51.0059,-1.45608,0
61.4476,-50.9251,-1.46176,0
61.4702,-50.8442,-1.467,0
61.4923,-50.7631,-1.47177,0
61.5125,-50.6815,-1.47634,0
61.5311,-50.5995,-1.4807,0
61.5479,-50.5171,-1.48486,0
61.563,-50.4343,-1.48881,0
61.5762,-50.3512,-1.49255,0
61.5878,-50.2677,-1.49609,0
61.5976,-50.1841,-1.49941,0
61.6055,-50.1002,-1.50252,0
61.6117,-50.0161,-1.50541,0
61.6161,-49.9319,-1.50808,0
61.6187,-49.8475,-1.51054,0
61.6196,-49.7631,-1.51278,0
61.6187,-49.6786,-1.5148,0
61.6159,-49.5941,-1.51659,0
61.6113,-49.5097,-1.51817,0
61.605,-49.4253,-1.51952,0
61.5968,-49.341,-1.52065,0
61.5876,-49.2568,-1.52139,0
61.5774,-49.1725,-1.52169,0
61.5656,-49.0883,-1.52175,0
61.552,-49.0043,-1.52158,0
61.5366,-48.9205,-1.52117,0
61.5194,-48.8369,-1.52052,0
61.5005,-48.7537,-1.51965,0
61.4798,-48.6707,-1.51853,0
61.4572,-48.5881,-1.51717,0
61.4329,-48.5058,-1.51559,0
61.4068,-48.424,-1.51376,0
61.382,-48.3414,-1.511,0
61.3558,-48.2589,-1.50786,0
59.9941,-52.6651,-1.29242,174
60.0219,-52.5744,-1.31702,174
60.1091,-52.5558,-1.31318,174
60.2336,-52.5756,-1.29331,174
60.3682,-52.5998,-1.27039,0
60.427,-52.5407,-1.2797,0
60.4847,-52.4803,-1.28891,0
60.5409,-52.4188,-1.29797,0
60.5955,-52.3561,-1.30691,0
60.6488,-52.2922,-1.3157,0
60.7007,-52.2273,-1.32436,0
60.7512,-52.1613,-1.33287,0
60.8,-52.0943,-1.34123,0
60.8474,-52.0262,-1.34944,0
60.8933,-51.9572,-1.3575,0
60.9377,-51.8873,-1.3654,0
60.9804,-51.8164,-1.37314,0
61.0216,-51.7448,-1.38071,0
61.0612,-51.6722,-1.38812,0
61.0992,-51.5989,-1.39536,0
61.1356,-51.5248,-1.40242,0
61.1703,-51.45,-1.40931,0
61.2034,-51.3745,-1.41602,0
61.2349,-51.2984,-1.42255,0
61.2647,-51.2216,-1.42889,0
61.2928,-51.1442,-1.43505,0
61.3192,-51.0663,-1.44102,0
61.3439,-50.9879,-1.4468,0
61.367,-50.909,-1.45238,0
61.3897,-50.83,-1.45743,0
61.4114,-50.7507,-1.46212,0
61.4314,-50.671,-1.4666,0
61.4497,-50.5908,-1.47088,0
61.4663,-50.5102,-1.47497,0
61.4812,-50.4293,-1.47886,0
61.4944,-50.3481,-1.48253,0
61.5059,-50.2665,-1.48602,0
61.5155,-50.1847,-1.48928,0
61.5234,-50.1027,-1.49233,0
61.5297,-50.0205,-1.49518,0
61.5341,-49.9381,-1.49781,0
61.5369,-49.8556,-1.50024,0
61.5379,-49.7731,-1.50244,0
61.537,-49.6905,-1.50444,0
61.5345,-49.6078,-1.50621,0
61.5302,-49.5253,-1.50777,0
61.5241,-49.4427,-1.5091,0
61.5164,-49.3603,-1.5102,0
61.5084,-49.2778,-1.51072,0
61.4987,-49.1953,-1.51103,0
61.4871,-49.113,-1.5111,0
61.4739,-49.0308,-1.51095,0
61.4589,-48.9489,-1.51056,0
61.4422,-48.8671,-1.50994,0
61.4237,-48.7857,-1.50909,0
61.4036,-48.7045,-1.50801,0
61.3816,-48.6237,-1.5067,0
61.3579,-48.5433,-1.50516,0
61.3325,-48.4633,-1.50338,0
61.3066,-48.3832,-1.50108,0
61.281,-48.3026,-1.49802,0
61.2536,-48.2224,-1.49472,0
61.2245,-48.1426,-1.4912,0
61.1935,-48.0633,-1.48744,0
61.1608,-47.9845,-1.48344,0
61.1262,-47.9062,-1.47922,0
61.0899,-47.8285,-1.47475,0
61.0519,-47.7514,-1.47007,0
61.012,-47.6751,-1.46514,0
60.9704,-47.5994,-1.45998,0
60.927,-47.5245,-1.4546,0
60.8801,-47.4517,-1.44949,0
60.8305,-47.3806,-1.44445,0
60.7795,-47.3106,-1.43919,0
60.7266,-47.2416,-1.43372,0
60.6723,-47.1737,-1.42804,0
60.6162,-47.1069,-1.42215,0
60.5586,-47.0414,-1.41606,0
60.4995,-46.977,-1.40976,0
60.4387,-46.9139,-1.40326,0
60.3766,-46.8522,-1.39656,0
60.3128,-46.7918,-1.38968,0
60.2477,-46.7327,-1.3826,0
60.1811,-46.6751,-1.37533,0
60.1131,-46.619,-1.36787,0
60.0438,-46.5643,-1.36023,0
59.9723,-46.5123,-1.35274,0
59.8985,-46.4638,-1.34565,0
59.8235,-46.417,-1.33841,0
59.7473,-46.3721,-1.33103,0
59.6701,-46.3289,-1.32352,0
59.5934,-46.2842,-1.31488,0
59.9733,-52.6963,-1.2849,174
60.0072,-52.6118,-1.30727,174
60.0561,-52.5481,-1.32124,174
60.1766,-52.5662,-1.30257,174
60.3413,-52.6259,-1.26616,0
60.4008,-52.5673,-1.27554,0
60.459,-52.5075,-1.28481,0
60.5158,-52.4465,-1.29392,0
60.5712,-52.3843,-1.30293,0
60.6252,-52.321,-1.31178,0
60.6777,-52.2565,-1.3205,0
60.7287,-52.191,-1.32907,0
60.7784,-52.1244,-1.33751,0
60.8264,-52.0568,-1.34578,0
60.873,-51.9883,-1.35391,0
60.918,-51.9187,-1.36189,0
60.9615,-51.8483,-1.3697,0
61.0034,-51.777,-1.37734,0
61.0437,-51.7048,-1.38483,0
61.0824,-51.6319,-1.39214,0
61.1195,-51.5581,-1.39928,0
61.155,-51.4836,-1.40625,0
61.1887,-51.4084,-1.41303,0
61.2209,-51.3326,-1.41965,0
61.2515,-51.2561,-1.42607,0
61.2804,-51.179,-1.43231,0
61.3076,-51.1013,-1.43837,0
61.3331,-51.0231,-1.44424,0
61.3569,-50.9444,-1.4499,0
61.3795,-50.8654,-1.45527,0
61.4019,-50.7863,-1.46004,0
61.4227,-50.7068,-1.46461,0
61.4417,-50.6268,-1.46899,0
61.4591,-50.5464,-1.47317,0
61.4748,-50.4656,-1.47714,0
61.4887,-50.3845,-1.48091,0
61.5009,-50.3031,-1.48447,0
61.5114,-50.2214,-1.48783,0
61.5202,-50.1395,-1.49099,0
61.5272,-50.0573,-1.49393,0
61.5323,-49.975,-1.49666,0
61.5359,-49.8926,-1.49918,0
61.5377,-49.8101,-1.50148,0
61.5377,-49.7275,-1.50358,0
61.5359,-49.6449,-1.50544,0
61.5323,-49.5623,-1.50709,0
61.5271,-49.4797,-1.50853,0
61.52,-49.3972,-1.50974,0
61.5122,-49.3147,-1.51052,0
61.5032,-49.2322,-1.51092,0
61.4925,-49.1498,-1.5111,0
61.48,-49.0676,-1.51105,0
61.4659,-48.9856,-1.51076,0
61.4499,-48.9037,-1.51025,0
61.4323,-48.8221,-1.50951,0
61.4128,-48.7409,-1.50852,0
61.3916,-48.6599,-1.50732,0
61.3687,-48.5793,-1.50588,0
61.3441,-48.4991,-1.50421,0
61.3177,-48.4193,-1.5023,0
61.2927,-48.3387,-1.49943,0
61.2662,-48.2583,-1.49623,0
61.2378,-48.1783,-1.49281,0
61.2077,-48.0988,-1.48915,0
61.1756,-48.0197,-1.48527,0
61.142,-47.9412,-1.48114,0
61.1065,-47.8633,-1.47679,0
61.0691,-47.7859,-1.47219,0
61.0301,-47.7092,-1.46737,0
60.9893,-47.6332,-1.46232,0
60.9467,-47.5579,-1.45703,0
60.9017,-47.4839,-1.45169,0
60.853,-47.4124,-1.44674,0
60.8025,-47.3418,-1.44157,0
60.7505,-47.2724,-1.43619,0
60.6968,-47.204,-1.4306,0
60.6415,-47.1367,-1.42481,0
60.5846,-47.0706,-1.41881,0
60.5261,-47.0057,-1.41261,0
60.4661,-46.9421,-1.4062,0
60.4046,-46.8797,-1.3996,0
60.3416,-46.8187,-1.39279,0
60.2771,-46.759,-1.3858,0
60.2111,-46.7008,-1.37861,0
60.1437,-46.6439,-1.37124,0
60.075,-46.5886,-1.36368,0
60.0049,-46.5348,-1.35593,0
59.9318,-46.4853,-1.34885,0
59.8573,-46.4378,-1.34167,0
59.7816,-46.392,-1.33435,0
59.7048,-46.348,-1.3269,0
59.6273,-46.3054,-1.31918,0
59.5516,-46.2585,-1.30956,0
59.995,-52.653,-1.296,174
60.0266,-52.5674,-1.31862,174
60.1217,-52.5577,-1.31122,174
60.2486,-52.5796,-1.29041,174
60.3744,-52.5937,-1.27136,0
60.433,-52.5345,-1.28067,0
60.4905,-52.474,-1.28986,0
60.5466,-52.4123,-1.29891,0
60.6012,-52.3495,-1.30782,0
60.6544,-52.2855,-1.31661,0
60.706,-52.2205,-1.32525,0
60.7563,-52.1544,-1.33375,0
60.805,-52.0872,-1.3421,0
60.8523,-52.0191,-1.35029,0
60.898,-51.95,-1.35833,0
60.9422,-51.88,-1.36622,0
60.9848,-51.809,-1.37394,0
61.0258,-51.7373,-1.38149,0
61.0652,-51.6647,-1.38888,0
61.103,-51.5913,-1.3961,0
61.1392,-51.5171,-1.40315,0
61.1738,-51.4422,-1.41001,0
61.2068,-51.3667,-1.4167,0
61.2381,-51.2904,-1.42321,0
61.2677,-51.2136,-1.42954,0
61.2956,-51.1362,-1.43568,0
61.3219,-51.0582,-1.44163,0
61.3464,-50.9797,-1.44738,0
61.3693,-50.9008,-1.45295,0
61.392,-50.8218,-1.45793,0
61.4135,-50.7425,-1.46259,0
61.4334,-50.6627,-1.46706,0
61.4516,-50.5825,-1.47132,0
61.468,-50.5019,-1.47538,0
61.4827,-50.4209,-1.47924,0
61.4956,-50.3396,-1.48291,0
61.5069,-50.258,-1.48636,0
61.5165,-50.1762,-1.48961,0
61.5242,-50.0941,-1.49264,0
61.5302,-50.0119,-1.49546,0
61.5345,-49.9296,-1.49808,0
61.5371,-49.8471,-1.50048,0
61.5379,-49.7645,-1.50266,0
61.5369,-49.6819,-1.50463,0
61.5341,-49.5993,-1.50638,0
61.5296,-49.5167,-1.50792,0
61.5234,-49.4342,-1.50923,0
61.5156,-49.3517,-1.51027,0
61.5074,-49.2692,-1.51076,0
61.4975,-49.1867,-1.51105,0
61.4859,-49.1044,-1.5111,0
61.4724,-49.0223,-1.51091,0
61.4573,-48.9404,-1.5105,0
61.4404,-48.8587,-1.50986,0
61.4217,-48.7772,-1.50899,0
61.4013,-48.6961,-1.50789,0
61.3792,-48.6153,-1.50655,0
61.3553,-48.535,-1.50498,0
61.3298,-48.455,-1.50319,0
61.304,-48.3748,-1.50077,0
61.2782,-48.2943,-1.49769,0
59.9946,-52.6612,-1.26559,174
60.0198,-52.5675,-1.29182,174
60.1204,-52.5647,-1.28139,174
60.2547,-52.5947,-1.25657,0
60.3137,-52.5382,-1.26582,0
60.3713,-52.4804,-1.27493,0
60.4277,-52.4215,-1.28392,0
60.4827,-52.3614,-1.2928,0
60.5363,-52.3001,-1.30154,0
60.5884,-52.2377,-1.31015,0
60.6392,-52.1743,-1.31862,0
60.6886,-52.1098,-1.32695,0
60.7365,-52.0442,-1.33514,0
60.7828,-51.9778,-1.34317,0
60.8278,-51.9103,-1.35106,0
60.8712,-51.842,-1.35879,0
60.913,-51.7727,-1.36636,0
60.9534,-51.7026,-1.37377,0
60.9922,-51.6317,-1.38102,0
61.0294,-51.5601,-1.3881,0
61.0651,-51.4876,-1.39502,0
61.0991,-51.4145,-1.40176,0
61.1316,-51.3407,-1.40833,0
61.1623,-51.2662,-1.41471,0
61.1915,-51.1911,-1.42093,0
61.2191,-51.1155,-1.42695,0
61.2449,-51.0393,-1.4328,0
61.2692,-50.9626,-1.43845,0
61.2918,-50.8854,-1.44392,0
61.3145,-50.8083,-1.44872,0
61.3358,-50.7307,-1.4533,0
61.3553,-50.6527,-1.45768,0
61.3733,-50.5743,-1.46187,0
61.3895,-50.4954,-1.46587,0
61.4041,-50.4163,-1.46966,0
61.417,-50.3368,-1.47327,0
61.4281,-50.257,-1.47666,0
61.4376,-50.1769,-1.47985,0
61.4454,-50.0967,-1.48284,0
61.4514,-50.0163,-1.48563,0
61.4558,-49.9357,-1.4882,0
61.4584,-49.855,-1.49057,0
61.4593,-49.7742,-1.49273,0
61.4584,-49.6934,-1.49467,0
61.4559,-49.6126,-1.4964,0
61.4517,-49.5318,-1.49792,0
61.4456,-49.4511,-1.49923,0
61.4392,-49.3703,-1.50001,0
61.4313,-49.2895,-1.50051,0
61.4216,-49.2089,-1.50079,0
61.4104,-49.1283,-1.50086,0
61.3973,-49.048,-1.50069,0
61.3827,-48.9678,-1.5003,0
61.3662,-48.8878,-1.49969,0
61.348,-48.8082,-1.49885,0
61.3282,-48.7288,-1.49778,0
61.3066,-48.6498,-1.49648,0
61.2834,-48.5711,-1.49496,0
61.2584,-48.4929,-1.49321,0
61.2317,-48.4151,-1.49123,0
61.2064,-48.3364,-1.48825,0
61.1795,-48.2581,-1.485,0
61.1509,-48.1801,-1.48154,0
61.1204,-48.1027,-1.47784,0
61.0882,-48.0257,-1.47391,0
61.0543,-47.9493,-1.46975,0
61.0186,-47.8734,-1.46537,0
60.9812,-47.7982,-1.46076,0
60.9421,-47.7237,-1.45592,0
60.9013,-47.6498,-1.45086,0
60.8587,-47.5767,-1.44556,0
60.8124,-47.506,-1.44067,0
60.7639,-47.4366,-1.43572,0
60.7137,-47.3683,-1.43057,0
60.6621,-47.3009,-1.42521,0
60.6088,-47.2347,-1.41966,0
60.554,-47.1696,-1.41389,0
60.4977,-47.1056,-1.40792,0
60.4398,-47.0429,-1.40175,0
60.3804,-46.9814,-1.3954,0
60.3195,-46.9211,-1.38885,0
60.2572,-46.8622,-1.38211,0
60.1934,-46.8047,-1.37517,0
60.1284,-46.7485,-1.36806,0
60.0619,-46.6938,-1.36076,0
59.9939,-46.6408,-1.35337,0
59.923,-46.5918,-1.34658,0
59.8509,-46.5445,-1.33966,0
59.7776,-46.499,-1.33259,0
59.7033,-46.4551,-1.32538,0
59.6278,-46.413,-1.31804,0
59.5519,-46.3718,-1.3103,0
59.9726,-52.6907,-1.25861,174
60.0032,-52.6025,-1.28287,174
60.0693,-52.5593,-1.28883,174
60.1877,-52.5745,-1.27057,174
60.2874,-52.5637,-1.26169,0
60.3457,-52.5065,-1.27086,0
60.4027,-52.448,-1.27992,0
60.4582,-52.3885,-1.28884,0
60.5124,-52.3277,-1.29764,0
60.5652,-52.2658,-1.30632,0
60.6166,-52.2028,-1.31484,0
60.6666,-52.1388,-1.32323,0
60.7152,-52.0737,-1.33148,0
60.7623,-52.0077,-1.33959,0
60.8079,-51.9407,-1.34754,0
60.8519,-51.8727,-1.35534,0
60.8945,-51.8038,-1.36299,0
60.9355,-51.7341,-1.37047,0
60.975,-51.6636,-1.37779,0
61.013,-51.5923,-1.38495,0
61.0493,-51.5202,-1.39194,0
61.0841,-51.4473,-1.39876,0
61.1172,-51.3738,-1.4054,0
61.1488,-51.2996,-1.41188,0
61.1787,-51.2248,-1.41817,0
61.207,-51.1494,-1.42427,0
61.2336,-51.0735,-1.4302,0
61.2585,-50.997,-1.43594,0
61.2819,-50.92,-1.4415,0
61.3045,-50.8429,-1.4466,0
61.3265,-50.7656,-1.45126,0
