86.117,-61.9794,-3.56614,0
86.2247,-61.9345,-3.58447,0
86.3319,-61.887,-3.60306,0
86.4384,-61.8369,-3.62188,0
86.5442,-61.7841,-3.64094,0
86.6493,-61.7287,-3.66023,0
86.7535,-61.6707,-3.67972,0
86.8569,-61.61,-3.69943,0
86.9593,-61.5467,-3.71934,0
87.0605,-61.4807,-3.73945,0
87.1607,-61.4121,-3.75972,0
87.2481,-61.3314,-3.78377,0
87.3317,-61.247,-3.80845,0
87.4137,-61.1607,-3.83307,0
87.4938,-61.0725,-3.85761,0
87.5723,-60.9825,-3.88206,0
87.6488,-60.8906,-3.90643,0
87.7235,-60.797,-3.93068,0
87.7903,-60.698,-3.95629,0
87.8515,-60.5956,-3.98246,0
87.9103,-60.4919,-4.00844,0
87.9668,-60.3869,-4.0342,0
88.0208,-60.2807,-4.05972,0
88.0723,-60.1732,-4.08501,0
88.1215,-60.0645,-4.11004,0
88.1681,-59.9548,-4.13481,0
88.2122,-59.8441,-4.15929,0
88.2538,-59.7323,-4.18348,0
88.2896,-59.6186,-4.20791,0
88.3174,-59.5026,-4.23286,0
88.3422,-59.386,-4.25748,0
88.3639,-59.269,-4.28172,0
88.3826,-59.1517,-4.30559,0
88.3982,-59.034,-4.32907,0
88.4109,-58.9162,-4.35214,0
88.4205,-58.7983,-4.3748,0
88.4271,-58.6803,-4.39703,0
88.4308,-58.5624,-4.41881,0
88.4315,-58.4447,-4.44013,0
88.4292,-58.3271,-4.46099,0
88.4251,-58.2099,-4.48128,0
88.4186,-58.093,-4.50101,0
88.4092,-57.9765,-4.52028,0
88.3969,-57.8605,-4.53905,0
88.3819,-57.7449,-4.55731,0
88.3641,-57.63,-4.57508,0
88.3434,-57.5157,-4.59231,0
88.3202,-57.4022,-4.60903,0
88.2941,-57.2895,-4.62521,0
88.2663,-57.1775,-4.6408,0
88.2384,-57.0659,-4.65563,0
88.208,-56.9552,-4.66993,0
88.1752,-56.8454,-4.68369,0
88.1398,-56.7365,-4.69691,0
88.1019,-56.6286,-4.70958,0
88.0616,-56.5218,-4.72171,0
88.0189,-56.4161,-4.73327,0
87.9738,-56.3116,-4.74428,0
87.9265,-56.2083,-4.75474,0
87.8769,-56.1063,-4.76463,0
87.8251,-56.0056,-4.77396,0
87.7711,-55.9063,-4.78271,0
87.7141,-55.8088,-4.79095,0
87.6509,-55.7149,-4.79887,0
87.5858,-55.6227,-4.8062,0
83.2426,-62.3817,-3.13846,0
83.348,-62.394,-3.15149,0
83.4539,-62.4042,-3.16478,0
83.5602,-62.4123,-3.17835,0
83.6669,-62.4184,-3.19221,0
83.7739,-62.4223,-3.20634,0
83.8812,-62.4241,-3.22074,0
83.9889,-62.4238,-3.23541,0
84.0968,-62.4213,-3.25035,0
84.2048,-62.4166,-3.26556,0
84.3132,-62.4098,-3.28102,0
84.4216,-62.4007,-3.29674,0
84.5302,-62.3894,-3.31271,0
84.6388,-62.3759,-3.32895,0
84.7477,-62.3605,-3.34526,0
84.8567,-62.3435,-3.36158,0
84.9659,-62.3241,-3.37815,0
85.0748,-62.3025,-3.39496,0
85.1839,-62.2786,-3.41201,0
85.2927,-62.2523,-3.42929,0
85.4014,-62.2236,-3.4468,0
85.5099,-62.1926,-3.46454,0
85.6182,-62.1593,-3.48251,0
85.7261,-62.1235,-3.50069,0
85.8337,-62.0853,-3.51909,0
85.942,-62.0463,-3.53706,0
86.0505,-62.0057,-3.55499,0
86.1584,-61.9624,-3.57317,0
86.266,-61.9165,-3.5916,0
86.373,-61.868,-3.61028,0
86.4792,-61.8168,-3.6292,0
86.5848,-61.7631,-3.64834,0
86.6895,-61.7067,-3.6677,0
86.7934,-61.6476,-3.68729,0
86.8964,-61.5859,-3.70707,0
86.9984,-61.5216,-3.72705,0
87.0993,-61.4546,-3.74723,0
87.1959,-61.3824,-3.76856,0
87.2805,-61.2992,-3.79328,0
87.3634,-61.214,-3.81794,0
87.4448,-61.127,-3.84252,0
87.5242,-61.0381,-3.86704,0
87.602,-60.9473,-3.89146,0
87.6778,-60.8548,-3.91578,0
87.7515,-60.7602,-3.94008,0
87.8141,-60.6588,-3.96638,0
87.8745,-60.5559,-3.99249,0
87.9323,-60.4517,-4.01839,0
87.9878,-60.3462,-4.04405,0
88.0409,-60.2394,-4.06949,0
88.0916,-60.1315,-4.09468,0
88.1398,-60.0224,-4.11961,0
88.1854,-59.9123,-4.14426,0
88.2286,-59.8011,-4.16863,0
88.2691,-59.689,-4.19272,0
88.3007,-59.574,-4.21756,0
88.3273,-59.4578,-4.24238,0
88.3509,-59.341,-4.26686,0
88.3714,-59.2239,-4.29095,0
88.3889,-59.1064,-4.31468,0
88.4034,-58.9887,-4.338,0
88.4148,-58.8708,-4.36092,0
88.4234,-58.7529,-4.38341,0
88.4289,-58.6349,-4.40547,0
88.4314,-58.5171,-4.42707,0
88.4309,-58.3994,-4.44822,0
88.4277,-58.2819,-4.46889,0
88.423,-58.1649,-4.48893,0
88.4153,-58.0481,-4.50848,0
88.4048,-57.9318,-4.52757,0
88.3915,-57.8159,-4.54614,0
88.3754,-57.7006,-4.56421,0
88.3564,-57.5859,-4.58177,0
88.3348,-57.4719,-4.59881,0
88.3105,-57.3587,-4.61533,0
88.2834,-57.2463,-4.6313,0
88.2559,-57.1344,-4.64658,0
88.227,-57.0232,-4.6612,0
88.1957,-56.9128,-4.67529,0
88.1618,-56.8033,-4.68884,0
88.1255,-56.6948,-4.70185,0
88.0866,-56.5874,-4.71432,0
88.0454,-56.481,-4.72623,0
88.0019,-56.3758,-4.73758,0
87.9559,-56.2717,-4.74838,0
87.9077,-56.1689,-4.75862,0
87.8573,-56.0674,-4.76828,0
87.8046,-55.9673,-4.77739,0
87.7497,-55.8685,-4.78593,0
87.69,-55.7725,-4.79407,0
87.6261,-55.6792,-4.80176,0
87.5603,-55.5876,-4.80886,0
83.2831,-62.3867,-3.14344,0
83.3887,-62.3981,-3.15656,0
83.4948,-62.4076,-3.16998,0
83.6012,-62.4149,-3.18365,0
83.708,-62.4202,-3.19762,0
83.8152,-62.4233,-3.21185,0
83.9227,-62.4243,-3.22636,0
84.0304,-62.4231,-3.24114,0
84.1384,-62.4198,-3.25617,0
84.2466,-62.4143,-3.27147,0
84.3549,-62.4066,-3.28704,0
84.4634,-62.3966,-3.30286,0
84.572,-62.3845,-3.31893,0
84.6807,-62.3701,-3.33525,0
84.7897,-62.3542,-3.35152,0
84.8988,-62.3363,-3.36793,0
85.0078,-62.3161,-3.38459,0
85.1169,-62.2936,-3.40149,0
85.2258,-62.2687,-3.41862,0
85.3346,-62.2415,-3.43601,0
85.4433,-62.212,-3.45361,0
85.5516,-62.1801,-3.47144,0
85.6597,-62.1458,-3.48948,0
85.7676,-62.1091,-3.50775,0
85.8751,-62.0701,-3.52616,0
85.9837,-62.031,-3.54394,0
86.0921,-61.9893,-3.56195,0
86.1999,-61.945,-3.58024,0
86.3073,-61.8981,-3.59877,0
86.4139,-61.8486,-3.61753,0
86.5199,-61.7965,-3.63654,0
86.6252,-61.7417,-3.65577,0
86.7296,-61.6843,-3.67522,0
86.8332,-61.6242,-3.69488,0
86.9358,-61.5615,-3.71475,0
87.0373,-61.4961,-3.73481,0
87.1378,-61.4281,-3.75505,0
87.2287,-61.3506,-3.77809,0
87.3127,-61.2666,-3.80278,0
87.395,-61.1807,-3.82742,0
87.4755,-61.093,-3.85197,0
87.5544,-61.0034,-3.87645,0
87.6313,-60.9119,-3.90083,0
87.7065,-60.8187,-3.92511,0
87.7759,-60.7213,-3.95024,0
87.8377,-60.6193,-3.97647,0
87.8969,-60.5159,-4.00248,0
87.954,-60.4112,-4.02829,0
88.0085,-60.3052,-4.05387,0
88.0607,-60.198,-4.07922,0
88.1104,-60.0896,-4.10431,0
88.1576,-59.9801,-4.12913,0
88.2023,-59.8696,-4.15368,0
88.2445,-59.7581,-4.17795,0
88.2828,-59.6452,-4.20212,0
88.3113,-59.5293,-4.22716,0
88.3367,-59.4129,-4.25185,0
88.3591,-59.296,-4.27618,0
88.3785,-59.1787,-4.30013,0
88.3948,-59.0611,-4.32371,0
88.4082,-58.9433,-4.34687,0
88.4185,-58.8254,-4.36963,0
88.4258,-58.7074,-4.39195,0
88.4302,-58.5895,-4.41384,0
88.4315,-58.4717,-4.43527,0
88.43,-58.3541,-4.45624,0
88.4262,-58.2368,-4.47666,0
88.4204,-58.1199,-4.49652,0
88.4116,-58.0033,-4.51589,0
88.4,-57.8871,-4.53477,0
88.3856,-57.7715,-4.55316,0
88.3684,-57.6564,-4.57104,0
88.3484,-57.542,-4.5884,0
88.3257,-57.4282,-4.60523,0
88.3004,-57.3153,-4.62153,0
88.2723,-57.2032,-4.63731,0
88.2451,-57.0915,-4.65227,0
88.2153,-56.9806,-4.66669,0
88.183,-56.8705,-4.68057,0
88.1481,-56.7614,-4.69392,0
88.1108,-56.6533,-4.70672,0
88.071,-56.5463,-4.71897,0
88.0289,-56.4403,-4.73066,0
87.9845,-56.3356,-4.7418,0
87.9376,-56.232,-4.75238,0
87.8885,-56.1297,-4.7624,0
87.8373,-56.0287,-4.77186,0
87.7837,-55.9291,-4.78074,0
87.728,-55.8308,-4.78907,0
87.6656,-55.7364,-4.7971,0
87.6009,-55.6437,-4.80457,0
83.3084,-62.2782,-3.15853,0
83.4115,-62.2887,-3.17142,0
83.5151,-62.2972,-3.1846,0
83.619,-62.3037,-3.19803,0
83.7234,-62.308,-3.21175,0
83.8279,-62.3103,-3.22572,0
83.9327,-62.3105,-3.23996,0
84.0379,-62.3086,-3.25446,0
84.1433,-62.3046,-3.26922,0
84.2487,-62.2984,-3.28423,0
84.3545,-62.2901,-3.29949,0
84.4602,-62.2796,-3.315,0
84.5661,-62.267,-3.33075,0
84.672,-62.2521,-3.34675,0
84.778,-62.2356,-3.36273,0
84.8843,-62.2173,-3.37881,0
84.9905,-62.1967,-3.39512,0
85.0966,-62.1738,-3.41168,0
85.2026,-62.1487,-3.42845,0
85.3084,-62.1213,-3.44546,0
85.4141,-62.0916,-3.46268,0
85.5195,-62.0595,-3.48013,0
85.6245,-62.0252,-3.49778,0
85.7292,-61.9884,-3.51563,0
85.8336,-61.9494,-3.53369,0
85.9375,-61.908,-3.55194,0
86.0409,-61.8642,-3.57037,0
86.1443,-61.8187,-3.58872,0
86.2481,-61.7721,-3.6068,0
86.3512,-61.7229,-3.62511,0
86.4538,-61.6711,-3.64365,0
86.5555,-61.6168,-3.66239,0
86.6563,-61.5599,-3.68135,0
86.7562,-61.5005,-3.7005,0
86.8552,-61.4384,-3.71985,0
86.9531,-61.3739,-3.73937,0
87.0499,-61.3068,-3.75907,0
87.1455,-61.2372,-3.77892,0
87.2312,-61.1582,-3.80163,0
87.3109,-61.0739,-3.82562,0
87.3888,-60.9879,-3.84953,0
87.4651,-60.9,-3.87335,0
87.5396,-60.8104,-3.89707,0
87.608,-60.7164,-3.92179,0
87.6698,-60.6183,-3.94745,0
87.7295,-60.5187,-3.97293,0
87.7868,-60.4179,-3.9982,0
87.8418,-60.3157,-4.02327,0
87.8944,-60.2124,-4.04811,0
87.9446,-60.1078,-4.07271,0
87.9925,-60.0021,-4.09707,0
88.037,-59.8951,-4.12133,0
88.073,-59.7848,-4.14645,0
88.1061,-59.6738,-4.17128,0
88.1362,-59.562,-4.1958,0
88.1636,-59.4497,-4.22002,0
88.1878,-59.3368,-4.24389,0
88.2091,-59.2235,-4.26743,0
88.2277,-59.1098,-4.29059,0
88.2431,-58.9959,-4.31339,0
88.2557,-58.8817,-4.3358,0
88.2654,-58.7675,-4.3578,0
88.2722,-58.6532,-4.3794,0
88.2761,-58.5389,-4.40056,0
88.2772,-58.4247,-4.42129,0
88.2754,-58.3108,-4.44157,0
88.2719,-58.1971,-4.46125,0
88.266,-58.0838,-4.48046,0
88.2572,-57.9708,-4.49919,0
88.2458,-57.8582,-4.51744,0
88.2315,-57.7461,-4.53523,0
88.2145,-57.6346,-4.55251,0
88.1949,-57.5237,-4.5693,0
88.1727,-57.4135,-4.58558,0
88.1483,-57.304,-4.6013,0
88.1241,-57.1948,-4.61626,0
88.0973,-57.0864,-4.63071,0
88.0681,-56.9788,-4.64465,0
88.0364,-56.8721,-4.65807,0
88.0023,-56.7663,-4.67096,0
87.9658,-56.6614,-4.68332,0
87.9269,-56.5576,-4.69516,0
87.8857,-56.4548,-4.70645,0
87.8422,-56.3532,-4.7172,0
87.7965,-56.2527,-4.72741,0
87.7486,-56.1535,-4.73708,0
87.6984,-56.0556,-4.7462,0
87.6462,-55.959,-4.75477,0
87.5919,-55.8637,-4.76279,0
87.5328,-55.7712,-4.77045,0
87.4699,-55.6813,-4.77766,0
83.2451,-62.2707,-3.15074,0
83.348,-62.2825,-3.16346,0
83.4513,-62.2922,-3.17647,0
83.555,-62.2999,-3.18974,0
83.6591,-62.3056,-3.20328,0
83.7635,-62.3092,-3.2171,0
83.8682,-62.3107,-3.23116,0
83.9733,-62.3101,-3.24551,0
84.0784,-62.3073,-3.26011,0
84.1838,-62.3025,-3.27497,0
84.2895,-62.2955,-3.29008,0
84.3952,-62.2863,-3.30544,0
84.5009,-62.275,-3.32104,0
84.6068,-62.2615,-3.33689,0
84.7127,-62.2458,-3.35295,0
84.819,-62.2289,-3.36888,0
84.9252,-62.2096,-3.38507,0
85.0314,-62.1882,-3.40147,0
85.1374,-62.1644,-3.41811,0
85.2434,-62.1384,-3.43497,0
85.3491,-62.1101,-3.45206,0
85.4547,-62.0795,-3.46938,0
85.56,-62.0466,-3.4869,0
85.6649,-62.0113,-3.50463,0
85.7695,-61.9737,-3.52256,0
85.8736,-61.9337,-3.54069,0
85.9773,-61.8914,-3.55902,0
86.0805,-61.8467,-3.57752,0
86.1843,-61.8011,-3.59566,0
86.2879,-61.7534,-3.61382,0
86.3908,-61.7032,-3.63222,0
86.493,-61.6505,-3.65084,0
86.5944,-61.5952,-3.66967,0
86.6949,-61.5373,-3.6887,0
86.7944,-61.4769,-3.70793,0
86.893,-61.4139,-3.72735,0
86.9905,-61.3484,-3.74694,0
87.0869,-61.2803,-3.7667,0
87.1813,-61.209,-3.78685,0
87.262,-61.126,-3.81088,0
87.3411,-61.041,-3.83484,0
87.4184,-60.9543,-3.85871,0
87.494,-60.8657,-3.8825,0
87.5678,-60.7754,-3.90618,0
87.6321,-60.6788,-3.93169,0
87.6931,-60.5801,-3.95728,0
87.7518,-60.48,-3.98269,0
87.8082,-60.3787,-4.00788,0
87.8623,-60.2761,-4.03286,0
87.914,-60.1722,-4.0576,0
87.9633,-60.0672,-4.08213,0
88.0102,-59.9612,-4.10638,0
88.0512,-59.8527,-4.13104,0
88.0861,-59.7421,-4.15604,0
88.1181,-59.6308,-4.18076,0
88.1471,-59.5188,-4.20516,0
88.1732,-59.4063,-4.22925,0
88.1964,-59.2932,-4.253,0
88.2166,-59.1798,-4.27639,0
88.234,-59.066,-4.29942,0
88.2483,-58.9519,-4.32207,0
88.2598,-58.8377,-4.34432,0
88.2684,-58.7234,-4.36616,0
88.2741,-58.6092,-4.38759,0
88.2769,-58.4949,-4.40859,0
88.2768,-58.3808,-4.42915,0
88.2743,-58.267,-4.44922,0
88.27,-58.1534,-4.4687,0
88.263,-58.0402,-4.48773,0
88.2531,-57.9274,-4.50628,0
88.2405,-57.815,-4.52435,0
88.2252,-57.7031,-4.54194,0
88.2073,-57.5918,-4.55903,0
88.1866,-57.4812,-4.57562,0
88.1634,-57.3712,-4.59171,0
88.1392,-57.2619,-4.60713,0
88.1141,-57.153,-4.62188,0
88.0863,-57.0449,-4.63614,0
88.0562,-56.9376,-4.64988,0
88.0235,-56.8312,-4.66309,0
87.9885,-56.7258,-4.67578,0
87.9511,-56.6213,-4.68794,0
87.9112,-56.5179,-4.69957,0
87.8692,-56.4156,-4.71066,0
87.8249,-56.3144,-4.7212,0
87.7783,-56.2144,-4.7312,0
87.7295,-56.1157,-4.74066,0
87.6786,-56.0182,-4.74957,0
87.6255,-55.9221,-4.75793,0
87.5704,-55.8274,-4.76573,0
87.5088,-55.7364,-4.77329,0
87.4452,-55.6471,-4.78029,0
83.2847,-62.2755,-3.15561,0
83.3877,-62.2865,-3.16843,0
83.4912,-62.2954,-3.18154,0
83.5951,-62.3024,-3.19491,0
83.6993,-62.3072,-3.20857,0
83.8037,-62.31,-3.22248,0
83.9087,-62.3107,-3.23667,0
84.0137,-62.3093,-3.25111,0
84.119,-62.3057,-3.2658,0
84.2244,-62.3001,-3.28075,0
84.3301,-62.2922,-3.29596,0
84.4359,-62.2822,-3.31141,0
84.5417,-62.2701,-3.32711,0
84.6476,-62.2557,-3.34305,0
84.7536,-62.2396,-3.35905,0
84.8598,-62.2217,-3.37508,0
84.9661,-62.2016,-3.39134,0
85.0723,-62.1793,-3.40785,0
85.1783,-62.1547,-3.42457,0
85.2841,-62.1278,-3.44153,0
85.3898,-62.0986,-3.4587,0
85.4953,-62.0671,-3.47609,0
85.6004,-62.0333,-3.4937,0
85.7052,-61.9971,-3.51151,0
85.8096,-61.9586,-3.52951,0
85.9136,-61.9177,-3.54772,0
86.0171,-61.8745,-3.56612,0
86.1203,-61.8291,-3.58459,0
86.2243,-61.783,-3.60262,0
86.3276,-61.7344,-3.62088,0
86.4302,-61.6832,-3.63936,0
86.5321,-61.6295,-3.65806,0
86.6332,-61.5732,-3.67697,0
86.7334,-61.5143,-3.69608,0
86.8325,-61.4529,-3.71538,0
86.9308,-61.389,-3.73486,0
87.0278,-61.3224,-3.75453,0
87.1237,-61.2534,-3.77435,0
87.2126,-61.1773,-3.79611,0
87.2927,-61.0935,-3.82011,0
87.3711,-61.0078,-3.84404,0
87.4477,-60.9204,-3.86787,0
87.5227,-60.8312,-3.89163,0
87.5934,-60.7388,-3.91586,0
87.6559,-60.6409,-3.94157,0
87.716,-60.5417,-3.96709,0
87.7738,-60.4412,-3.99241,0
87.8293,-60.3393,-4.01752,0
87.8825,-60.2362,-4.04242,0
87.9333,-60.1319,-4.06708,0
87.9816,-60.0265,-4.09149,0
88.0277,-59.92,-4.11566,0
88.065,-59.8102,-4.1407,0
88.0988,-59.6994,-4.1656,0
88.1296,-59.5878,-4.19019,0
88.1575,-59.4756,-4.21447,0
88.1825,-59.3628,-4.23843,0
88.2046,-59.2496,-4.26205,0
88.2237,-59.136,-4.28531,0
88.2398,-59.0221,-4.30818,0
88.253,-58.908,-4.33068,0
88.2634,-58.7937,-4.35278,0
88.2709,-58.6794,-4.37447,0
88.2755,-58.5652,-4.39572,0
88.2772,-58.451,-4.41656,0
88.2761,-58.337,-4.43694,0
88.273,-58.2232,-4.45677,0
88.2676,-58.1098,-4.47608,0
88.2595,-57.9967,-4.49492,0
88.2486,-57.884,-4.51329,0
88.235,-57.7718,-4.53118,0
88.2187,-57.6602,-4.54858,0
88.1997,-57.5491,-4.56549,0
88.178,-57.4387,-4.58188,0
88.1537,-57.3291,-4.59777,0
88.1298,-57.2199,-4.61286,0
88.1037,-57.1113,-4.62744,0
88.0751,-57.0035,-4.64149,0
88.0439,-56.8966,-4.65503,0
88.0104,-56.7905,-4.66804,0
87.9744,-56.6854,-4.68053,0
87.936,-56.5814,-4.69248,0
87.8954,-56.4783,-4.7039,0
87.8524,-56.3765,-4.71478,0
87.8073,-56.2757,-4.72511,0
87.7598,-56.1762,-4.73491,0
87.7102,-56.078,-4.74415,0
87.6584,-55.9811,-4.75285,0
87.6046,-55.8855,-4.761,0
87.547,-55.7921,-4.7687,0
87.4845,-55.7019,-4.77605,0
83.3092,-62.1717,-3.17009,0
83.41,-62.1818,-3.18271,0
83.5111,-62.1898,-3.1956,0
83.6126,-62.1959,-3.20874,0
83.7144,-62.1999,-3.22215,0
83.8164,-62.2019,-3.23582,0
83.9187,-62.2019,-3.24974,0
84.0213,-62.1998,-3.26391,0
84.1241,-62.1955,-3.27835,0
84.227,-62.1892,-3.29302,0
84.3301,-62.1808,-3.30794,0
84.4333,-62.1703,-3.32309,0
84.5365,-62.1576,-3.33849,0
84.6397,-62.1428,-3.35412,0
84.743,-62.1262,-3.36984,0
84.8466,-62.1079,-3.38555,0
84.95,-62.0875,-3.40149,0
85.0534,-62.0648,-3.41765,0
85.1566,-62.04,-3.43404,0
85.2597,-62.0128,-3.45064,0
85.3625,-61.9835,-3.46745,0
85.4651,-61.9519,-3.48447,0
85.5673,-61.918,-3.50169,0
85.6691,-61.8818,-3.51911,0
85.7706,-61.8434,-3.53673,0
85.8716,-61.8026,-3.55452,0
85.9722,-61.7595,-3.5725,0
86.072,-61.7142,-3.59065,0
86.1714,-61.6665,-3.60898,0
86.2702,-61.6165,-3.62746,0
86.3681,-61.5641,-3.6461,0
86.4664,-61.5106,-3.66445,0
86.5641,-61.4548,-3.6829,0
86.6609,-61.3966,-3.70152,0
86.7566,-61.3359,-3.72032,0
86.8513,-61.2727,-3.7393,0
86.945,-61.207,-3.75844,0
87.0374,-61.1389,-3.77774,0
87.1287,-61.0684,-3.79717,0
87.2127,-60.9911,-3.81851,0
87.2887,-60.9071,-3.84181,0
87.363,-60.8213,-3.86504,0
87.4326,-60.7321,-3.88892,0
87.4951,-60.6379,-3.91406,0
87.5554,-60.5424,-3.93905,0
87.6134,-60.4456,-3.96385,0
87.6694,-60.3474,-3.98846,0
87.7229,-60.248,-4.01287,0
87.7722,-60.1465,-4.0375,0
87.8158,-60.0424,-4.06259,0
87.8566,-59.9373,-4.08747,0
87.8945,-59.8313,-4.1121,0
87.9297,-59.7245,-4.13646,0
87.9621,-59.6169,-4.16057,0
87.9916,-59.5086,-4.18439,0
88.0183,-59.3997,-4.20789,0
88.0422,-59.2903,-4.23108,0
88.0631,-59.1805,-4.25393,0
88.0814,-59.0703,-4.27644,0
88.0967,-58.9598,-4.29858,0
88.1092,-58.8492,-4.32035,0
88.1189,-58.7383,-4.34175,0
88.1259,-58.6275,-4.36274,0
88.13,-58.5166,-4.38332,0
88.1314,-58.4059,-4.40347,0
88.13,-58.2953,-4.4232,0
88.1272,-58.185,-4.44234,0
88.1217,-58.075,-4.46101,0
88.1135,-57.9653,-4.47924,0
88.1027,-57.856,-4.49702,0
88.0891,-57.7472,-4.51433,0
88.073,-57.6389,-4.53116,0
88.0543,-57.5312,-4.54753,0
88.0334,-57.4241,-4.56335,0
88.0126,-57.3174,-4.57842,0
87.9893,-57.2113,-4.593,0
87.9635,-57.1059,-4.6071,0
87.9354,-57.0012,-4.62069,0
87.9048,-56.8974,-4.63378,0
87.8719,-56.7945,-4.64636,0
87.8367,-56.6925,-4.65842,0
87.7991,-56.5915,-4.66998,0
87.7594,-56.4915,-4.68101,0
87.7173,-56.3926,-4.69151,0
87.6731,-56.2949,-4.7015,0
87.6267,-56.1983,-4.71094,0
87.5783,-56.103,-4.71986,0
87.5277,-56.0089,-4.72826,0
87.4752,-55.9161,-4.73611,0
87.4205,-55.8248,-4.74343,0
87.3597,-55.737,-4.75054,0
83.2475,-62.1646,-3.16248,0
83.348,-62.1758,-3.17492,0
83.4488,-62.1851,-3.18763,0
83.5501,-62.1924,-3.20063,0
83.6517,-62.1977,-3.21387,0
83.7536,-62.201,-3.22738,0
83.8558,-62.2022,-3.24115,0
83.9583,-62.2013,-3.25516,0
84.0609,-62.1984,-3.26944,0
84.1637,-62.1934,-3.28397,0
84.2668,-62.1863,-3.29873,0
84.3698,-62.177,-3.31374,0
84.473,-62.1657,-3.32899,0
84.5762,-62.1522,-3.34448,0
84.6795,-62.1365,-3.36019,0
84.7829,-62.1194,-3.37587,0
84.8864,-62.1003,-3.39167,0
84.9898,-62.079,-3.40769,0
85.0931,-62.0555,-3.42394,0
85.1963,-62.0298,-3.4404,0
85.2992,-62.0018,-3.45708,0
85.402,-61.9716,-3.47398,0
85.5044,-61.9391,-3.49108,0
85.6066,-61.9043,-3.50838,0
85.7083,-61.8673,-3.52587,0
85.8095,-61.8279,-3.54356,0
85.9104,-61.7863,-3.56142,0
86.0107,-61.7424,-3.57946,0
86.1105,-61.6961,-3.59769,0
86.2095,-61.6475,-3.61607,0
86.308,-61.5966,-3.63461,0
86.4059,-61.5436,-3.65321,0
86.5041,-61.4894,-3.67153,0
86.6014,-61.4327,-3.69004,0
86.6979,-61.3735,-3.70874,0
86.7932,-61.3118,-3.72762,0
86.8876,-61.2477,-3.74665,0
86.9808,-61.1811,-3.76586,0
87.0727,-61.1121,-3.78521,0
87.1634,-61.0406,-3.80469,0
87.2422,-60.959,-3.82748,0
87.3175,-60.8743,-3.85076,0
87.391,-60.7878,-3.87395,0
87.457,-60.696,-3.89862,0
87.5186,-60.6013,-3.92371,0
87.578,-60.5053,-3.94862,0
87.6352,-60.4079,-3.97336,0
87.6902,-60.3093,-3.99789,0
87.7429,-60.2094,-4.02221,0
87.7893,-60.1065,-4.04718,0
87.8318,-60.0021,-4.0722,0
87.8715,-59.8966,-4.09698,0
87.9084,-59.7903,-4.12152,0
87.9425,-59.6831,-4.14578,0
87.9738,-59.5753,-4.16977,0
88.0022,-59.4668,-4.19347,0
88.0278,-59.3577,-4.21685,0
88.0505,-59.2481,-4.23991,0
88.0705,-59.1381,-4.26264,0
88.0876,-59.0278,-4.28501,0
88.1019,-58.9172,-4.30701,0
88.1134,-58.8065,-4.32864,0
88.1219,-58.6957,-4.34988,0
88.1278,-58.5848,-4.37071,0
88.1309,-58.474,-4.39113,0
88.1312,-58.3633,-4.41112,0
88.1293,-58.2528,-4.43062,0
88.1254,-58.1427,-4.44958,0
88.1188,-58.0328,-4.46809,0
88.1097,-57.9232,-4.48615,0
88.0977,-57.8141,-4.50374,0
88.0833,-57.7054,-4.52087,0
88.0662,-57.5973,-4.53753,0
88.0465,-57.4899,-4.55369,0
88.0257,-57.3829,-4.56921,0
88.0039,-57.2764,-4.58409,0
87.9797,-57.1706,-4.59849,0
87.953,-57.0655,-4.61239,0
87.924,-56.9612,-4.62579,0
87.8924,-56.8577,-4.63868,0
87.8587,-56.7551,-4.65107,0
87.8226,-56.6535,-4.66293,0
87.7841,-56.5529,-4.67428,0
87.7434,-56.4533,-4.68511,0
87.7005,-56.3549,-4.69542,0
87.6555,-56.2575,-4.7052,0
87.6084,-56.1614,-4.71445,0
87.5591,-56.0666,-4.72316,0
87.5077,-55.973,-4.73134,0
87.4543,-55.8808,-4.73899,0
87.3973,-55.7908,-4.74623,0
87.3358,-55.7037,-4.75313,0
83.2861,-62.1691,-3.16723,0
83.3867,-62.1796,-3.17979,0
83.4878,-62.1882,-3.19261,0
83.5892,-62.1947,-3.2057,0
83.6909,-62.1992,-3.21904,0
83.7929,-62.2017,-3.23264,0
83.8952,-62.2021,-3.24652,0
83.9977,-62.2004,-3.26063,0
84.1005,-62.1967,-3.27501,0
84.2034,-62.1909,-3.28963,0
84.3064,-62.183,-3.30448,0
84.4096,-62.1729,-3.31959,0
84.5127,-62.1607,-3.33492,0
84.6159,-62.1464,-3.3505,0
84.7192,-62.13,-3.36626,0
84.8227,-62.1123,-3.38192,0
84.9262,-62.0924,-3.3978,0
85.0296,-62.0702,-3.41392,0
85.1329,-62.0459,-3.43025,0
85.236,-62.0193,-3.4468,0
85.3388,-61.9904,-3.46357,0
85.4415,-61.9593,-3.48054,0
85.5437,-61.926,-3.49771,0
85.6458,-61.8903,-3.51508,0
85.7473,-61.8524,-3.53265,0
85.8484,-61.8122,-3.55041,0
85.9491,-61.7697,-3.56835,0
86.0491,-61.7248,-3.58646,0
86.1487,-61.6777,-3.60475,0
86.2475,-61.6282,-3.62319,0
86.3457,-61.5764,-3.6418,0
86.4437,-61.523,-3.66025,0
86.5417,-61.4679,-3.67863,0
86.6387,-61.4102,-3.69722,0
86.7348,-61.35,-3.71599,0
86.8298,-61.2874,-3.73493,0
86.9236,-61.2224,-3.75403,0
87.0163,-61.1548,-3.77329,0
87.1078,-61.0848,-3.79269,0
87.195,-61.0102,-3.81314,0
87.2714,-60.9266,-3.83647,0
87.3459,-60.8412,-3.8597,0
87.418,-60.7535,-3.88311,0
87.4809,-60.6597,-3.9083,0
87.5418,-60.5645,-3.93333,0
87.6004,-60.468,-3.95817,0
87.6566,-60.3701,-3.98282,0
87.7108,-60.271,-4.00727,0
87.7618,-60.1703,-4.0317,0
87.8059,-60.0664,-4.05684,0
87.8474,-59.9616,-4.08177,0
87.886,-59.8558,-4.10646,0
87.9219,-59.7491,-4.13089,0
87.9548,-59.6417,-4.15506,0
87.985,-59.5336,-4.17894,0
88.0124,-59.4248,-4.20251,0
88.0369,-59.3156,-4.22578,0
88.0586,-59.2058,-4.24871,0
88.0774,-59.0957,-4.2713,0
88.0934,-58.9853,-4.29353,0
88.1066,-58.8746,-4.31539,0
88.117,-58.7638,-4.33686,0
88.1245,-58.653,-4.35795,0
88.1293,-58.5421,-4.37862,0
88.1313,-58.4313,-4.39888,0
88.1305,-58.3207,-4.41871,0
88.128,-58.2104,-4.43798,0
88.1232,-58.1003,-4.45675,0
88.1156,-57.9905,-4.47509,0
88.1054,-57.8811,-4.49297,0
88.0925,-57.7722,-4.51039,0
88.077,-57.6637,-4.52734,0
88.0588,-57.5559,-4.5438,0
88.0382,-57.4487,-4.55978,0
88.0176,-57.3418,-4.575,0
87.9949,-57.2356,-4.58969,0
87.9697,-57.13,-4.60389,0
87.9421,-57.0252,-4.6176,0
87.9121,-56.9212,-4.63082,0
87.8797,-56.8181,-4.64351,0
87.845,-56.7159,-4.65569,0
87.808,-56.6146,-4.66737,0
87.7687,-56.5144,-4.67851,0
87.7272,-56.4153,-4.68914,0
87.6834,-56.3172,-4.69924,0
87.6376,-56.2204,-4.70883,0
87.5896,-56.1248,-4.71786,0
87.5395,-56.0304,-4.72637,0
87.4874,-55.9374,-4.73435,0
87.4333,-55.8456,-4.7418,0
87.3738,-55.7571,-4.74895,0
83.3101,-62.0697,-3.18118,0
83.4084,-62.0794,-3.19352,0
83.5073,-62.087,-3.20613,0
83.6064,-62.0927,-3.21899,0
83.7058,-62.0964,-3.23211,0
83.8054,-62.0982,-3.24548,0
83.9054,-62.0979,-3.2591,0
84.0055,-62.0956,-3.27297,0
84.1058,-62.0912,-3.28707,0
84.2063,-62.0848,-3.30143,0
84.3069,-62.0763,-3.31602,0
84.4076,-62.0657,-3.33083,0
84.5082,-62.0531,-3.34589,0
84.6088,-62.0383,-3.36116,0
84.7095,-62.0215,-3.37664,0
84.8105,-62.0033,-3.392,0
84.9113,-61.9831,-3.40757,0
85.0121,-61.9606,-3.42337,0
85.1127,-61.936,-3.43937,0
85.213,-61.9092,-3.45559,0
85.3132,-61.8802,-3.47201,0
85.413,-61.8491,-3.48862,0
85.5127,-61.8156,-3.50544,0
85.6118,-61.78,-3.52243,0
85.7105,-61.7422,-3.53963,0
85.8087,-61.7021,-3.55698,0
85.9066,-61.6597,-3.57453,0
86.0037,-61.6151,-3.59223,0
86.1004,-61.5683,-3.6101,0
86.1963,-61.5191,-3.62812,0
86.2916,-61.4678,-3.64629,0
86.386,-61.4141,-3.6646,0
86.4797,-61.3582,-3.68305,0
86.5724,-61.3,-3.70162,0
86.6642,-61.2396,-3.72032,0
86.7551,-61.1769,-3.73912,0
86.8455,-61.1124,-3.75785,0
86.9349,-61.0458,-3.77661,0
87.0232,-60.9768,-3.7955,0
87.1102,-60.9055,-3.81452,0
87.193,-60.83,-3.83444,0
87.2637,-60.7451,-3.85756,0
87.3267,-60.6549,-3.88221,0
87.3877,-60.5632,-3.90672,0
87.4441,-60.4689,-3.93166,0
87.4971,-60.3727,-3.95672,0
87.5476,-60.2752,-3.98162,0
87.5954,-60.1765,-4.00637,0
87.6405,-60.0766,-4.03093,0
87.683,-59.9757,-4.0553,0
87.7228,-59.8738,-4.07945,0
87.7599,-59.7711,-4.10337,0
87.7943,-59.6675,-4.12704,0
87.8259,-59.5631,-4.15045,0
87.8548,-59.4581,-4.17359,0
87.881,-59.3525,-4.19642,0
87.9044,-59.2464,-4.21895,0
87.925,-59.1399,-4.24116,0
87.943,-59.033,-4.26305,0
87.9582,-58.9258,-4.28458,0
87.9706,-58.8183,-4.30575,0
87.9803,-58.7108,-4.32655,0
87.9874,-58.6032,-4.34697,0
87.9917,-58.4956,-4.36699,0
87.9934,-58.3881,-4.38662,0
87.9925,-58.2807,-4.4058,0
87.9901,-58.1736,-4.42441,0
87.985,-58.0667,-4.4426,0
87.9774,-57.9602,-4.46035,0
87.9672,-57.854,-4.47768,0
87.9544,-57.7482,-4.49454,0
87.939,-57.643,-4.51093,0
87.9213,-57.5383,-4.52686,0
87.9038,-57.4339,-4.54201,0
87.8838,-57.3301,-4.55671,0
87.8614,-57.2268,-4.57093,0
87.8366,-57.1243,-4.58467,0
87.8094,-57.0225,-4.59794,0
87.7799,-56.9215,-4.61071,0
87.7482,-56.8213,-4.62299,0
87.7141,-56.7221,-4.63477,0
87.6779,-56.6237,-4.64606,0
87.6393,-56.5264,-4.65684,0
87.5987,-56.4301,-4.66711,0
87.5559,-56.3349,-4.67687,0
87.511,-56.2408,-4.68611,0
87.4641,-56.148,-4.69484,0
87.415,-56.0563,-4.70305,0
87.3641,-55.966,-4.71075,0
87.3112,-55.8769,-4.71792,0
87.2548,-55.7901,-4.72471,0
83.2498,-62.0629,-3.17372,0
83.3479,-62.0737,-3.1859,0
83.4465,-62.0825,-3.19835,0
83.5454,-62.0895,-3.21105,0
83.6446,-62.0944,-3.22402,0
83.7441,-62.0973,-3.23723,0
83.8439,-62.0983,-3.2507,0
83.9439,-62.0972,-3.26441,0
84.0441,-62.0941,-3.27838,0
84.1445,-62.089,-3.29257,0
84.245,-62.0818,-3.30701,0
84.3456,-62.0725,-3.32169,0
84.4463,-62.0611,-3.3366,0
84.547,-62.0476,-3.35174,0
84.6476,-62.0321,-3.3671,0
84.7484,-62.0148,-3.38253,0
84.8493,-61.9958,-3.39797,0
84.9501,-61.9747,-3.41363,0
85.0509,-61.9514,-3.4295,0
85.1513,-61.926,-3.44559,0
85.2516,-61.8983,-3.46189,0
85.3516,-61.8685,-3.47838,0
85.4514,-61.8365,-3.49507,0
85.5509,-61.8022,-3.51196,0
85.6498,-61.7657,-3.52903,0
85.7484,-61.727,-3.54629,0
85.8466,-61.686,-3.56372,0
85.9441,-61.6428,-3.58133,0
86.0411,-61.5973,-3.59909,0
86.1374,-61.5496,-3.61702,0
86.2331,-61.4996,-3.6351,0
86.328,-61.4474,-3.65333,0
86.4221,-61.3929,-3.67169,0
86.5155,-61.3361,-3.69019,0
86.6079,-61.277,-3.70882,0
86.6994,-61.2157,-3.72756,0
86.7898,-61.1522,-3.74639,0
86.88,-61.087,-3.76505,0
86.9691,-61.0195,-3.78387,0
87.0568,-60.9496,-3.80281,0
87.1432,-60.8774,-3.82187,0
87.221,-60.7979,-3.84317,0
87.2882,-60.7105,-3.86707,0
87.3504,-60.6198,-3.89167,0
87.4103,-60.5274,-3.91618,0
87.4648,-60.432,-3.94132,0
87.5169,-60.3353,-3.96633,0
87.5662,-60.2373,-3.99117,0
87.6131,-60.1381,-4.01586,0
87.6572,-60.0379,-4.04034,0
87.6986,-59.9366,-4.06462,0
87.7373,-59.8344,-4.08869,0
87.7734,-59.7313,-4.11252,0
87.8067,-59.6274,-4.13609,0
87.8373,-59.5228,-4.15939,0
87.8652,-59.4175,-4.18241,0
87.8903,-59.3117,-4.20513,0
87.9127,-59.2054,-4.22755,0
87.9323,-59.0987,-4.24963,0
87.9491,-58.9917,-4.27137,0
87.9633,-58.8844,-4.29278,0
87.9747,-58.7769,-4.31381,0
87.9834,-58.6694,-4.33446,0
87.9894,-58.5618,-4.35473,0
87.9927,-58.4542,-4.3746,0
87.9933,-58.3467,-4.39406,0
87.9919,-58.2394,-4.41301,0
87.9885,-58.1324,-4.43147,0
87.9824,-58.0257,-4.44949,0
87.9737,-57.9193,-4.46707,0
87.9625,-57.8132,-4.48422,0
87.9487,-57.7077,-4.5009,0
87.9324,-57.6026,-4.51713,0
87.9149,-57.498,-4.53274,0
87.8963,-57.3938,-4.54773,0
87.8755,-57.2902,-4.56223,0
87.8521,-57.1873,-4.57628,0
87.8265,-57.085,-4.58984,0
87.7984,-56.9835,-4.60292,0
87.768,-56.8828,-4.6155,0
87.7354,-56.783,-4.62759,0
87.7004,-56.6841,-4.63918,0
87.6633,-56.5861,-4.65027,0
87.624,-56.4892,-4.66085,0
87.5825,-56.3933,-4.67092,0
87.5388,-56.2985,-4.68049,0
87.4931,-56.2049,-4.68953,0
87.4454,-56.1126,-4.69806,0
87.3956,-56.0214,-4.70608,0
87.3439,-55.9315,-4.71358,0
87.2903,-55.843,-4.72055,0
87.2316,-55.7576,-4.72726,0
83.2875,-62.0673,-3.17838,0
83.3859,-62.0773,-3.19067,0
83.4845,-62.0855,-3.2032,0
83.5835,-62.0916,-3.21601,0
83.6829,-62.0958,-3.22907,0
83.7825,-62.0979,-3.24238,0
83.8824,-62.0981,-3.25594,0
83.9824,-62.0963,-3.26976,0
84.0827,-62.0924,-3.28381,0
84.1831,-62.0864,-3.2981,0
84.2837,-62.0784,-3.31264,0
84.3844,-62.0683,-3.32741,0
84.4851,-62.0562,-3.3424,0
84.5857,-62.0419,-3.35763,0
84.6863,-62.0255,-3.37307,0
84.7873,-62.0077,-3.38844,0
84.8881,-61.9879,-3.40398,0
84.9889,-61.966,-3.41972,0
85.0895,-61.9419,-3.43567,0
85.19,-61.9156,-3.45184,0
85.2902,-61.8871,-3.4682,0
85.3901,-61.8564,-3.48478,0
85.4898,-61.8235,-3.50154,0
85.589,-61.7884,-3.51851,0
85.6878,-61.7511,-3.53566,0
85.7862,-61.7115,-3.55298,0
85.8842,-61.6696,-3.57048,0
85.9815,-61.6256,-3.58815,0
86.0783,-61.5792,-3.60598,0
86.1743,-61.5306,-3.62396,0
86.2698,-61.4798,-3.6421,0
86.3644,-61.4267,-3.66038,0
86.4582,-61.3713,-3.6788,0
86.5512,-61.3136,-3.69734,0
86.6432,-61.2537,-3.71601,0
86.7343,-61.1915,-3.7348,0
86.8247,-61.1274,-3.75356,0
86.9145,-61.0613,-3.77228,0
87.003,-60.9929,-3.79114,0
87.0902,-60.9221,-3.81013,0
87.1761,-60.8489,-3.82924,0
87.2488,-60.7656,-3.85189,0
87.3124,-60.6758,-3.87656,0
87.3737,-60.5844,-3.90109,0
87.4316,-60.4908,-3.92588,0
87.4852,-60.3949,-3.95096,0
87.5362,-60.2977,-3.97591,0
87.5846,-60.1993,-4.0007,0
87.6304,-60.0997,-4.02531,0
87.6735,-59.999,-4.04971,0
87.7139,-59.8974,-4.07391,0
87.7516,-59.7948,-4.09789,0
87.7866,-59.6914,-4.12162,0
87.8188,-59.5872,-4.14509,0
87.8484,-59.4823,-4.16829,0
87.8752,-59.3769,-4.1912,0
87.8992,-59.2709,-4.2138,0
87.9205,-59.1644,-4.2361,0
87.9391,-59.0576,-4.25805,0
87.9549,-58.9504,-4.27966,0
87.968,-58.8431,-4.30091,0
87.9784,-58.7355,-4.32181,0
87.986,-58.6279,-4.34232,0
87.991,-58.5203,-4.36243,0
87.9933,-58.4128,-4.38214,0
87.9928,-58.3054,-4.40144,0
87.9909,-58.1982,-4.42018,0
87.9865,-58.0913,-4.43846,0
87.9794,-57.9847,-4.45632,0
87.9697,-57.8784,-4.47373,0
87.9575,-57.7725,-4.49069,0
87.9427,-57.6671,-4.50721,0
87.9255,-57.5623,-4.52325,0
87.908,-57.4578,-4.53856,0
87.8886,-57.3539,-4.55337,0
87.8668,-57.2505,-4.5677,0
87.8425,-57.1478,-4.58155,0
87.8159,-57.0458,-4.59493,0
87.7869,-56.9447,-4.60781,0
87.7557,-56.8443,-4.62022,0
87.7222,-56.7448,-4.63211,0
87.6864,-56.6462,-4.64351,0
87.6484,-56.5487,-4.6544,0
87.6083,-56.4521,-4.66479,0
87.5659,-56.3567,-4.67467,0
87.5215,-56.2624,-4.68403,0
87.4751,-56.1692,-4.69288,0
87.4265,-56.0773,-4.70122,0
87.3759,-55.9866,-4.70903,0
87.3235,-55.8973,-4.71632,0
87.2684,-55.8096,-4.72316,0
83.3109,-61.972,-3.1918,0
83.4071,-61.9812,-3.20388,0
83.5036,-61.9885,-3.21623,0
83.6004,-61.9938,-3.22883,0
83.6975,-61.9973,-3.24166,0
83.7949,-61.9987,-3.25474,0
83.8925,-61.9982,-3.26807,0
83.9904,-61.9957,-3.28164,0
84.0883,-61.9912,-3.29544,0
84.1864,-61.9847,-3.30948,0
84.2846,-61.9762,-3.32375,0
84.3828,-61.9656,-3.33824,0
84.4811,-61.953,-3.35297,0
84.5794,-61.9383,-3.36791,0
84.6775,-61.9215,-3.38306,0
84.7759,-61.9033,-3.39817,0
84.8743,-61.8832,-3.4134,0
84.9726,-61.861,-3.42883,0
85.0705,-61.8366,-3.44447,0
85.1684,-61.8102,-3.46032,0
85.2661,-61.7815,-3.47636,0
85.3634,-61.7508,-3.49259,0
85.4604,-61.7178,-3.50902,0
85.557,-61.6827,-3.52561,0
85.6531,-61.6455,-3.54239,0
85.7487,-61.606,-3.55935,0
85.844,-61.5644,-3.57647,0
85.9385,-61.5205,-3.59374,0
86.0326,-61.4745,-3.61117,0
86.1259,-61.4262,-3.62875,0
86.2185,-61.3758,-3.64648,0
86.3103,-61.3231,-3.66434,0
86.4013,-61.2683,-3.68232,0
86.4915,-61.2112,-3.70042,0
86.5807,-61.152,-3.71865,0
86.6689,-61.0905,-3.73697,0
86.7562,-61.0269,-3.7554,0
86.8423,-60.961,-3.77391,0
86.9272,-60.893,-3.79251,0
87.011,-60.8229,-3.81117,0
87.0902,-60.7483,-3.83091,0
87.154,-60.6624,-3.85487,0
87.2139,-60.5738,-3.87926,0
87.2704,-60.4831,-3.90383,0
87.3245,-60.3911,-3.92829,0
87.3762,-60.2977,-3.95262,0
87.4253,-60.2031,-3.97682,0
87.4719,-60.1074,-4.00086,0
87.5159,-60.0105,-4.02472,0
87.5573,-59.9126,-4.04839,0
87.5961,-59.8138,-4.07186,0
87.6324,-59.714,-4.0951,0
87.6659,-59.6135,-4.11811,0
87.697,-59.5122,-4.14086,0
87.7252,-59.4103,-4.16336,0
87.7509,-59.3078,-4.18556,0
87.7738,-59.2048,-4.20747,0
87.7942,-59.1014,-4.22907,0
87.812,-58.9976,-4.25035,0
87.827,-58.8935,-4.27131,0
87.8393,-58.7891,-4.29191,0
87.849,-58.6847,-4.31215,0
87.8562,-58.5802,-4.33202,0
87.8606,-58.4756,-4.35153,0
87.8625,-58.3712,-4.37063,0
87.8621,-58.2668,-4.38929,0
87.8601,-58.1628,-4.40742,0
87.8554,-58.0589,-4.42514,0
87.8483,-57.9553,-4.44244,0
87.8385,-57.8521,-4.45931,0
87.8264,-57.7492,-4.47575,0
87.812,-57.6469,-4.49171,0
87.7975,-57.5448,-4.50695,0
87.7807,-57.4432,-4.52174,0
87.7614,-57.3421,-4.53607,0
87.7398,-57.2417,-4.54995,0
87.7159,-57.1419,-4.56336,0
87.6897,-57.0427,-4.57632,0
87.6612,-56.9444,-4.58878,0
87.6305,-56.8468,-4.60077,0
87.5976,-56.7501,-4.61228,0
87.5624,-56.6544,-4.62331,0
87.5252,-56.5595,-4.63385,0
87.4859,-56.4657,-4.64389,0
87.4444,-56.373,-4.65344,0
87.4009,-56.2813,-4.66248,0
87.3553,-56.1908,-4.67103,0
87.3079,-56.1015,-4.67906,0
87.2584,-56.0134,-4.6866,0
87.2071,-55.9266,-4.69365,0
87.1537,-55.8412,-4.70019,0
83.252,-61.9654,-3.1845,0
83.3479,-61.9757,-3.19643,0
83.4442,-61.9842,-3.20861,0
83.5409,-61.9908,-3.22104,0
83.6377,-61.9954,-3.23373,0
83.735,-61.9981,-3.24667,0
83.8325,-61.9988,-3.25985,0
83.9302,-61.9975,-3.27327,0
84.028,-61.9942,-3.28692,0
84.1261,-61.9889,-3.30082,0
84.2241,-61.9816,-3.31495,0
84.3224,-61.9723,-3.32931,0
84.4206,-61.961,-3.34388,0
84.519,-61.9476,-3.35869,0
84.6172,-61.9321,-3.37371,0
84.7154,-61.9146,-3.38892,0
84.8138,-61.8958,-3.40401,0
84.9121,-61.8749,-3.41931,0
85.0103,-61.8519,-3.43483,0
85.1083,-61.8267,-3.45055,0
85.2061,-61.7994,-3.46647,0
85.3035,-61.77,-3.48259,0
85.4007,-61.7384,-3.49889,0
85.4977,-61.7046,-3.51538,0
85.5941,-61.6686,-3.53205,0
85.69,-61.6305,-3.5489,0
85.7855,-61.5902,-3.56591,0
85.8805,-61.5477,-3.58309,0
85.9748,-61.503,-3.60044,0
86.0686,-61.4562,-3.61792,0
86.1616,-61.4071,-3.63556,0
86.2539,-61.3558,-3.65334,0
86.3455,-61.3023,-3.67124,0
86.4362,-61.2466,-3.68927,0
86.5259,-61.1887,-3.70742,0
86.6148,-61.1286,-3.72569,0
86.7026,-61.0663,-3.74405,0
86.7894,-61.0018,-3.76251,0
86.8751,-60.9351,-3.78106,0
86.9595,-60.8663,-3.79968,0
87.0429,-60.7953,-3.81838,0
87.115,-60.7154,-3.84014,0
87.1779,-60.6288,-3.86411,0
87.2359,-60.539,-3.88874,0
87.2916,-60.4478,-3.91326,0
87.3447,-60.3553,-3.93768,0
87.3953,-60.2615,-3.96196,0
87.4435,-60.1664,-3.9861,0
87.4891,-60.0702,-4.01007,0
87.5321,-59.9729,-4.03386,0
87.5726,-59.8747,-4.05745,0
87.6104,-59.7755,-4.08084,0
87.6456,-59.6754,-4.104,0
87.6781,-59.5746,-4.1269,0
87.7081,-59.4731,-4.14956,0
87.7354,-59.3709,-4.17194,0
87.7601,-59.2682,-4.19403,0
87.782,-59.165,-4.21583,0
87.8013,-59.0614,-4.23731,0
87.818,-58.9575,-4.25846,0
87.832,-58.8533,-4.27928,0
87.8434,-58.7489,-4.29975,0
87.8521,-58.6444,-4.31986,0
87.8582,-58.5399,-4.33958,0
87.8616,-58.4354,-4.35893,0
87.8626,-58.331,-4.37788,0
87.8616,-58.2268,-4.39632,0
87.8586,-58.1227,-4.41429,0
87.853,-58.019,-4.43185,0
87.8448,-57.9155,-4.44899,0
87.8341,-57.8124,-4.46569,0
87.821,-57.7098,-4.48196,0
87.8067,-57.6075,-4.49763,0
87.7913,-57.5056,-4.51269,0
87.7735,-57.4042,-4.52731,0
87.7534,-57.3034,-4.54147,0
87.7309,-57.2032,-4.55516,0
87.7062,-57.1036,-4.56841,0
87.679,-57.0048,-4.58116,0
87.6497,-56.9067,-4.59346,0
87.618,-56.8095,-4.60527,0
87.5843,-56.7132,-4.61659,0
87.5484,-56.6177,-4.62742,0
87.5102,-56.5233,-4.63777,0
87.4701,-56.4299,-4.64762,0
87.4278,-56.3376,-4.65698,0
87.3836,-56.2463,-4.66583,0
87.3373,-56.1563,-4.67419,0
87.2891,-56.0674,-4.68204,0
87.2389,-55.9798,-4.68938,0
87.1869,-55.8935,-4.69622,0
87.1319,-55.8091,-4.70265,0
83.2889,-61.9696,-3.18906,0
83.3849,-61.9792,-3.20109,0
83.4814,-61.987,-3.21337,0
83.5781,-61.9928,-3.2259,0
83.6752,-61.9967,-3.23868,0
83.7725,-61.9986,-3.25172,0
83.8702,-61.9985,-3.26499,0
83.9678,-61.9965,-3.2785,0
84.0658,-61.9924,-3.29225,0
84.1638,-61.9864,-3.30623,0
84.262,-61.9783,-3.32045,0
84.3602,-61.9682,-3.33489,0
84.4585,-61.9561,-3.34956,0
84.5567,-61.9418,-3.36445,0
84.655,-61.9256,-3.37955,0
84.7533,-61.9076,-3.3947,0
84.8517,-61.888,-3.40987,0
84.9499,-61.8663,-3.42527,0
85.048,-61.8424,-3.44085,0
85.1459,-61.8164,-3.45666,0
85.2436,-61.7883,-3.47265,0
85.341,-61.758,-3.48884,0
85.438,-61.7256,-3.50522,0
85.5348,-61.691,-3.52178,0
85.631,-61.6542,-3.53852,0
85.7268,-61.6153,-3.55543,0
85.8221,-61.5741,-3.57252,0
85.9169,-61.5308,-3.58975,0
86.011,-61.4852,-3.60715,0
86.1045,-61.4375,-3.62469,0
86.1973,-61.3876,-3.64239,0
86.2893,-61.3354,-3.66021,0
86.3805,-61.2811,-3.67818,0
86.4709,-61.2245,-3.69625,0
86.5602,-61.1658,-3.71445,0
86.6487,-61.1048,-3.73275,0
86.7362,-61.0417,-3.75115,0
86.8225,-60.9764,-3.76964,0
86.9077,-60.9089,-3.78821,0
86.9918,-60.8392,-3.80688,0
87.0746,-60.7674,-3.82559,0
87.1395,-60.6823,-3.84936,0
87.2005,-60.5944,-3.8736,0
87.2577,-60.5041,-3.89819,0
87.3123,-60.4124,-3.92268,0
87.3645,-60.3193,-3.94704,0
87.4142,-60.225,-3.97127,0
87.4614,-60.1295,-3.99534,0
87.5059,-60.0329,-4.01925,0
87.548,-59.9352,-4.04297,0
87.5874,-59.8366,-4.06649,0
87.6242,-59.737,-4.08978,0
87.6585,-59.6367,-4.11284,0
87.6901,-59.5356,-4.13566,0
87.719,-59.4338,-4.15821,0
87.7452,-59.3314,-4.18049,0
87.7687,-59.2285,-4.20246,0
87.7898,-59.1252,-4.22414,0
87.808,-59.0214,-4.2455,0
87.8237,-58.9174,-4.26652,0
87.8366,-58.8131,-4.2872,0
87.847,-58.7087,-4.30754,0
87.8548,-58.6042,-4.3275,0
87.8598,-58.4997,-4.34707,0
87.8623,-58.3952,-4.36627,0
87.8623,-58.2908,-4.38506,0
87.8608,-58.1867,-4.40329,0
87.8567,-58.0828,-4.4211,0
87.8502,-57.9791,-4.4385,0
87.841,-57.8758,-4.45547,0
87.8294,-57.7728,-4.47201,0
87.8153,-57.6703,-4.48811,0
87.8011,-57.5682,-4.50348,0
87.7848,-57.4665,-4.51838,0
87.7661,-57.3653,-4.53281,0
87.745,-57.2647,-4.5468,0
87.7216,-57.1647,-4.56031,0
87.6959,-57.0655,-4.57338,0
87.668,-56.9669,-4.58595,0
87.6377,-56.8692,-4.59806,0
87.6053,-56.7723,-4.60968,0
87.5707,-56.6763,-4.62082,0
87.5339,-56.5812,-4.63147,0
87.4951,-56.4872,-4.64162,0
87.4541,-56.3942,-4.65129,0
87.411,-56.3023,-4.66045,0
87.366,-56.2115,-4.66911,0
87.319,-56.1219,-4.67727,0
87.27,-56.0336,-4.68492,0
87.2191,-55.9465,-4.69207,0
87.1662,-55.8607,-4.69872,0
83.3117,-61.8781,-3.202,0
83.4058,-61.887,-3.21383,0
83.5001,-61.8939,-3.22591,0
83.5948,-61.899,-3.23824,0
83.6897,-61.9021,-3.25081,0
83.7848,-61.9033,-3.26362,0
83.8802,-61.9026,-3.27667,0
83.9759,-61.9,-3.28996,0
84.0715,-61.8953,-3.30347,0
84.1673,-61.8887,-3.3172,0
84.2632,-61.8802,-3.33116,0
84.3592,-61.8696,-3.34535,0
84.4552,-61.857,-3.35976,0
84.5511,-61.8424,-3.37437,0
84.6469,-61.8258,-3.38919,0
84.7428,-61.8074,-3.40409,0
84.8388,-61.7875,-3.41898,0
84.9346,-61.7655,-3.43407,0
85.0303,-61.7415,-3.44936,0
85.1258,-61.7153,-3.46485,0
85.2209,-61.6871,-3.48052,0
85.3159,-61.6567,-3.49639,0
85.4103,-61.6243,-3.51243,0
85.5044,-61.5897,-3.52865,0
85.5982,-61.553,-3.54504,0
85.6914,-61.5141,-3.5616,0
85.7841,-61.4732,-3.57831,0
85.8762,-61.43,-3.59518,0
85.9677,-61.3848,-3.6122,0
86.0585,-61.3374,-3.62936,0
86.1487,-61.2879,-3.64665,0
86.238,-61.2362,-3.66407,0
86.3266,-61.1824,-3.68162,0
86.4141,-61.1264,-3.69928,0
86.5009,-61.0683,-3.71704,0
86.5866,-61.008,-3.73491,0
86.6713,-60.9457,-3.75287,0
86.755,-60.8812,-3.77091,0
86.8375,-60.8146,-3.78903,0
86.9147,-60.7429,-3.80857,0
86.9789,-60.6612,-3.83182,0
87.0409,-60.5778,-3.85508,0
87.1005,-60.4928,-3.87832,0
87.1578,-60.4062,-3.90154,0
87.2113,-60.3173,-3.9251,0
87.2615,-60.2267,-3.94875,0
87.3094,-60.1349,-3.97226,0
87.3548,-60.0419,-3.99563,0
87.3977,-59.9478,-4.01883,0
87.4382,-59.8528,-4.04185,0
87.4761,-59.7568,-4.06466,0
87.5115,-59.66,-4.08727,0
87.5443,-59.5623,-4.10965,0
87.5746,-59.464,-4.13178,0
87.6023,-59.365,-4.15365,0
87.6275,-59.2654,-4.17526,0
87.6501,-59.1653,-4.19657,0
87.6701,-59.0648,-4.21761,0
87.6875,-58.964,-4.23832,0
87.7023,-58.8628,-4.25871,0
87.7147,-58.7614,-4.27877,0
87.7244,-58.6599,-4.29849,0
87.7316,-58.5583,-4.31784,0
87.7362,-58.4567,-4.33684,0
87.7383,-58.3551,-4.35545,0
87.7384,-58.2537,-4.37361,0
87.7365,-58.1525,-4.39128,0
87.7323,-58.0514,-4.40855,0
87.7256,-57.9507,-4.42542,0
87.7164,-57.8502,-4.44187,0
87.7052,-57.7501,-4.45785,0
87.6936,-57.6504,-4.47315,0
87.6798,-57.551,-4.488,0
87.6634,-57.452,-4.50244,0
87.6449,-57.3536,-4.51642,0
87.6241,-57.2558,-4.52997,0
87.601,-57.1585,-4.54307,0
87.5757,-57.062,-4.55571,0
87.5482,-56.9662,-4.5679,0
87.5184,-56.8711,-4.57962,0
87.4866,-56.7769,-4.59088,0
87.4526,-56.6835,-4.60165,0
87.4165,-56.5911,-4.61195,0
87.3783,-56.4997,-4.62177,0
87.3381,-56.4093,-4.63111,0
87.2959,-56.3199,-4.63997,0
87.2518,-56.2316,-4.64834,0
87.2057,-56.1445,-4.65622,0
87.1576,-56.0587,-4.66362,0
87.1073,-55.9743,-4.67057,0
87.0552,-55.8911,-4.67702,0
83.2541,-61.8718,-3.19485,0
83.3478,-61.8818,-3.20653,0
83.442,-61.8899,-3.21846,0
83.5365,-61.8961,-3.23064,0
83.6312,-61.9004,-3.24306,0
83.7262,-61.9028,-3.25572,0
83.8216,-61.9033,-3.26862,0
83.917,-61.9018,-3.28176,0
84.0126,-61.8984,-3.29513,0
84.1084,-61.893,-3.30873,0
84.2043,-61.8857,-3.32256,0
84.3002,-61.8763,-3.3366,0
84.3962,-61.865,-3.35088,0
84.492,-61.8516,-3.36535,0
84.588,-61.8363,-3.38005,0
84.6839,-61.8188,-3.39495,0
84.7798,-61.8,-3.40979,0
84.8758,-61.7793,-3.42476,0
84.9715,-61.7565,-3.43993,0
85.0671,-61.7316,-3.45529,0
85.1624,-61.7047,-3.47086,0
85.2575,-61.6756,-3.48661,0
85.3523,-61.6445,-3.50255,0
85.4466,-61.6112,-3.51866,0
85.5406,-61.5758,-3.53494,0
85.6341,-61.5383,-3.5514,0
85.7271,-61.4986,-3.56801,0
85.8196,-61.4568,-3.58479,0
85.9116,-61.4129,-3.60172,0
86.0028,-61.3668,-3.61879,0
86.0934,-61.3186,-3.636,0
86.1831,-61.2682,-3.65334,0
86.2722,-61.2157,-3.67082,0
86.3604,-61.1611,-3.68841,0
86.4477,-61.1043,-3.70611,0
86.534,-61.0453,-3.72391,0
86.6194,-60.9843,-3.74181,0
86.7037,-60.9211,-3.7598,0
86.7869,-60.8558,-3.77788,0
86.8689,-60.7884,-3.79602,0
86.9397,-60.7116,-3.81753,0
87.003,-60.6293,-3.84078,0
87.0641,-60.5453,-3.86404,0
87.1229,-60.4597,-3.88727,0
87.1791,-60.3724,-3.9105,0
87.2309,-60.2826,-3.93423,0
87.2802,-60.1915,-3.95783,0
87.3272,-60.0992,-3.98128,0
87.3716,-60.0058,-4.00459,0
87.4136,-59.9114,-4.02772,0
87.4531,-59.8159,-4.05065,0
87.4901,-59.7196,-4.07339,0
87.5245,-59.6224,-4.09591,0
87.5563,-59.5245,-4.1182,0
87.5855,-59.4259,-4.14023,0
87.6123,-59.3267,-4.162,0
87.6365,-59.2269,-4.18351,0
87.6581,-59.1267,-4.20471,0
87.6771,-59.026,-4.22562,0
87.6935,-58.925,-4.24621,0
87.7074,-58.8238,-4.26649,0
87.7188,-58.7224,-4.2864,0
87.7274,-58.6208,-4.30598,0
87.7337,-58.5192,-4.3252,0
87.7373,-58.4176,-4.34405,0
87.7384,-58.316,-4.36252,0
87.738,-58.2147,-4.38046,0
87.7352,-58.1135,-4.39797,0
87.7299,-58.0126,-4.41509,0
87.7223,-57.9119,-4.4318,0
87.7123,-57.8116,-4.44809,0
87.701,-57.7117,-4.46379,0
87.6886,-57.612,-4.47891,0
87.6738,-57.5128,-4.49362,0
87.6566,-57.4141,-4.50787,0
87.6372,-57.3159,-4.5217,0
87.6155,-57.2183,-4.53507,0
87.5916,-57.1213,-4.548,0
87.5654,-57.025,-4.56046,0
87.537,-56.9295,-4.57247,0
87.5064,-56.8347,-4.58401,0
87.4737,-56.7408,-4.59508,0
87.4389,-56.6478,-4.60568,0
87.402,-56.5558,-4.61579,0
87.363,-56.4647,-4.62543,0
87.3221,-56.3747,-4.63458,0
87.2791,-56.2858,-4.64325,0
87.2342,-56.198,-4.65143,0
87.1875,-56.1113,-4.65912,0
87.1384,-56.0261,-4.66636,0
87.0874,-55.9421,-4.67311,0
87.0346,-55.8595,-4.67936,0
83.2902,-61.8759,-3.19931,0
83.3841,-61.8851,-3.21109,0
83.4784,-61.8925,-3.22312,0
83.5729,-61.898,-3.23539,0
83.6678,-61.9016,-3.2479,0
83.7629,-61.9032,-3.26066,0
83.8583,-61.903,-3.27365,0
83.9538,-61.9007,-3.28688,0
84.0495,-61.8966,-3.30034,0
84.1453,-61.8904,-3.31403,0
84.2412,-61.8823,-3.32794,0
84.3371,-61.8722,-3.34207,0
84.4331,-61.8601,-3.35643,0
84.529,-61.8459,-3.37099,0
84.6249,-61.8298,-3.38576,0
84.7207,-61.8117,-3.40069,0
84.8168,-61.7923,-3.41553,0
84.9127,-61.7708,-3.43057,0
85.0084,-61.7472,-3.44582,0
85.1038,-61.7215,-3.46127,0
85.1991,-61.6937,-3.47691,0
85.2941,-61.6639,-3.49272,0
85.3887,-61.6319,-3.50873,0
85.4828,-61.5978,-3.5249,0
85.5766,-61.5616,-3.54126,0
85.67,-61.5233,-3.55778,0
85.7628,-61.4828,-3.57445,0
85.8551,-61.4402,-3.59129,0
85.9468,-61.3954,-3.60828,0
86.0377,-61.3485,-3.6254,0
86.128,-61.2994,-3.64266,0
86.2175,-61.2483,-3.66006,0
86.3063,-61.1949,-3.67757,0
86.3941,-61.1394,-3.69521,0
86.481,-61.0818,-3.71295,0
86.5669,-61.0221,-3.73079,0
86.652,-60.9602,-3.74872,0
86.7359,-60.8962,-3.76676,0
86.8187,-60.8301,-3.78486,0
86.8996,-60.7614,-3.80324,0
86.9644,-60.6801,-3.82648,0
87.0268,-60.5972,-3.84974,0
87.087,-60.5125,-3.87299,0
87.1448,-60.4263,-3.8962,0
87.1993,-60.338,-3.91965,0
87.2502,-60.2477,-3.94333,0
87.2986,-60.1561,-3.96688,0
87.3446,-60.0634,-3.99027,0
87.3881,-59.9696,-4.01351,0
87.4291,-59.8747,-4.03657,0
87.4676,-59.7789,-4.05944,0
87.5035,-59.6823,-4.08209,0
87.537,-59.5848,-4.10452,0
87.5679,-59.4866,-4.12671,0
87.5962,-59.3878,-4.14864,0
87.6219,-59.2883,-4.17031,0
87.6452,-59.1884,-4.1917,0
87.6657,-59.088,-4.2128,0
87.6837,-58.9872,-4.23359,0
87.6992,-58.8861,-4.25405,0
87.712,-58.7848,-4.27419,0
87.7223,-58.6833,-4.29399,0
87.7301,-58.5817,-4.31342,0
87.7353,-58.48,-4.3325,0
87.738,-58.3785,-4.3512,0
87.7384,-58.277,-4.36949,0
87.7372,-58.1757,-4.38725,0
87.7335,-58.0746,-4.40462,0
87.7273,-57.9738,-4.42157,0
87.7188,-57.8733,-4.43812,0
87.7077,-57.7731,-4.45425,0
87.6965,-57.6733,-4.46967,0
87.6831,-57.5738,-4.48462,0
87.6673,-57.4747,-4.49916,0
87.6495,-57.3762,-4.51325,0
87.6291,-57.2782,-4.5269,0
87.6066,-57.1808,-4.5401,0
87.5817,-57.0841,-4.55285,0
87.5548,-56.9881,-4.56514,0
87.5255,-56.8929,-4.57697,0
87.4941,-56.7985,-4.58833,0
87.4605,-56.7049,-4.59922,0
87.425,-56.6123,-4.60963,0
87.3873,-56.5206,-4.61956,0
87.3476,-56.43,-4.62901,0
87.3058,-56.3403,-4.63798,0
87.2621,-56.2518,-4.64646,0
87.2164,-56.1645,-4.65445,0
87.1688,-56.0783,-4.66195,0
87.119,-55.9936,-4.66902,0
87.0673,-55.9102,-4.67557,0
83.3125,-61.788,-3.21179,0
83.4044,-61.7965,-3.22339,0
83.4967,-61.8031,-3.23522,0
83.5893,-61.8079,-3.2473,0
83.6821,-61.8107,-3.25961,0
83.7752,-61.8117,-3.27216,0
83.8684,-61.8108,-3.28494,0
83.9618,-61.808,-3.29794,0
84.0554,-61.8033,-3.31116,0
84.149,-61.7966,-3.32462,0
84.2427,-61.788,-3.33829,0
84.3365,-61.7775,-3.35217,0
84.4302,-61.765,-3.36626,0
84.524,-61.7504,-3.38057,0
84.6176,-61.734,-3.39507,0
84.7111,-61.7155,-3.40975,0
84.8048,-61.6958,-3.42432,0
84.8984,-61.674,-3.43908,0
84.9917,-61.6502,-3.45404,0
85.0848,-61.6244,-3.46919,0
85.1777,-61.5965,-3.48452,0
85.2702,-61.5666,-3.50003,0
85.3624,-61.5346,-3.51571,0
85.4542,-61.5005,-3.53157,0
85.5455,-61.4644,-3.54758,0
85.6364,-61.4262,-3.56376,0
85.7267,-61.3859,-3.58009,0
85.8166,-61.3435,-3.59656,0
85.9057,-61.299,-3.61318,0
85.9941,-61.2524,-3.62994,0
86.0818,-61.2038,-3.64682,0
86.1688,-61.153,-3.66383,0
86.2549,-61.1002,-3.68094,0
86.3402,-61.0453,-3.69818,0
86.4246,-60.9883,-3.71551,0
86.508,-60.9292,-3.73294,0
86.5903,-60.8681,-3.75045,0
86.6716,-60.8049,-3.76805,0
86.7466,-60.7356,-3.78755,0
86.8112,-60.6581,-3.81011,0
86.8735,-60.5788,-3.83269,0
86.9337,-60.4978,-3.85528,0
86.9917,-60.4153,-3.87786,0
87.0474,-60.3312,-3.90041,0
87.1008,-60.2457,-3.92291,0
87.1517,-60.1588,-3.94534,0
87.1994,-60.0701,-3.96795,0
87.2438,-59.9797,-3.99068,0
87.2855,-59.8883,-4.01324,0
87.3251,-59.796,-4.03564,0
87.3621,-59.7027,-4.05784,0
87.3967,-59.6086,-4.07983,0
87.4288,-59.5137,-4.1016,0
87.4584,-59.4181,-4.12315,0
87.4856,-59.3219,-4.14444,0
