81.1264,-49.5901,-4.62229,0
80.7548,-49.1687,-4.59974,0
80.407,-48.7639,-4.57854,0
80.0919,-48.373,-4.55958,0
80.0355,-47.9747,-4.56355,0
80.0342,-47.5717,-4.57222,0
80.0303,-47.1671,-4.58033,0
80.0236,-46.7605,-4.58789,0
80.0141,-46.3518,-4.59488,0
80.002,-45.9406,-4.60136,0
80.196,-45.479,-4.62693,0
80.4005,-45.0004,-4.65337,0
80.6091,-44.5052,-4.6801,0
80.8223,-43.9921,-4.70716,0
81.047,-43.4575,-4.73519,0
79.9434,-43.3778,-4.63555,174
82.2012,-42.0594,-4.8588,0
82.8459,-41.2722,-4.92727,0
84.2948,-40.0853,-5.07384,0
84.4262,-39.4206,-5.09276,174
85.4013,-38.3153,-5.19371,174
83.9563,-38.4124,-5.05816,174
85.6628,-36.8239,-5.2305,174
90.2236,-61.699,-4.81859,174
90.3739,-61.0003,-4.86135,174
90.5165,-56.712,-5.04248,0
87.0521,-55.1777,-4.80861,0
85.1784,-54.1724,-4.68788,0
84.0121,-53.4031,-4.61722,0
82.9551,-52.7144,-4.55242,0
82.4633,-52.1632,-4.5294,0
81.9833,-51.6405,-4.50596,0
81.4529,-51.1384,-4.47731,0
80.9115,-50.6627,-4.44652,0
80.4039,-50.216,-4.41726,0
80.0791,-49.7991,-4.40175,0
79.7624,-49.3981,-4.38611,0
79.3896,-49.0133,-4.36504,0
79.2164,-48.6368,-4.35976,0
79.1629,-48.2595,-4.36392,0
79.1616,-47.8786,-4.37207,0
79.1577,-47.4964,-4.37963,0
79.1509,-47.1126,-4.3866,0
79.1413,-46.7271,-4.39298,0
79.0866,-46.3475,-4.39515,0
79.0001,-45.9739,-4.39417,0
79.1729,-45.5387,-4.41531,0
79.3741,-45.0828,-4.43873,0
79.5791,-44.6105,-4.46229,0
79.785,-44.1216,-4.48572,0
79.9695,-43.6228,-4.50707,0
80.362,-43.0306,-4.54655,0
80.8693,-42.3637,-4.5961,0
81.4186,-41.6422,-4.64924,0
82.0984,-40.8209,-4.71389,0
83.8552,-39.4322,-4.87468,0
84.2298,-38.6321,-4.91181,174
83.5132,-38.3836,-4.85069,174
84.4611,-37.2129,-4.93845,174
83.7721,-36.9513,-4.87864,174
90.251,-61.4942,-4.82977,174
90.5083,-60.8431,-4.87948,174
89.1345,-56.1545,-4.94729,0
86.1879,-54.8043,-4.74983,0
84.8733,-53.954,-4.67003,0
83.6884,-53.1983,-4.59724,0
82.7961,-52.5527,-4.5445,0
82.3352,-52.014,-4.52349,0
81.8421,-51.4969,-4.49868,0
81.297,-51.001,-4.4685,0
80.7637,-50.5337,-4.43801,0
80.3113,-50.0966,-4.4129,0
79.9889,-49.6843,-4.39737,0
79.6559,-49.2877,-4.38014,0
79.2866,-48.9077,-4.35913,0
79.1912,-48.5306,-4.36012,0
79.1628,-48.152,-4.36628,0
79.1608,-47.7708,-4.37426,0
79.156,-47.3882,-4.38166,0
79.1484,-47.004,-4.38846,0
79.1381,-46.6179,-4.39467,0
79.0626,-46.2419,-4.39494,0
79.0306,-45.8563,-4.39857,0
79.2293,-45.4116,-4.42191,0
79.4316,-44.9511,-4.44536,0
79.6377,-44.474,-4.46897,0
79.8368,-43.9825,-4.49175,0
80.0223,-43.4788,-4.51309,0
79.732,-43.1366,-4.49204,174
81.0205,-42.1656,-4.61076,0
80.9489,-41.7006,-4.60856,174
82.5181,-40.4754,-4.75245,0
84.1791,-39.1035,-4.90469,174
84.0949,-38.5242,-4.90067,174
83.4376,-38.2489,-4.84469,174
84.264,-37.138,-4.9214,174
83.5821,-36.8793,-4.86204,174
90.2191,-62.0341,-4.80366,174
90.2886,-61.2948,-4.84154,174
90.7041,-60.7102,-4.90176,174
91.9897,-57.4275,-5.13943,0
88.3803,-55.7773,-4.89794,0
85.6666,-54.5225,-4.71632,0
84.5766,-53.742,-4.65262,0
83.3935,-53.0034,-4.57925,0
82.6639,-52.3977,-4.53854,0
82.2045,-51.8665,-4.51728,0
81.6981,-51.3551,-4.49107,0
81.1436,-50.8661,-4.45979,0
80.6181,-50.4069,-4.42959,0
80.2195,-49.9786,-4.40852,0
79.8995,-49.5708,-4.39296,0
79.5505,-49.1787,-4.37419,0
79.255,-48.801,-4.35908,0
79.1658,-48.4247,-4.36045,0
79.1625,-48.0445,-4.3686,0
79.1598,-47.6629,-4.37641,0
79.1541,-47.2799,-4.38363,0
79.1458,-46.8951,-4.39028,0
79.1234,-46.5105,-4.39537,0
79.0382,-46.1364,-4.39467,0
79.0864,-45.7323,-4.40515,0
79.2861,-45.2832,-4.42852,0
79.4894,-44.8182,-4.45201,0
79.6966,-44.3361,-4.47566,0
79.8888,-43.8421,-4.49777,0
80.1512,-43.3061,-4.52587,0
80.6442,-42.66,-4.57417,0
81.1747,-41.9631,-4.62569,0
81.7469,-41.2088,-4.68081,0
83.0294,-40.0793,-4.79921,0
82.0152,-40.0041,-4.71206,174
83.8129,-38.4948,-4.87629,174
83.3621,-38.1143,-4.83864,174
84.0689,-37.0639,-4.90448,174
83.5986,-36.681,-4.86398,174
90.1756,-61.6596,-4.60297,174
90.9504,-60.4633,-4.71807,174
89.7151,-57.8465,-4.73262,0
86.8249,-56.3102,-4.57125,0
84.7705,-55.1553,-4.45842,0
83.7738,-54.369,-4.41186,0
82.5142,-53.5811,-4.3447,0
81.8263,-52.9713,-4.31406,0
81.3561,-52.4364,-4.29676,0
80.8848,-51.9276,-4.27798,0
80.3862,-51.4411,-4.25591,0
79.912,-50.9833,-4.2343,0
79.5299,-50.5567,-4.21818,0
79.1811,-50.1512,-4.20348,0
78.8427,-49.7634,-4.18863,0
78.6114,-49.3923,-4.18091,0
78.533,-49.0289,-4.18401,0
78.4526,-48.6688,-4.18643,0
78.3931,-48.3104,-4.18996,0
78.3905,-47.9483,-4.1974,0
78.3851,-47.5851,-4.20421,0
78.3583,-47.2232,-4.20896,0
78.2834,-46.8679,-4.20954,0
78.2055,-46.514,-4.20943,0
78.1243,-46.1614,-4.20862,0
78.1348,-45.7871,-4.21466,0
78.3046,-45.366,-4.23302,0
78.4763,-44.931,-4.25127,0
78.6532,-44.4802,-4.26965,0
78.8379,-44.0116,-4.28833,0
79.0258,-43.5253,-4.30695,0
79.4953,-42.9101,-4.34805,0
79.9922,-42.2494,-4.39111,0
80.4781,-41.5566,-4.43295,0
81.1141,-40.7536,-4.48663,0
82.1999,-39.6725,-4.57658,0
83.4956,-38.4001,-4.68318,174
83.3333,-37.8644,-4.67033,174
83.6312,-37.0448,-4.69437,174
83.5666,-36.4176,-4.68814,174
90.1659,-62.2109,-4.57653,174
90.2175,-61.462,-4.61539,174
90.5654,-60.8506,-4.6706,174
91.5047,-58.9514,-4.82588,0
88.6459,-57.3174,-4.67142,0
86.1635,-55.9493,-4.53456,0
84.4791,-54.9249,-4.4449,0
83.4157,-54.1391,-4.39305,0
82.1841,-53.3762,-4.32695,0
81.6914,-52.8171,-4.30917,0
81.2272,-52.2908,-4.29189,0
80.7415,-51.7872,-4.2717,0
80.25,-51.3091,-4.24976,0
79.7834,-50.859,-4.22834,0
79.4303,-50.4403,-4.21404,0
79.0844,-50.0399,-4.1993,0
78.7491,-49.6569,-4.18441,0
78.5895,-49.2893,-4.18185,0
78.5105,-48.9269,-4.18476,0
78.4295,-48.5678,-4.18699,0
78.3927,-48.2083,-4.19212,0
78.3893,-47.8459,-4.19939,0
78.383,-47.4824,-4.20602,0
78.3374,-47.1227,-4.2092,0
78.2618,-46.7679,-4.20957,0
78.1828,-46.4143,-4.20927,0
78.1008,-46.062,-4.20826,0
78.1826,-45.6696,-4.21985,0
78.3528,-45.2447,-4.23819,0
78.5252,-44.8055,-4.25641,0
78.705,-44.3496,-4.27493,0
78.8905,-43.8761,-4.2936,0
79.1313,-43.3651,-4.3164,0
79.6436,-42.724,-4.3609,0
80.1261,-42.059,-4.40268,0
80.6214,-41.3513,-4.44518,0
81.4062,-40.4632,-4.51089,0
82.6793,-39.2638,-4.61598,0
83.3582,-38.2996,-4.67215,174
83.5893,-37.5371,-4.69121,174
83.5408,-36.9134,-4.6868,174
90.1589,-61.988,-4.5864,174
90.6916,-60.6887,-4.68776,174
90.8768,-58.5332,-4.79446,0
87.8566,-56.8903,-4.62767,0
85.4277,-55.5778,-4.49253,0
84.1959,-54.7014,-4.43167,0
83.0509,-53.9131,-4.37353,0
82.038,-53.214,-4.32162,0
81.5581,-52.6655,-4.30428,0
81.0999,-52.1474,-4.28702,0
80.6002,-51.6492,-4.26546,0
80.1157,-51.1793,-4.24365,0
79.6853,-50.7391,-4.22452,0
79.3316,-50.3254,-4.2099,0
78.9887,-49.9301,-4.19511,0
78.6561,-49.5517,-4.18019,0
78.5674,-49.1866,-4.18274,0
78.4879,-48.8252,-4.18545,0
78.4062,-48.467,-4.1875,0
78.392,-48.1061,-4.19423,0
78.3878,-47.7434,-4.20132,0
78.3807,-47.3794,-4.20778,0
78.3164,-47.0224,-4.20937,0
78.2398,-46.668,-4.20955,0
78.16,-46.3147,-4.20905,0
78.0771,-45.9627,-4.20786,0
78.2305,-45.551,-4.22504,0
78.4013,-45.1221,-4.24334,0
78.5743,-44.6789,-4.26153,0
78.7571,-44.2176,-4.28021,0
78.9436,-43.7392,-4.29886,0
79.2723,-43.1891,-4.32869,0
79.7903,-42.5356,-4.37357,0
80.2627,-41.8645,-4.41445,0
80.7675,-41.1416,-4.45763,0
81.7094,-40.1614,-4.53602,0
83.2045,-38.8217,-4.65911,0
83.324,-38.1429,-4.66949,174
83.8585,-37.1961,-4.71311,174
83.4504,-36.7821,-4.67917,174
90.1329,-61.6227,-4.38863,174
90.3198,-60.944,-4.43512,174
90.8817,-60.4197,-4.50042,0
89.0518,-58.9877,-4.43529,0
86.2062,-57.3147,-4.30776,0
84.2883,-56.0984,-4.22505,0
83.3809,-55.2871,-4.19548,0
82.29,-54.4801,-4.15221,0
81.2648,-53.7503,-4.10977,0
80.7377,-53.1857,-4.09483,0
80.3202,-52.6728,-4.08495,0
79.8635,-52.1774,-4.07118,0
79.3545,-51.6999,-4.05266,0
78.9452,-51.2617,-4.0391,0
78.6182,-50.8531,-4.02969,0
78.3127,-50.4634,-4.02066,0
78.0399,-50.091,-4.01285,0
77.9732,-49.7376,-4.01798,0
77.9041,-49.3878,-4.02238,0
77.8327,-49.0414,-4.02607,0
77.7589,-48.698,-4.02904,0
77.6948,-48.3567,-4.03216,0
77.6907,-48.0117,-4.03895,0
77.6272,-47.6723,-4.04113,0
77.5605,-47.3345,-4.04259,0
77.4907,-46.9981,-4.04335,0
77.4177,-46.663,-4.04338,0
77.3412,-46.329,-4.04272,0
77.2497,-45.9989,-4.04049,0
77.3752,-45.6122,-4.05349,0
77.527,-45.207,-4.06804,0
77.6802,-44.7886,-4.08232,0
77.8348,-44.3561,-4.09632,0
77.991,-43.9086,-4.11004,0
78.1633,-43.4395,-4.12449,0
78.6041,-42.8399,-4.1582,0
79.0749,-42.1935,-4.19367,0
79.5797,-41.4945,-4.23112,0
80.2013,-40.6959,-4.27657,0
81.1675,-39.6624,-4.34663,0
78.5984,-40.5716,-4.1567,174
82.8543,-37.521,-4.46615,174
83.5301,-36.4501,-4.51216,174
83.8741,-35.5359,-4.53285,174
73.5128,-62.7465,-3.00716,174
90.1726,-62.196,-4.36311,174
90.1172,-61.4,-4.39839,174
90.4685,-60.7935,-4.45304,174
90.084,-59.8939,-4.46759,0
88.1026,-58.4457,-4.39213,0
85.583,-56.9326,-4.2804,0
84.045,-55.8679,-4.21775,0
83.1291,-55.069,-4.18686,0
81.8909,-54.2396,-4.13402,0
81.1,-53.584,-4.10477,0
80.6205,-53.0385,-4.09224,0
80.1891,-52.5299,-4.08107,0
79.7325,-52.0419,-4.0669,0
79.2098,-51.5699,-4.04711,0
78.8516,-51.1444,-4.03647,0
78.5312,-50.7414,-4.02718,0
78.228,-50.3563,-4.01803,0
78.0213,-49.9908,-4.01437,0
77.954,-49.6385,-4.0193,0
77.8842,-49.2897,-4.02349,0
77.8121,-48.9441,-4.02697,0
77.7377,-48.6016,-4.02975,0
77.6941,-48.2594,-4.03414,0
77.6731,-47.9157,-4.03964,0
77.6087,-47.5768,-4.04161,0
77.5411,-47.2394,-4.04287,0
77.4704,-46.9033,-4.04343,0
77.3963,-46.5685,-4.04327,0
77.3191,-46.2349,-4.04241,0
77.267,-45.8952,-4.04288,0
77.4179,-45.499,-4.05762,0
77.5701,-45.0902,-4.0721,0
77.7237,-44.6679,-4.0863,0
77.8787,-44.2313,-4.10022,0
78.0354,-43.7794,-4.11385,0
78.2849,-43.2746,-4.13385,0
78.7338,-42.6624,-4.16802,0
79.2138,-42.0018,-4.20403,0
79.729,-41.2867,-4.24209,0
80.4619,-40.4176,-4.29552,0
81.4637,-39.3447,-4.36799,0
78.5575,-40.4586,-4.15321,174
82.7482,-37.4064,-4.45753,174
83.8867,-36.0293,-4.53703,174
84.3737,-34.9969,-4.56776,174
73.5839,-62.6556,-3.02004,174
90.157,-61.9693,-4.37327,174
90.1296,-61.191,-4.40945,174
90.666,-60.6618,-4.47352,174
89.5742,-59.492,-4.44961,0
87.2345,-57.9478,-4.35267,0
84.9935,-56.5715,-4.25444,0
83.7822,-55.6355,-4.20908,0
82.8094,-54.8362,-4.17404,0
81.5251,-54.0137,-4.11753,0
80.938,-53.421,-4.09979,0
80.5047,-52.8936,-4.08961,0
80.0596,-52.3894,-4.07718,0
79.582,-51.9053,-4.06127,0
79.0911,-51.4455,-4.0431,0
78.7588,-51.0286,-4.03381,0
78.4448,-50.631,-4.02465,0
78.1437,-50.2505,-4.01537,0
78.0026,-49.891,-4.01583,0
77.9345,-49.5397,-4.02056,0
77.8641,-49.1918,-4.02455,0
77.7913,-48.8471,-4.02783,0
77.7162,-48.5054,-4.03041,0
77.6931,-48.1619,-4.0361,0
77.6552,-47.8199,-4.04027,0
77.59,-47.4813,-4.04204,0
77.5215,-47.1443,-4.0431,0
77.4498,-46.8087,-4.04345,0
77.3748,-46.4742,-4.04309,0
77.2967,-46.1409,-4.04204,0
77.3095,-45.7846,-4.04707,0
77.4608,-45.3849,-4.06174,0
77.6134,-44.9724,-4.07613,0
77.7673,-44.5461,-4.09026,0
77.9228,-44.1053,-4.1041,0
78.08,-43.649,-4.11764,0
78.4087,-43.1063,-4.14333,0
78.866,-42.481,-4.178,0
79.3555,-41.8057,-4.21456,0
79.8632,-41.083,-4.2519,0
80.7319,-40.1289,-4.31512,0
81.7712,-39.0145,-4.3901,0
83.8351,-37.2182,-4.53918,174
82.7685,-37.2139,-4.4581,174
83.864,-35.8481,-4.53415,174
73.4357,-62.9308,-2.98701,174
90.035,-62.332,-4.13215,174
89.147,-61.1571,-4.13499,0
88.211,-60.0277,-4.1312,0
85.5076,-58.259,-4.04267,0
83.7394,-56.9973,-3.98923,0
82.9066,-56.1631,-3.97494,0
81.9556,-55.3435,-3.95166,0
80.7926,-54.5183,-3.91442,0
80.2613,-53.9281,-3.90619,0
79.7513,-53.3753,-3.89708,0
79.2478,-52.8541,-3.88649,0
78.7691,-52.3666,-3.87552,0
78.3843,-51.9218,-3.86817,0
78.0896,-51.5117,-3.86454,0
77.8027,-51.1191,-3.86025,0
77.5273,-50.7433,-3.85556,0
77.4407,-50.3959,-3.86095,0
77.3829,-50.0552,-3.86735,0
77.3225,-49.7179,-3.873,0
77.2428,-49.3838,-3.87688,0
77.1457,-49.0538,-3.87909,0
77.0455,-48.7282,-3.8805,0
76.9213,-48.4082,-3.87984,0
76.8463,-48.0886,-3.88165,0
76.7671,-47.7715,-3.88266,0
76.6837,-47.457,-3.88287,0
76.5962,-47.145,-3.8823,0
76.5047,-46.8356,-3.88095,0
76.4955,-46.51,-3.8844,0
76.5134,-46.1752,-3.88913,0
76.5637,-45.8271,-3.89552,0
76.6933,-45.4493,-3.90664,0
76.8232,-45.0601,-3.91735,0
76.9535,-44.6588,-3.92761,0
77.0841,-44.2446,-3.93745,0
77.2152,-43.8167,-3.94681,0
77.3967,-43.3533,-3.95894,0
77.6003,-42.862,-3.97193,174
78.1376,-42.1904,-4.00624,0
78.5407,-41.5461,-4.03103,0
79.078,-40.7945,-4.06379,0
76.6068,-41.7122,-3.89992,174
77.8114,-40.5624,-3.97474,174
78.0926,-39.9073,-3.9886,174
83.6203,-35.7158,-4.33816,174
87.4845,-32.2935,-4.57638,174
87.2843,-31.5708,-4.55258,174
73.2378,-63.0182,-2.84068,174
73.4467,-62.6382,-2.88818,174
89.9367,-62.0658,-4.13975,174
88.9633,-60.8673,-4.13784,0
87.544,-59.5522,-4.1114,0
84.926,-57.8598,-4.02441,0
83.458,-56.7395,-3.98334,0
82.6981,-55.9461,-3.97161,0
81.5594,-55.0826,-3.93814,0
80.6393,-54.3474,-3.91213,0
80.117,-53.7688,-3.90379,0
79.6078,-53.2249,-3.8942,0
79.11,-52.7131,-3.88341,0
78.6384,-52.2347,-3.87238,0
78.3003,-51.8042,-3.86721,0
78.0078,-51.3991,-3.8634,0
77.723,-51.0112,-3.85892,0
77.4806,-50.6426,-3.85587,0
77.4246,-50.2993,-3.86284,0
77.366,-49.9596,-3.86903,0
77.305,-49.6232,-3.87446,0
77.2157,-49.2902,-3.87758,0
77.1177,-48.9614,-3.87957,0
77.0134,-48.6372,-3.88056,0
76.9006,-48.3177,-3.88043,0
76.8243,-47.9988,-3.88201,0
76.744,-47.6825,-3.88279,0
76.6595,-47.3687,-3.88278,0
76.5709,-47.0574,-3.882,0
76.4807,-46.7481,-3.88059,0
76.5009,-46.4158,-3.8858,0
76.5178,-46.0799,-3.89034,0
76.6002,-45.7215,-3.8987,0
76.7299,-45.3406,-3.90969,0
76.86,-44.9481,-3.92029,0
76.9903,-44.5431,-3.93044,0
77.1211,-44.1252,-3.94014,0
77.2523,-43.6934,-3.94936,0
77.4966,-43.1983,-3.96546,0
77.6595,-42.7189,-3.97561,174
77.2038,-42.5229,-3.9447,174
78.659,-41.3557,-4.03817,0
79.3613,-40.5023,-4.08145,0
78.5811,-40.4509,-4.02736,174
77.7204,-40.4848,-3.96772,174
78.0214,-39.8133,-3.98265,174
84.414,-34.9805,-4.3868,174
87.4287,-32.0904,-4.56983,174
73.2887,-62.8986,-2.85441,174
73.5426,-62.5805,-2.90084,174
89.8648,-61.815,-4.14822,174
88.6919,-60.5432,-4.13659,0
86.3605,-58.876,-4.06777,0
84.4235,-57.5007,-4.00927,0
83.2373,-56.5083,-3.98005,0
82.4823,-55.7305,-3.9677,0
81.1802,-54.8331,-3.92514,0
80.4887,-54.1798,-3.90982,0
79.9749,-53.6126,-3.90136,0
79.4644,-53.0768,-3.89119,0
78.9743,-52.5748,-3.88032,0
78.5151,-52.1062,-3.86951,0
78.2169,-51.688,-3.86621,0
77.9267,-51.2879,-3.8622,0
77.644,-50.9047,-3.85754,0
77.4651,-50.5453,-3.85791,0
77.4084,-50.2031,-3.86466,0
77.3491,-49.8643,-3.87064,0
77.2839,-49.5288,-3.87566,0
77.1884,-49.1969,-3.87823,0
77.0895,-48.8694,-3.87998,0
76.9772,-48.5468,-3.88031,0
76.8795,-48.2274,-3.88096,0
76.8021,-47.9092,-3.88231,0
76.7205,-47.5936,-3.88287,0
76.6348,-47.2805,-3.88264,0
76.5451,-46.97,-3.88163,0
76.4866,-46.6547,-3.88212,0
76.506,-46.3214,-3.88715,0
76.5219,-45.9844,-3.89152,0
76.6368,-45.6151,-3.90184,0
76.7666,-45.231,-3.91273,0
76.8967,-44.835,-3.9232,0
77.0272,-44.4265,-3.93322,0
77.1581,-44.0047,-3.9428,0
77.2895,-43.5688,-3.95188,0
77.5979,-43.0405,-3.97202,0
77.9693,-42.4571,-3.9957,0
78.3623,-41.8322,-4.02013,0
78.7793,-41.1612,-4.0454,0
78.7816,-40.6842,-4.04279,174
80.5674,-39.1463,-4.1553,0
82.8071,-37.1986,-4.29534,174
83.8055,-35.8963,-4.35326,174
84.4198,-34.7693,-4.3848,174
87.3723,-31.8866,-4.56315,174
73.2018,-63.2644,-2.81832,174
68.7827,-56.75,-2.93964,174
88.9084,-63.2971,-3.79308,0
87.7877,-61.9503,-3.80323,0
87.2393,-60.9639,-3.8264,0
84.5367,-59.0466,-3.77079,0
83.187,-57.872,-3.75425,0
82.3327,-56.9809,-3.75097,0
81.3971,-56.116,-3.74076,0
80.301,-55.2543,-3.72031,0
79.8104,-54.6505,-3.72124,0
78.8856,-53.9515,-3.70134,0
78.58,-53.4709,-3.70567,0
78.1861,-52.9891,-3.70449,0
77.832,-52.5399,-3.70351,0
77.5694,-52.1294,-3.70539,0
77.3127,-51.736,-3.70634,0
77.0385,-51.3551,-3.7053,0
76.8056,-50.9947,-3.70522,0
76.6912,-50.6586,-3.71013,0
76.6197,-50.3326,-3.71648,0
76.5445,-50.0108,-3.72196,0
76.4658,-49.6931,-3.72659,0
76.3836,-49.3796,-3.73041,0
76.2788,-49.0704,-3.73237,0
76.1678,-48.7661,-3.73336,0
76.0538,-48.4665,-3.73356,0
75.9773,-48.1679,-3.73524,0
75.9059,-47.871,-3.73663,0
75.8303,-47.5764,-3.73725,0
75.8059,-47.2749,-3.74023,0
75.8252,-46.964,-3.7452,0
75.8414,-46.65,-3.7495,0
75.8542,-46.3329,-3.75315,0
75.8636,-46.0125,-3.7561,0
75.952,-45.6649,-3.7631,0
76.0627,-45.3011,-3.77093,0
76.173,-44.9269,-3.7782,0
76.2827,-44.5414,-3.78494,0
76.3808,-44.1488,-3.79043,0
76.4744,-43.7458,-3.79507,0
76.6301,-43.3025,-3.80268,0
76.9205,-42.7777,-3.81738,0
77.2244,-42.2202,-3.83208,0
77.5603,-41.6174,-3.84777,0
76.5902,-41.7268,-3.78831,174
77.6475,-40.667,-3.84322,174
78.0432,-39.9454,-3.8594,174
83.5006,-35.806,-4.1555,174
84.5667,-34.3545,-4.20319,174
85.2729,-33.0688,-4.22864,174
86.3922,-31.3838,-4.27377,174
68.7489,-56.8982,-2.8578,174
68.7919,-56.5949,-2.88655,174
88.4959,-62.8569,-3.79367,0
87.6304,-61.6656,-3.81009,0
86.5192,-60.4258,-3.81321,0
84.0525,-58.6601,-3.76306,0
82.8412,-57.5709,-3.74988,0
82.0927,-56.7402,-3.74941,0
81.1375,-55.8841,-3.73737,0
80.1596,-55.0796,-3.72069,0
79.4984,-54.4319,-3.7138,0
78.7985,-53.8134,-3.70269,0
78.4912,-53.3382,-3.7065,0
78.0689,-52.856,-3.70358,0
77.7572,-52.4222,-3.70413,0
77.4963,-52.0167,-3.70574,0
77.2359,-51.6269,-3.70619,0
76.9618,-51.2505,-3.70484,0
76.7459,-50.8959,-3.70531,0
76.6713,-50.5661,-3.71201,0
76.5988,-50.2413,-3.71811,0
76.5227,-49.9207,-3.72336,0
76.443,-49.6042,-3.72775,0
76.3566,-49.2918,-3.73116,0
76.2477,-48.9839,-3.73273,0
76.1359,-48.681,-3.73349,0
76.026,-48.3824,-3.73375,0
75.9575,-48.0838,-3.73571,0
75.8849,-47.7876,-3.73688,0
75.8083,-47.4936,-3.73729,0
75.8116,-47.1874,-3.7417,0
75.8302,-46.8757,-3.74648,0
75.8453,-46.5608,-3.75061,0
75.8572,-46.2428,-3.75405,0
75.8721,-45.9197,-3.75717,0
75.9832,-45.5632,-3.76536,0
76.0939,-45.1965,-3.77303,0
76.2041,-44.8192,-3.78017,0
76.3127,-44.4309,-3.78667,0
76.4074,-44.0362,-3.7918,0
76.5007,-43.63,-3.79626,0
76.7108,-43.1574,-3.80684,0
77.0048,-42.6238,-3.82153,0
77.3141,-42.0557,-3.83631,0
77.6598,-41.439,-3.8523,0
76.5537,-41.6292,-3.78497,174
77.6333,-40.5441,-3.84082,174
77.9744,-39.8505,-3.85366,174
83.3318,-35.724,-4.14319,174
85.4111,-33.5402,-4.24599,174
75.1402,-40.4194,-3.67521,174
86.3323,-31.1825,-4.2658,174
68.7122,-56.7454,-2.86751,174
68.8542,-56.5762,-2.89316,174
88.0472,-62.4062,-3.79255,0
87.4751,-61.3858,-3.8167,0
85.3584,-59.695,-3.78417,0
83.7805,-58.3752,-3.76237,0
82.6377,-57.3344,-3.75039,0
81.8128,-56.4884,-3.746,0
80.8074,-55.6317,-3.73088,0
80.0205,-54.9082,-3.72097,0
79.1105,-54.1952,-3.70285,0
78.712,-53.6772,-3.70393,0
78.3699,-53.1989,-3.70575,0
77.9532,-52.7252,-3.70261,0
77.683,-52.3059,-3.70468,0
77.4238,-51.9052,-3.70604,0
77.1578,-51.519,-3.7059,0
76.8983,-51.1488,-3.70495,0
76.7212,-50.8019,-3.70709,0
76.6513,-50.474,-3.71382,0
76.5777,-50.1503,-3.71967,0
76.5005,-49.8309,-3.72468,0
76.4198,-49.5156,-3.72884,0
76.3262,-49.2044,-3.73168,0
76.2165,-48.8979,-3.73302,0
76.1037,-48.5963,-3.73357,0
76.0071,-48.2979,-3.73438,0
75.9374,-48,-3.73612,0
75.8637,-47.7043,-3.73708,0
75.7965,-47.4094,-3.73786,0
75.8172,-47.0997,-3.74311,0
75.8348,-46.7871,-3.74771,0
75.849,-46.4714,-3.75164,0
75.8599,-46.1524,-3.7549,0
75.9035,-45.82,-3.75954,0
76.0145,-45.4607,-3.76758,0
76.125,-45.0911,-3.7751,0
76.235,-44.7106,-3.78209,0
76.3395,-44.3206,-3.78818,0
76.4338,-43.9227,-3.79314,0
76.5267,-43.5131,-3.79739,0
76.7924,-43.01,-3.81097,0
77.0903,-42.4671,-3.82568,0
77.4098,-41.8857,-3.84082,0
77.7609,-41.2571,-3.85685,0
77.7761,-40.7923,-3.85284,174
78.3007,-39.9982,-3.87666,174
81.6386,-37.32,-4.05605,0
83.2668,-35.5721,-4.13657,174
85.3939,-33.3287,-4.24128,174
75.0316,-40.3772,-3.66708,174
86.3752,-30.8981,-4.26319,174
73.0721,-63.0601,-2.70132,174
68.7223,-56.6576,-2.87565,174
85.4155,-62.0704,-3.46514,0
84.8513,-61.081,-3.4966,0
83.2343,-59.6039,-3.49899,0
82.3961,-58.6124,-3.51334,0
81.4848,-57.6489,-3.52112,0
80.6089,-56.7631,-3.5254,0
79.8143,-55.9678,-3.52801,0
78.5266,-55.0413,-3.51145,0
78.0591,-54.4734,-3.51717,0
77.8016,-54.0031,-3.52781,0
77.5487,-53.5532,-3.53701,0
77.2846,-53.1181,-3.54429,0
77.03,-52.7031,-3.55048,0
76.7809,-52.3059,-3.55551,0
76.5369,-51.9253,-3.55949,0
76.3245,-51.5649,-3.56357,0
76.1383,-51.221,-3.56765,0
75.9536,-50.8883,-3.57082,0
75.8932,-50.5781,-3.57845,0
75.8314,-50.272,-3.58532,0
75.7659,-49.9697,-3.59134,0
75.6784,-49.6705,-3.5957,0
75.5863,-49.3758,-3.59916,0
75.4907,-49.0855,-3.60183,0
75.3921,-48.7995,-3.60369,0
75.2905,-48.5178,-3.60479,0
75.2128,-48.2377,-3.60644,0
75.1816,-47.9546,-3.60976,0
75.2033,-47.6639,-3.61515,0
75.2219,-47.3708,-3.61988,0
75.2371,-47.0752,-3.62396,0
75.2491,-46.7768,-3.62736,0
75.2577,-46.4757,-3.63007,0
75.2629,-46.1717,-3.63212,0
75.2882,-45.8578,-3.63462,0
75.383,-45.5165,-3.6401,0
75.4712,-45.1679,-3.64467,0
75.5513,-44.8124,-3.64826,0
75.6296,-44.4476,-3.65116,0
75.7059,-44.0731,-3.65334,0
75.7802,-43.6884,-3.65475,0
75.9286,-43.2564,-3.65915,0
76.1784,-42.7561,-3.66776,0
76.4381,-42.2263,-3.67596,0
76.616,-41.7172,-3.67916,174
76.9692,-41.0803,-3.68988,0
77.6309,-40.2132,-3.71395,0
78.4611,-39.1758,-3.74419,0
81.1678,-36.7497,-3.85906,0
75.1799,-40.5207,-3.57297,174
85.8049,-31.8535,-4.03753,174
86.0016,-30.8264,-4.02521,174
68.6527,-56.7547,-2.79562,174
68.77,-56.5543,-2.82257,174
73.8333,-62.4473,-2.69306,174
80.305,-61.8441,-3.1796,174
87.1354,-64.3679,-3.41224,0
86.1315,-62.9985,-3.44542,0
85.2539,-61.7844,-3.47443,0
84.6966,-60.8133,-3.50479,0
82.99,-59.3138,-3.50334,0
82.1809,-58.3539,-3.5171,0
81.2285,-57.3888,-3.52251,0
80.377,-56.53,-3.52629,0
79.445,-55.6961,-3.52366,0
78.2473,-54.8242,-3.5086,0
77.9859,-54.3385,-3.52033,0
77.7296,-53.8741,-3.53055,0
77.4782,-53.4296,-3.53936,0
77.2122,-52.9991,-3.54616,0
76.9591,-52.5892,-3.55201,0
76.7115,-52.1968,-3.55674,0
76.4688,-51.8207,-3.56042,0
76.2718,-51.4666,-3.56481,0
76.0859,-51.1259,-3.56863,0
75.9352,-50.8001,-3.57299,0
75.8762,-50.4913,-3.58047,0
75.8133,-50.1863,-3.5871,0
75.7427,-49.8848,-3.59271,0
75.6527,-49.5868,-3.59676,0
75.5595,-49.2934,-3.6,0
75.4632,-49.0043,-3.60243,0
75.3637,-48.7196,-3.60408,0
75.2612,-48.439,-3.60496,0
75.1948,-48.1586,-3.607,0
75.188,-47.8727,-3.61135,0
75.2089,-47.5814,-3.61655,0
75.2265,-47.2876,-3.6211,0
75.2408,-46.9912,-3.62499,0
75.2519,-46.6921,-3.6282,0
75.2595,-46.3902,-3.63072,0
75.2637,-46.0853,-3.63256,0
75.3152,-45.7623,-3.63622,0
75.4097,-45.4185,-3.64153,0
75.4941,-45.0684,-3.64575,0
75.5737,-44.7103,-3.64916,0
75.6513,-44.3429,-3.65186,0
75.7271,-43.9656,-3.65383,0
75.8007,-43.5779,-3.655,0
75.9981,-43.118,-3.66162,0
76.2506,-42.6096,-3.67011,0
76.5134,-42.0709,-3.6782,0
76.5697,-41.6252,-3.67522,174
77.1042,-40.8728,-3.69435,0
77.8548,-39.9342,-3.72219,0
78.7156,-38.8563,-3.75329,0
84.9556,-33.8765,-4.02983,0
75.0731,-40.4769,-3.5654,174
85.8596,-31.5688,-4.03426,174
86.0586,-30.5264,-4.02135,174
68.6759,-56.6841,-2.80374,174
68.8319,-56.5356,-2.82899,174
80.0498,-62.0984,-3.14532,174
80.463,-61.7849,-3.19355,174
87.5443,-65.2022,-3.37951,0
86.8625,-63.979,-3.4225,0
85.7698,-62.5815,-3.45208,0
85.0941,-61.5038,-3.48339,0
84.1091,-60.3227,-3.50282,0
82.7519,-59.0318,-3.50745,0
81.8952,-58.0669,-3.51866,0
80.9795,-57.1366,-3.52376,0
80.151,-56.3037,-3.52706,0
79.0711,-55.429,-3.51876,0
78.173,-54.6848,-3.51207,0
77.913,-54.2052,-3.52337,0
77.6582,-53.7466,-3.53318,0
77.3959,-53.3042,-3.54117,0
77.1402,-52.8815,-3.54794,0
76.8887,-52.4767,-3.55346,0
76.6424,-52.089,-3.55788,0
76.4061,-51.7182,-3.56149,0
76.2192,-51.3693,-3.56598,0
76.0338,-51.0317,-3.56955,0
75.919,-50.7125,-3.57518,0
75.8588,-50.4048,-3.58243,0
75.7948,-50.1008,-3.58882,0
75.7177,-49.8002,-3.59394,0
75.6268,-49.5035,-3.59776,0
75.5327,-49.2113,-3.60077,0
75.4355,-48.9235,-3.60298,0
75.3351,-48.6399,-3.6044,0
75.2398,-48.3598,-3.60547,0
75.1766,-48.0798,-3.60749,0
75.1942,-47.7907,-3.61288,0
75.2141,-47.4987,-3.6179,0
75.2309,-47.2042,-3.62227,0
75.2442,-46.907,-3.62596,0
75.2544,-46.6071,-3.62898,0
75.2611,-46.3044,-3.63131,0
75.2643,-45.9986,-3.63295,0
75.3419,-45.6662,-3.63778,0
75.4358,-45.3198,-3.64289,0
75.5166,-44.9682,-3.64678,0
75.5958,-44.6076,-3.64999,0
75.673,-44.2374,-3.65249,0
75.748,-43.8572,-3.65423,0
75.8228,-43.4657,-3.65528,0
76.0684,-42.9774,-3.66405,0
76.3237,-42.4607,-3.67244,0
76.5897,-41.913,-3.6804,0
76.5606,-41.5114,-3.67302,174
77.3005,-40.6239,-3.70165,0
78.0067,-39.6968,-3.72686,174
77.8809,-39.2779,-3.71144,174
85.2466,-33.4477,-4.03853,174
74.9962,-40.4114,-3.55915,174
85.915,-31.28,-4.03083,174
86.1163,-30.2217,-4.01731,174
68.6945,-56.9727,-2.77937,174
68.7012,-56.6173,-2.81166,174
82.1473,-60.1851,-3.24518,0
81.517,-59.2617,-3.27587,0
80.5705,-58.2291,-3.29717,0
79.8003,-57.3496,-3.31619,0
78.5891,-56.3259,-3.32239,0
77.4784,-55.4225,-3.32514,0
77.2588,-54.9428,-3.34302,0
77.0205,-54.4752,-3.35864,0
76.7857,-54.0279,-3.37258,0
76.6284,-53.6232,-3.38695,0
76.4691,-53.2313,-3.39988,0
76.2524,-52.8368,-3.40987,0
76.0391,-52.4581,-3.41859,0
75.8497,-52.0987,-3.42676,0
75.6871,-51.7571,-3.43466,0
75.525,-51.4261,-3.44151,0
75.3634,-51.1054,-3.44739,0
75.2348,-50.7984,-3.45347,0
75.184,-50.5065,-3.46151,0
75.1126,-50.2169,-3.4681,0
75.0377,-49.9314,-3.47384,0
74.9593,-49.6499,-3.47876,0
74.8777,-49.3725,-3.48286,0
74.7934,-49.0989,-3.48621,0
74.7073,-48.8291,-3.48885,0
74.626,-48.5624,-3.49106,0
74.6149,-48.2921,-3.49552,0
74.6387,-48.0171,-3.5009,0
74.6589,-47.7399,-3.50561,0
74.6755,-47.4605,-3.50965,0
74.6886,-47.1788,-3.51302,0
74.698,-46.8948,-3.5157,0
74.7037,-46.6083,-3.51767,0
74.7055,-46.3194,-3.51893,0
74.702,-46.0282,-3.51942,0
74.752,-45.7164,-3.52161,0
74.8288,-45.3885,-3.52435,0
74.8955,-45.0553,-3.52605,0
74.9599,-44.7141,-3.52702,0
75.0219,-44.3644,-3.52721,0
75.0815,-44.0059,-3.5266,0
75.1383,-43.6381,-3.52515,0
75.2782,-43.2172,-3.52634,0
75.4866,-42.7426,-3.52945,0
75.6827,-42.2529,-3.53104,0
75.8841,-41.7375,-3.53176,0
76.091,-41.1941,-3.53151,0
75.7123,-41.0148,-3.5075,174
74.5392,-41.4045,-3.45326,174
75.1264,-40.5672,-3.46452,174
84.3636,-32.9827,-3.78172,174
85.5527,-31.2067,-3.79963,174
75.3535,-39.0013,-3.43284,174
68.6296,-56.7105,-2.73188,174
68.7482,-56.5141,-2.75921,174
73.7806,-62.3609,-2.57591,174
81.7278,-67.3442,-2.66457,174
79.7726,-62.0442,-2.98208,174
80.1182,-61.6903,-3.02886,174
80.8029,-61.5675,-3.07588,174
83.5005,-62.7441,-3.13458,0
76.9934,-57.9957,-3.13326,174
82.7265,-60.9569,-3.22147,0
81.9647,-59.9163,-3.25426,0
81.2924,-58.9857,-3.28305,0
80.3457,-57.9713,-3.30288,0
79.5147,-57.0792,-3.31954,0
78.0632,-55.9692,-3.31951,0
77.4172,-55.2854,-3.33039,0
77.1911,-54.8086,-3.34761,0
76.9538,-54.3469,-3.36275,0
76.7234,-53.9062,-3.37632,0
76.5908,-53.5135,-3.39093,0
76.4075,-53.1182,-3.40284,0
76.1919,-52.7283,-3.41245,0
75.9795,-52.3539,-3.42083,0
75.8037,-52.0012,-3.4291,0
75.6413,-51.6626,-3.4367,0
75.4793,-51.3346,-3.44327,0
75.3179,-51.0167,-3.44887,0
75.221,-50.7156,-3.45583,0
75.1642,-50.4244,-3.46346,0
75.0918,-50.1359,-3.4698,0
75.0159,-49.8515,-3.47531,0
74.9366,-49.5712,-3.47999,0
74.854,-49.2948,-3.48388,0
74.7694,-49.0223,-3.48703,0
74.6824,-48.7535,-3.48946,0
74.6148,-48.4867,-3.49204,0
74.622,-48.2147,-3.49711,0
74.6448,-47.9391,-3.50229,0
74.664,-47.6613,-3.50682,0
74.6796,-47.3812,-3.51068,0
74.6916,-47.0989,-3.51385,0
74.6999,-46.8142,-3.51633,0
74.7045,-46.527,-3.5181,0
74.7053,-46.2373,-3.51917,0
74.697,-45.9465,-3.51927,0
74.7741,-45.6246,-3.52246,0
74.8478,-45.2952,-3.5249,0
74.9138,-44.9598,-3.52641,0
74.9777,-44.6162,-3.52716,0
75.039,-44.2641,-3.52712,0
75.0978,-43.903,-3.52629,0
75.1539,-43.5326,-3.52458,0
75.3378,-43.085,-3.52735,0
75.5414,-42.6069,-3.52999,0
75.739,-42.1101,-3.53133,0
75.9419,-41.587,-3.53179,0
76.1505,-41.0353,-3.53126,0
75.7825,-40.8467,-3.5074,174
74.5009,-41.3188,-3.44904,174
75.0453,-40.5049,-3.45833,174
84.2426,-32.8516,-3.77112,174
85.6051,-30.916,-3.79409,174
68.6539,-56.6422,-2.74019,174
68.8157,-56.5031,-2.76515,174
81.3772,-67.6075,-2.61935,174
85.9563,-67.393,-2.91679,0
79.823,-61.9091,-2.99545,174
80.2754,-61.6325,-3.04199,174
80.9489,-61.4953,-3.08919,174
83.3894,-62.4797,-3.14789,0
76.9585,-57.8474,-3.14197,174
82.5326,-60.669,-3.23152,0
81.7859,-59.6541,-3.263,0
80.996,-58.6771,-3.28877,0
80.1268,-57.7211,-3.30832,0
79.223,-56.8114,-3.32235,0
77.6787,-55.6833,-3.31886,0
77.3562,-55.1499,-3.33551,0
77.1238,-54.6762,-3.35205,0
76.8875,-54.2201,-3.36671,0
76.6861,-53.7941,-3.38059,0
76.5529,-53.4047,-3.39482,0
76.3463,-53.0065,-3.40568,0
76.1316,-52.621,-3.41494,0
75.9206,-52.251,-3.42299,0
75.7578,-51.9044,-3.43135,0
75.5955,-51.5689,-3.43865,0
75.4337,-51.2438,-3.44494,0
75.2723,-50.9286,-3.45028,0
75.207,-50.6332,-3.45813,0
75.1441,-50.3425,-3.46534,0
75.0708,-50.0551,-3.47144,0
74.9938,-49.7719,-3.47671,0
74.9136,-49.4927,-3.48117,0
74.83,-49.2175,-3.48483,0
74.7452,-48.9461,-3.48779,0
74.6573,-48.6783,-3.49,0
74.6035,-48.4112,-3.49298,0
74.6287,-48.1371,-3.49864,0
74.6505,-47.8608,-3.50364,0
74.6687,-47.5824,-3.50798,0
74.6834,-47.3018,-3.51164,0
74.6944,-47.0187,-3.51462,0
74.7016,-46.7333,-3.5169,0
74.7052,-46.4454,-3.51848,0
74.7048,-46.155,-3.51933,0
74.7177,-45.8568,-3.52019,0
74.796,-45.5321,-3.52326,0
74.8666,-45.2013,-3.5254,0
74.9321,-44.8636,-3.52669,0
74.9952,-44.5176,-3.52722,0
75.0559,-44.163,-3.52697,0
75.1139,-43.7994,-3.52589,0
75.1873,-43.4173,-3.52468,0
75.398,-42.9507,-3.52831,0
75.5966,-42.4692,-3.53046,0
75.7957,-41.9652,-3.53156,0
76.0002,-41.4342,-3.53174,0
76.2926,-40.8207,-3.53409,0
76.9174,-39.9461,-3.54755,0
75.3783,-40.5728,-3.47867,174
74.9983,-40.4172,-3.45333,174
84.1242,-32.7188,-3.76052,174
85.658,-30.6209,-3.78835,174
68.5934,-56.8196,-2.71876,174
68.6807,-56.5779,-2.74825,174
79.6097,-58.7219,-3.08138,0
78.6172,-57.6821,-3.11165,0
77.2644,-56.5304,-3.13328,0
76.5932,-55.7964,-3.15444,0
76.4023,-55.3271,-3.17713,0
76.2121,-54.8767,-3.19789,0
76.0486,-54.4545,-3.2172,0
75.9458,-54.0702,-3.23588,0
75.8402,-53.6962,-3.25315,0
75.7275,-53.3308,-3.26897,0
75.5438,-52.9554,-3.28208,0
75.379,-52.5985,-3.29424,0
75.2393,-52.2599,-3.30572,0
75.0991,-51.9314,-3.31606,0
74.9586,-51.6127,-3.32532,0
74.8175,-51.3034,-3.33354,0
74.6727,-51.0025,-3.34067,0
74.5814,-50.7167,-3.34838,0
74.5241,-50.4401,-3.35625,0
74.463,-50.1671,-3.3633,0
74.3986,-49.8977,-3.36954,0
74.3308,-49.6319,-3.37497,0
74.2595,-49.3695,-3.37962,0
74.185,-49.1105,-3.38351,0
74.1453,-48.8532,-3.38791,0
74.1106,-48.5968,-3.39186,0
74.0896,-48.3399,-3.39571,0
74.11,-48.0781,-3.40038,0
74.1268,-47.8143,-3.40442,0
74.1401,-47.5485,-3.40778,0
74.1498,-47.2807,-3.41047,0
74.1559,-47.0108,-3.41247,0
74.1582,-46.7388,-3.41378,0
74.1508,-46.4662,-3.41417,0
74.1338,-46.1933,-3.41363,0
74.1198,-45.9166,-3.41261,0
74.1841,-45.6097,-3.41374,0
74.2458,-45.2957,-3.41412,0
74.3046,-44.9745,-3.41374,0
74.3605,-44.6458,-3.41256,0
74.4133,-44.3092,-3.41054,0
74.4628,-43.9645,-3.40763,0
74.509,-43.6113,-3.40382,0
74.6268,-43.209,-3.40149,0
74.7948,-42.7622,-3.39981,0
74.958,-42.2982,-3.39685,0
75.1227,-41.8123,-3.39274,0
75.2903,-41.3019,-3.38744,0
74.5268,-41.4194,-3.35388,174
75.1332,-40.5693,-3.3588,174
76.7106,-38.9099,-3.38701,0
78.2318,-37.1593,-3.40848,0
75.2944,-39.0609,-3.31735,174
68.6067,-56.6669,-2.66879,174
68.728,-56.4761,-2.69637,174
73.743,-62.2934,-2.45931,174
83.9547,-70.4404,-2.32739,0
81.5928,-67.1863,-2.48534,174
83.3747,-68.0169,-2.51351,0
82.8461,-66.6921,-2.60083,0
82.3772,-65.4953,-2.67889,0
82.0216,-64.4571,-2.74814,0
79.762,-62.0181,-2.8338,174
80.0221,-61.603,-2.88077,174
80.6122,-61.4182,-2.92456,174
81.2584,-61.249,-2.96878,0
76.8635,-57.9025,-3.01745,174
76.8589,-57.4601,-3.05003,174
79.2745,-58.39,-3.09034,0
78.3654,-57.4167,-3.11928,0
76.9959,-56.2786,-3.13903,0
76.5393,-55.6619,-3.16105,0
76.3486,-55.198,-3.18318,0
76.1585,-54.7528,-3.20341,0
76.0198,-54.3449,-3.22262,0
75.9162,-53.9635,-3.24089,0
75.8098,-53.5924,-3.25777,0
75.6755,-53.2234,-3.27281,0
75.4922,-52.8519,-3.28553,0
75.3396,-52.5019,-3.29759,0
75.1998,-52.1661,-3.30876,0
75.0594,-51.8405,-3.31878,0
74.9188,-51.5245,-3.32775,0
74.7767,-51.2175,-3.33565,0
74.6319,-50.9191,-3.34251,0
74.5656,-50.6382,-3.35068,0
74.5072,-50.3627,-3.35833,0
74.4452,-50.0907,-3.36514,0
74.3798,-49.8223,-3.37115,0
74.311,-49.5574,-3.37636,0
74.2387,-49.296,-3.38079,0
74.1681,-49.0379,-3.38463,0
74.1359,-48.7807,-3.38909,0
74.1002,-48.5246,-3.39286,0
74.0957,-48.2662,-3.39709,0
74.115,-48.0038,-3.40159,0
74.1309,-47.7394,-3.40543,0
74.1431,-47.4731,-3.40861,0
74.1519,-47.2047,-3.41111,0
74.1569,-46.9342,-3.41292,0
74.1581,-46.6616,-3.41403,0
74.1464,-46.3893,-3.41409,0
74.1281,-46.116,-3.41335,0
74.1383,-45.8306,-3.413,0
74.2018,-45.5218,-3.41392,0
74.2627,-45.2058,-3.41409,0
74.3207,-44.8825,-3.41349,0
74.3757,-44.5516,-3.41208,0
74.4277,-44.2127,-3.4098,0
74.4762,-43.8657,-3.40664,0
74.5214,-43.5101,-3.40256,0
74.674,-43.085,-3.40111,0
74.8417,-42.6328,-3.39912,0
75.0042,-42.1634,-3.39581,0
75.1697,-41.6707,-3.39136,0
75.3383,-41.1531,-3.3857,0
74.4974,-41.3276,-3.34979,174
75.067,-40.4959,-3.35323,174
76.8679,-38.6427,-3.38647,0
78.8785,-36.4615,-3.41894,0
68.6336,-56.6026,-2.67716,174
68.808,-56.4813,-2.70131,174
81.317,-67.5195,-2.43861,174
81.7902,-67.1406,-2.50098,174
83.223,-67.6324,-2.53909,0
82.7009,-66.3359,-2.62389,0
82.289,-65.2065,-2.69885,0
81.9117,-64.1664,-2.76675,0
79.7758,-61.8557,-2.84783,174
80.1306,-61.5112,-2.89353,174
80.7498,-61.3423,-2.93719,174
81.229,-61.0592,-2.98195,0
76.8655,-57.7782,-3.02683,174
76.9146,-57.3707,-3.05904,174
79.0224,-58.1109,-3.09911,0
77.963,-57.0779,-3.12548,0
76.8077,-56.0716,-3.14506,0
76.4854,-55.529,-3.16749,0
76.2948,-55.0704,-3.18908,0
76.1051,-54.6303,-3.2088,0
75.9909,-54.2362,-3.22792,0
75.8865,-53.8577,-3.2458,0
75.7793,-53.4895,-3.26229,0
75.6236,-53.1171,-3.27654,0
75.4407,-52.7496,-3.28889,0
75.3002,-52.406,-3.30086,0
75.1602,-52.0732,-3.31169,0
75.0198,-51.7503,-3.32142,0
74.8791,-51.4369,-3.33008,0
74.7358,-51.1323,-3.33768,0
74.6052,-50.8383,-3.34468,0
74.5495,-50.5601,-3.35293,0
74.4901,-50.2855,-3.36033,0
74.4271,-50.0145,-3.36692,0
74.3607,-49.7472,-3.3727,0
74.2909,-49.4833,-3.37769,0
74.2178,-49.2228,-3.38192,0
74.1594,-48.9651,-3.38596,0
74.1262,-48.7083,-3.39023,0
74.0895,-48.4525,-3.39379,0
74.1016,-48.1923,-3.39843,0
74.1198,-47.9293,-3.40275,0
74.1347,-47.6644,-3.4064,0
74.146,-47.3975,-3.40939,0
74.1537,-47.1286,-3.41168,0
74.1577,-46.8575,-3.4133,0
74.157,-46.5845,-3.41417,0
74.1416,-46.3123,-3.41396,0
74.1223,-46.0385,-3.413,0
74.1564,-45.7441,-3.41334,0
74.2193,-45.4333,-3.41404,0
74.2793,-45.1153,-3.41401,0
74.3366,-44.7899,-3.41317,0
74.3907,-44.4567,-3.41152,0
74.4416,-44.1156,-3.40901,0
74.4894,-43.7661,-3.40559,0
74.5547,-43.397,-3.40193,0
74.7213,-42.9593,-3.40066,0
74.8873,-42.5025,-3.39829,0
75.0506,-42.0267,-3.39467,0
75.2169,-41.5272,-3.3899,0
74.7113,-41.4647,-3.3641,174
75.2949,-40.6398,-3.36897,174
75.0009,-40.4226,-3.3476,174
77.3405,-38.1201,-3.39386,0
75.4181,-39.1694,-3.32784,174
68.5706,-56.775,-2.65529,174
68.6603,-56.5388,-2.68543,174
76.4356,-56.9001,-2.96244,0
75.9193,-56.2157,-2.99395,0
75.5815,-55.6632,-3.02158,0
75.4347,-55.2311,-3.04669,0
75.3606,-54.8482,-3.07017,0
75.2852,-54.4761,-3.09213,0
75.206,-54.1133,-3.11262,0
75.1233,-53.7595,-3.13173,0
75.0372,-53.4144,-3.14949,0
74.9109,-53.066,-3.16553,0
74.7926,-52.7309,-3.18037,0
74.6705,-52.405,-3.19395,0
74.5475,-52.0884,-3.20635,0
74.4234,-51.7808,-3.21764,0
74.2981,-51.482,-3.22784,0
74.172,-51.1914,-3.23702,0
74.0451,-50.9089,-3.24523,0
73.9907,-50.6429,-3.25403,0
73.9405,-50.3813,-3.26217,0
73.8868,-50.1229,-3.2695,0
73.8295,-49.8677,-3.27605,0
73.7688,-49.6157,-3.28182,0
73.7267,-49.3668,-3.28736,0
73.7012,-49.1196,-3.2927,0
73.6723,-48.8734,-3.29734,0
73.64,-48.6282,-3.30128,0
73.6107,-48.3835,-3.30471,0
73.6281,-48.1336,-3.3088,0
73.6421,-47.882,-3.31224,0
73.6526,-47.6286,-3.31503,0
73.6595,-47.3734,-3.31714,0
73.6627,-47.1164,-3.31859,0
73.6526,-46.8598,-3.31906,0
73.6379,-46.602,-3.31881,0
73.6193,-46.3429,-3.31785,0
73.5966,-46.0823,-3.31617,0
73.607,-45.8077,-3.31477,0
73.6577,-45.5134,-3.31383,0
73.7052,-45.2128,-3.31211,0
73.7498,-44.9056,-3.30957,0
73.7909,-44.5917,-3.3062,0
73.8285,-44.2708,-3.30195,0
73.8626,-43.9427,-3.29678,0
73.8928,-43.6072,-3.29065,0
73.9854,-43.2262,-3.28511,0
74.1226,-42.8039,-3.27954,0
74.2609,-42.3622,-3.2728,0
74.4005,-41.8998,-3.26477,0
74.5191,-41.4309,-3.25489,174
74.7087,-40.8884,-3.24495,0
75.089,-40.1707,-3.23653,0
75.5041,-39.3801,-3.22623,0
74.5639,-39.691,-3.19331,174
68.5866,-56.6271,-2.60614,174
68.7254,-56.4606,-2.63284,174
69.077,-56.5582,-2.64483,174
80.5295,-69.597,-2.00148,0
80.5365,-68.6713,-2.09594,0
80.3136,-67.5481,-2.1954,0
80.1266,-66.526,-2.28547,0
79.9284,-65.5488,-2.36918,0
80.0117,-64.8838,-2.43668,0
80.0825,-64.2321,-2.50101,0
80.1398,-63.592,-2.56232,0
80.1072,-62.9019,-2.62254,0
79.7827,-62.0159,-2.68519,174
79.9323,-61.5204,-2.73439,174
79.9583,-60.949,-2.78344,0
78.5802,-59.4713,-2.84646,0
76.8039,-57.8533,-2.90328,174
76.8528,-57.4452,-2.93698,174
76.2554,-56.6832,-2.97188,0
75.7916,-56.0396,-3.00211,0
75.5402,-55.5396,-3.02886,0
75.4123,-55.1211,-3.05348,0
75.3398,-54.7422,-3.07651,0
75.2633,-54.3727,-3.09806,0
75.183,-54.0125,-3.11815,0
75.0993,-53.6612,-3.13687,0
75.0055,-53.3162,-3.15419,0
74.8779,-52.9705,-3.16985,0
74.7582,-52.6379,-3.18433,0
74.6359,-52.3146,-3.19757,0
74.5125,-52.0006,-3.20965,0
74.388,-51.6956,-3.22063,0
74.2626,-51.3991,-3.23053,0
74.1362,-51.1109,-3.23944,0
74.0244,-50.8327,-3.24768,0
73.9769,-50.5687,-3.25641,0
73.9257,-50.308,-3.26433,0
73.8709,-50.0505,-3.27144,0
73.8127,-49.7963,-3.27776,0
73.7511,-49.5451,-3.28331,0
73.7198,-49.2969,-3.28895,0
73.6935,-49.0499,-3.29408,0
73.6636,-48.804,-3.29852,0
73.6303,-48.5592,-3.30227,0
73.616,-48.3131,-3.30593,0
73.6324,-48.0627,-3.30984,0
73.6454,-47.8106,-3.31309,0
73.6549,-47.5567,-3.31569,0
73.6608,-47.301,-3.31762,0
73.6607,-47.044,-3.31881,0
73.6488,-46.7871,-3.31907,0
73.633,-46.529,-3.31862,0
73.6133,-46.2694,-3.31745,0
73.5895,-46.0085,-3.31556,0
73.6216,-45.7252,-3.31458,0
73.6714,-45.4291,-3.31342,0
73.7181,-45.1267,-3.31148,0
73.7616,-44.8177,-3.30871,0
73.8019,-44.5018,-3.30508,0
73.8386,-44.1789,-3.30057,0
73.8715,-43.8488,-3.29514,0
73.9007,-43.511,-3.28875,0
74.0241,-43.1089,-3.28365,0
74.1615,-42.6812,-3.27776,0
74.3002,-42.2338,-3.27066,0
74.4402,-41.7654,-3.26226,0
74.5019,-41.3307,-3.25085,174
74.8105,-40.6943,-3.2427,0
75.2029,-39.9549,-3.23383,0
75.4933,-39.253,-3.22078,174
74.4716,-39.6399,-3.18672,174
68.6135,-56.5634,-2.61471,174
68.8003,-56.4596,-2.63773,174
74.0258,-62.441,-2.34129,174
80.5343,-69.3338,-2.02865,0
80.5335,-68.4133,-2.12172,0
80.262,-67.2548,-2.2215,0
80.0717,-66.2455,-2.30973,0
79.9522,-65.3587,-2.38861,0
80.0331,-64.6986,-2.45515,0
80.1,-64.0502,-2.51861,0
80.1534,-63.4133,-2.5791,0
80.0955,-62.7101,-2.63895,0
79.7898,-61.8484,-2.69998,174
80.0005,-61.4008,-2.74751,0
79.9406,-60.7737,-2.79716,0
78.3953,-59.2063,-2.86019,0
76.8178,-57.7372,-2.91296,174
76.8084,-57.2977,-2.94657,0
76.1211,-56.4958,-2.98079,0
75.6664,-55.8677,-3.01,0
75.4987,-55.4172,-3.036,0
75.3923,-55.0132,-3.06013,0
75.3185,-54.6369,-3.08275,0
75.241,-54.2701,-3.10387,0
75.1597,-53.9124,-3.12357,0
75.0751,-53.5635,-3.14192,0
74.9617,-53.2149,-3.15866,0
74.8447,-52.8758,-3.17406,0
74.7237,-52.5457,-3.18819,0
74.6012,-52.2251,-3.2011,0
74.4775,-51.9136,-3.21286,0
74.3527,-51.611,-3.22353,0
74.227,-51.3169,-3.23316,0
74.1004,-51.0309,-3.24177,0
74.0113,-50.7578,-3.25023,0
73.9628,-50.4948,-3.25873,0
73.9106,-50.235,-3.26641,0
73.8548,-49.9784,-3.27329,0
73.7956,-49.725,-3.2794,0
73.7368,-49.4748,-3.28483,0
73.7128,-49.2271,-3.29047,0
73.6853,-48.9804,-3.2954,0
73.6545,-48.7348,-3.29965,0
73.6203,-48.4902,-3.3032,0
73.6209,-48.2426,-3.30709,0
73.6364,-47.9917,-3.31083,0
73.6484,-47.7391,-3.3139,0
73.657,-47.4847,-3.31631,0
73.6617,-47.2285,-3.31804,0
73.6577,-46.9716,-3.31895,0
73.6448,-46.7144,-3.31901,0
73.6279,-46.4558,-3.31837,0
73.6069,-46.1959,-3.31699,0
73.584,-45.9339,-3.31494,0
73.6359,-45.6422,-3.31434,0
73.6849,-45.3444,-3.31296,0
73.7307,-45.0401,-3.31078,0
73.7734,-44.7292,-3.30777,0
73.8126,-44.4114,-3.30391,0
73.8482,-44.0865,-3.29914,0
73.8802,-43.7542,-3.29344,0
73.9262,-43.4043,-3.28719,0
74.0627,-42.99,-3.28211,0
74.2005,-42.5569,-3.27589,0
74.3395,-42.1038,-3.26842,0
74.4798,-41.629,-3.25964,0
74.6174,-41.1342,-3.24932,0
74.918,-40.4926,-3.24038,0
75.3195,-39.7333,-3.23098,0
75.3837,-39.207,-3.21373,174
74.413,-39.56,-3.18056,174
68.5479,-56.7308,-2.59246,174
68.6509,-56.5142,-2.62237,174
74.8727,-56.0002,-2.87445,0
74.7295,-55.5655,-2.90379,0
74.6791,-55.1954,-2.93022,0
74.6234,-54.8339,-2.9551,0
74.5627,-54.4806,-2.97848,0
74.4973,-54.1355,-3.00042,0
74.4277,-53.7984,-3.02097,0
74.4018,-53.4869,-3.04024,0
74.3363,-53.1684,-3.05826,0
74.2356,-52.8467,-3.07495,0
74.133,-52.5339,-3.09039,0
74.0285,-52.2296,-3.10464,0
73.9223,-51.9335,-3.11775,0
73.8146,-51.6452,-3.12977,0
73.7052,-51.3646,-3.14073,0
73.5946,-51.0913,-3.1507,0
73.4987,-50.8275,-3.15992,0
73.4584,-50.5764,-3.16902,0
73.4143,-50.3283,-3.17734,0
73.3667,-50.083,-3.18486,0
73.3258,-49.8412,-3.19179,0
73.3091,-49.6023,-3.19846,0
73.2891,-49.3645,-3.20442,0
73.2655,-49.1277,-3.2097,0
73.2387,-48.8919,-3.2143,0
73.2084,-48.657,-3.2182,0
73.1748,-48.4231,-3.22144,0
73.1872,-48.1844,-3.22498,0
73.1987,-47.9439,-3.22793,0
73.2067,-47.7018,-3.23022,0
73.2077,-47.4588,-3.23177,0
73.1993,-47.2156,-3.23255,0
73.187,-46.9712,-3.23263,0
73.1711,-46.7256,-3.23202,0
73.1512,-46.4789,-3.23071,0
73.1273,-46.231,-3.2287,0
73.0995,-45.9818,-3.22595,0
73.1291,-45.709,-3.2237,0
73.1675,-45.4265,-3.22091,0
73.2026,-45.1384,-3.21732,0
73.2341,-44.8444,-3.21288,0
73.2621,-44.5444,-3.20758,0
73.2863,-44.2381,-3.20137,0
73.3066,-43.9255,-3.1942,0
73.3227,-43.6063,-3.18608,0
73.3924,-43.2458,-3.17777,0
73.5025,-42.8461,-3.16889,0
73.6123,-42.4293,-3.15873,0
73.716,-41.9984,-3.14711,0
73.8065,-41.558,-3.13387,0
73.8948,-41.0995,-3.11907,0
74.1484,-40.4863,-3.10374,0
74.4636,-39.7847,-3.08635,0
74.7998,-39.0209,-3.06621,0
73.3698,-39.8572,-3.04056,174
71.9999,-40.327,-2.99796,174
68.5667,-56.5878,-2.54404,174
68.7228,-56.4453,-2.56946,174
69.0215,-56.4784,-2.58333,174
77.5797,-66.1253,-2.01969,0
77.6963,-65.4821,-2.0949,0
77.8872,-64.9451,-2.16154,0
78.0719,-64.4191,-2.22541,0
78.2405,-63.8935,-2.28717,0
78.3935,-63.3687,-2.34682,0
78.4459,-62.7707,-2.40783,0
78.4545,-62.1575,-2.46711,0
78.2607,-61.4056,-2.52968,0
77.749,-60.4478,-2.59711,0
77.1871,-59.5107,-2.65956,0
76.7414,-58.7109,-2.71319,0
76.1138,-57.8376,-2.76552,0
75.5347,-57.05,-2.81139,0
75.1409,-56.4213,-2.84953,0
74.7697,-55.8405,-2.88374,0
74.7159,-55.4602,-2.91141,0
74.6638,-55.0925,-2.9374,0
74.6067,-54.7333,-2.96185,0
74.5447,-54.3823,-2.98483,0
74.4781,-54.0395,-3.00636,0
74.416,-53.7081,-3.02653,0
74.3955,-53.4006,-3.04547,0
74.308,-53.0766,-3.0631,0
74.2068,-52.7575,-3.07944,0
74.1037,-52.4471,-3.09453,0
73.9987,-52.1451,-3.10846,0
73.892,-51.8513,-3.12124,0
73.7838,-51.5652,-3.13296,0
73.6742,-51.2867,-3.14364,0
73.5631,-51.0155,-3.15334,0
73.4877,-50.7563,-3.16258,0
73.4463,-50.5061,-3.17146,0
73.4012,-50.2588,-3.17954,0
73.3527,-50.0143,-3.18686,0
73.3215,-49.7736,-3.19375,0
73.3038,-49.535,-3.20021,0
73.2828,-49.2975,-3.20598,0
73.2583,-49.061,-3.21106,0
73.2305,-48.8255,-3.21547,0
73.1993,-48.5909,-3.21919,0
73.1769,-48.3561,-3.22247,0
73.1909,-48.1167,-3.22588,0
73.2014,-47.8757,-3.22863,0
73.2084,-47.6332,-3.23075,0
73.2057,-47.3902,-3.23206,0
73.1962,-47.1467,-3.23264,0
73.183,-46.902,-3.23252,0
73.1659,-46.6561,-3.23173,0
73.1448,-46.409,-3.23022,0
73.1199,-46.1607,-3.22799,0
73.0997,-45.9082,-3.22523,0
73.1403,-45.6298,-3.22299,0
73.1778,-45.3457,-3.21998,0
73.2119,-45.056,-3.21615,0
73.2424,-44.7603,-3.21147,0
73.2693,-44.4585,-3.20591,0
73.2924,-44.1505,-3.19945,0
73.3116,-43.8361,-3.19202,0
73.3266,-43.515,-3.1836,0
73.4235,-43.1346,-3.17539,0
73.5336,-42.7302,-3.16616,0
73.6433,-42.3084,-3.15561,0
73.7418,-41.8759,-3.14352,0
73.8316,-41.4305,-3.12985,0
73.9338,-40.9553,-3.11469,0
74.2354,-40.2941,-3.09909,0
74.4991,-39.625,-3.08067,174
74.9022,-38.79,-3.05996,0
73.3362,-39.7621,-3.03433,174
68.604,-56.5384,-2.55189,174
68.7929,-56.4383,-2.5744,174
73.9445,-62.3213,-2.22727,174
77.5987,-65.9248,-2.04232,0
77.7488,-65.3272,-2.11412,0
77.9409,-64.7966,-2.17978,0
78.1212,-64.2706,-2.24305,0
78.2854,-63.7452,-2.30423,0
78.4307,-63.2179,-2.36342,0
78.4498,-62.5963,-2.42486,0
78.4223,-61.9599,-2.48446,0
78.1962,-61.1922,-2.54683,0
77.546,-60.1439,-2.61666,0
77.0607,-59.2796,-2.67524,0
76.6034,-58.4852,-2.72768,0
75.9018,-57.5787,-2.77994,0
75.4209,-56.8672,-2.82258,0
75.0341,-56.2527,-2.85958,0
74.7498,-55.7293,-2.89178,0
74.7017,-55.3555,-2.91891,0
74.6482,-54.9902,-2.94446,0
74.5898,-54.6334,-2.96849,0
74.5264,-54.2847,-2.99105,0
74.4585,-53.9442,-3.0122,0
74.4106,-53.6208,-3.03198,0
74.3794,-53.3112,-3.0506,0
74.2797,-52.9856,-3.06784,0
74.1778,-52.669,-3.08382,0
74.0741,-52.361,-3.09858,0
73.9688,-52.0614,-3.11218,0
73.8616,-51.7697,-3.12466,0
73.753,-51.4858,-3.13608,0
73.643,-51.2094,-3.14649,0
73.5316,-50.9402,-3.15591,0
73.4764,-50.6853,-3.16516,0
73.434,-50.436,-3.17382,0
73.3878,-50.1895,-3.18168,0
73.3383,-49.9458,-3.18878,0
73.3168,-49.7062,-3.19565,0
73.2983,-49.4679,-3.20192,0
73.2762,-49.2306,-3.20748,0
73.2509,-48.9944,-3.21238,0
73.222,-48.7591,-3.21659,0
73.1898,-48.5248,-3.22011,0
73.1811,-48.2886,-3.2235,0
73.1941,-48.0488,-3.22672,0
73.2038,-47.8074,-3.2293,0
73.2098,-47.5644,-3.23122,0
73.2034,-47.3216,-3.23229,0
73.1929,-47.0777,-3.23267,0
73.1785,-46.8326,-3.23237,0
73.1603,-46.5864,-3.23138,0
73.1382,-46.339,-3.22967,0
73.1121,-46.0904,-3.22724,0
73.1115,-45.8302,-3.22467,0
73.1512,-45.5502,-3.22222,0
73.1877,-45.2645,-3.21898,0
73.2209,-44.9731,-3.21492,0
73.2504,-44.6757,-3.21,0
73.2762,-44.3722,-3.20418,0
73.2983,-44.0624,-3.19744,0
73.3162,-43.7461,-3.18974,0
73.3444,-43.4147,-3.18125,0
73.4546,-43.0221,-3.17291,0
73.5645,-42.6129,-3.16333,0
73.6742,-42.186,-3.15238,0
73.7673,-41.7519,-3.13981,0
73.8566,-41.3015,-3.1257,0
74.0172,-40.774,-3.11052,0
74.3239,-40.0973,-3.09424,0
74.442,-39.5437,-3.07444,174
75.0075,-38.5521,-3.05346,0
77.024,-36.0995,-3.02819,0
72.069,-40.44,-3.00727,174
68.5255,-56.6871,-2.53026,174
68.6422,-56.4906,-2.55957,174
73.9624,-55.4736,-2.79821,0
73.9334,-55.1287,-2.82551,0
73.8986,-54.7908,-2.85133,0
73.8585,-54.4599,-2.87571,0
73.8428,-54.1491,-2.89837,0
73.8402,-53.8511,-2.91963,0
73.8327,-53.557,-2.93977,0
73.8005,-53.2594,-2.95896,0
73.7177,-52.9512,-2.97724,0
73.6323,-52.6508,-2.99427,0
73.5446,-52.3581,-3.01012,0
73.4546,-52.0729,-3.02481,0
73.3626,-51.7948,-3.03841,0
73.2686,-51.5236,-3.05095,0
73.1727,-51.2592,-3.06247,0
73.0751,-51.0013,-3.07303,0
73.0115,-50.7547,-3.08284,0
72.9762,-50.5162,-3.09203,0
72.9396,-50.2804,-3.10046,0
72.9314,-50.0495,-3.1084,0
72.9198,-49.8195,-3.11566,0
72.9048,-49.5904,-3.12222,0
72.8864,-49.3623,-3.12811,0
