51.5793,-56.5612,-0.272609,0
51.7722,-56.5387,-0.290983,0
51.9664,-56.5226,-0.307746,0
52.1634,-56.518,-0.322189,0
52.3609,-56.5083,-0.336803,0
52.5585,-56.4933,-0.351554,0
52.7573,-56.4771,-0.365886,0
52.9563,-56.4562,-0.380256,0
53.1553,-56.43,-0.394772,0
53.3541,-56.3985,-0.409396,0
53.5526,-56.3615,-0.424133,0
53.7505,-56.3191,-0.438981,0
53.9477,-56.2712,-0.453913,0
54.144,-56.2178,-0.468913,0
54.3392,-56.159,-0.483986,0
54.5332,-56.0947,-0.499113,0
54.7259,-56.025,-0.514279,0
54.917,-55.9498,-0.529469,0
55.0992,-55.8575,-0.546179,0
55.2495,-55.7123,-0.568962,0
55.3836,-55.5462,-0.593659,0
55.5118,-55.377,-0.618005,0
55.6397,-55.2124,-0.641022,0
55.7637,-55.0474,-0.663386,0
55.8834,-54.881,-0.685212,0
55.9987,-54.7133,-0.70652,0
56.1095,-54.5444,-0.727302,0
56.216,-54.3744,-0.747551,0
56.3182,-54.2035,-0.767282,0
56.416,-54.0317,-0.786491,0
56.5096,-53.8592,-0.805168,0
56.599,-53.686,-0.823332,0
56.6841,-53.5122,-0.840964,0
56.7666,-53.3392,-0.857927,0
56.8609,-53.1785,-0.872697,0
56.9518,-53.0165,-0.887028,0
57.0391,-52.8535,-0.900925,0
57.1229,-52.6894,-0.914382,0
57.2032,-52.5243,-0.927404,0
57.28,-52.3583,-0.939982,0
57.3533,-52.1915,-0.952136,0
57.4232,-52.0239,-0.96384,0
57.4896,-51.8555,-0.975109,0
57.5541,-51.6873,-0.985827,0
57.6177,-51.5195,-0.99591,0
57.6777,-51.3508,-1.0056,0
57.7341,-51.1814,-1.01488,0
57.7869,-51.0112,-1.02375,0
57.8354,-50.84,-1.03227,0
57.878,-50.6675,-1.04052,0
57.917,-50.4946,-1.04837,0
57.9416,-50.3181,-1.05651,0
57.9621,-50.1418,-1.06423,0
57.9787,-49.9658,-1.07153,0
57.9914,-49.7901,-1.07841,0
58.0003,-49.6148,-1.08488,0
58.0053,-49.4401,-1.09094,0
58.0066,-49.2659,-1.09658,0
46.017,-54.013,0.084593,0
46.1464,-54.1279,0.0750471,0
46.278,-54.2407,0.065423,0
46.4118,-54.3514,0.0557063,0
46.5476,-54.4604,0.0460334,0
46.6755,-54.584,0.040384,0
46.8063,-54.7061,0.0346174,0
46.9401,-54.8265,0.0287434,0
47.0769,-54.9453,0.0227424,0
47.2166,-55.0624,0.0166291,0
47.3592,-55.1777,0.0104084,0
47.5049,-55.2911,0.00405586,0
47.654,-55.4018,-0.00259453,0
47.8134,-55.4908,-0.0134637,0
47.973,-55.5827,-0.0232781,0
48.1313,-55.6839,-0.0308269,0
48.2926,-55.7825,-0.0385613,0
48.4584,-55.8729,-0.0475506,0
48.6277,-55.9564,-0.0574578,0
48.7996,-56.0372,-0.0674529,0
48.9739,-56.1152,-0.0775652,0
49.1505,-56.1902,-0.0877752,0
49.3297,-56.2624,-0.0980828,0
49.5112,-56.3314,-0.108498,0
49.6937,-56.409,-0.117009,0
49.8787,-56.4913,-0.124343,0
50.0667,-56.5707,-0.131823,0
50.2595,-56.5993,-0.147282,0
50.4535,-56.6063,-0.165676,0
50.6477,-56.6089,-0.184089,0
50.8418,-56.6072,-0.202507,0
51.0359,-56.6012,-0.220939,0
51.2298,-56.5909,-0.239357,0
51.4234,-56.5762,-0.25778,0
51.6166,-56.5571,-0.276169,0
51.8094,-56.5338,-0.294528,0
52.0045,-56.5221,-0.310529,0
52.2016,-56.5165,-0.325007,0
52.3991,-56.5058,-0.33964,0
52.5968,-56.49,-0.354387,0
52.7957,-56.4735,-0.368654,0
52.9948,-56.4516,-0.383058,0
53.1937,-56.4244,-0.397585,0
53.3926,-56.3917,-0.412238,0
53.5909,-56.3537,-0.426999,0
53.7886,-56.3102,-0.441862,0
53.9857,-56.2613,-0.456808,0
54.1818,-56.2069,-0.471823,0
54.3769,-56.147,-0.486906,0
54.5706,-56.0817,-0.502043,0
54.763,-56.0109,-0.517209,0
54.9534,-55.9341,-0.532482,0
55.133,-55.8369,-0.549679,0
55.2758,-55.6805,-0.573757,0
55.4088,-55.5138,-0.598395,0
55.5362,-55.3444,-0.622614,0
55.664,-55.1806,-0.645392,0
55.7873,-55.0153,-0.667648,0
55.9061,-54.8487,-0.689372,0
56.0205,-54.6807,-0.710578,0
56.1305,-54.5116,-0.731257,0
56.2361,-54.3415,-0.751403,0
56.3374,-54.1704,-0.771037,0
56.4345,-53.9984,-0.790143,0
56.5272,-53.8257,-0.808718,0
56.6158,-53.6524,-0.826769,0
56.7002,-53.4786,-0.844313,0
56.7852,-53.3083,-0.860807,0
56.8788,-53.1473,-0.8755,0
56.9689,-52.9851,-0.889753,0
57.0555,-52.8218,-0.903561,0
57.1387,-52.6575,-0.916935,0
57.2184,-52.4923,-0.929875,0
57.2944,-52.3262,-0.94237,0
57.3671,-52.1592,-0.95443,0
57.4363,-51.9914,-0.966052,0
57.502,-51.8229,-0.977238,0
57.5666,-51.6549,-0.987809,0
57.6295,-51.4869,-0.997819,0
57.6889,-51.3181,-1.00743,0
57.7446,-51.1485,-1.01663,0
57.7967,-50.9782,-1.02542,0
57.8439,-50.8067,-1.03389,0
57.8858,-50.6341,-1.04207,0
57.9221,-50.4604,-1.04997,0
57.9459,-50.284,-1.05803,0
57.9655,-50.1078,-1.06567,0
57.9815,-49.9318,-1.0729,0
57.9935,-49.7562,-1.0797,0
58.0016,-49.581,-1.08608,0
47.6093,-52.0736,-0.43269,174
46.3874,-53.9794,0.0641486,0
46.5159,-54.0865,0.0548029,0
46.6465,-54.1915,0.0453791,0
46.7762,-54.2993,0.0371467,0
46.9018,-54.4163,0.0316145,0
47.0302,-54.5317,0.0259748,0
47.1613,-54.6454,0.0202229,0
47.2953,-54.7575,0.0143537,0
47.4322,-54.8677,0.00838203,0
47.5719,-54.9761,0.00229317,0
47.718,-55.074,-0.0058123,0
47.8704,-55.1597,-0.0162029,0
48.025,-55.2425,-0.0267352,0
48.1809,-55.3248,-0.0369061,0
48.3348,-55.4184,-0.0442889,0
48.4913,-55.5095,-0.0518426,0
48.6507,-55.5978,-0.0595672,0
48.8129,-55.6834,-0.0674773,0
48.9777,-55.766,-0.0755486,0
49.1456,-55.8435,-0.0842205,0
49.317,-55.9124,-0.0940887,0
49.4906,-55.9783,-0.104045,0
49.6664,-56.0413,-0.114089,0
49.8444,-56.1015,-0.124172,0
50.0234,-56.1759,-0.131291,0
50.2065,-56.2189,-0.143459,0
50.3918,-56.2272,-0.161022,0
50.5773,-56.2313,-0.178605,0
50.7628,-56.2313,-0.196198,0
50.9483,-56.2272,-0.213801,0
51.1335,-56.2189,-0.231418,0
51.3187,-56.2064,-0.249011,0
51.5034,-56.1898,-0.266589,0
51.6878,-56.1691,-0.284152,0
51.8716,-56.1443,-0.301667,0
52.055,-56.1153,-0.319157,0
52.2377,-56.0823,-0.336584,0
52.4215,-56.0534,-0.352712,0
52.6084,-56.0344,-0.366735,0
52.7964,-56.0141,-0.380319,0
52.9844,-55.9889,-0.394035,0
53.172,-55.9585,-0.407863,0
53.3593,-55.9232,-0.421779,0
53.5462,-55.8827,-0.435807,0
53.7323,-55.8371,-0.449904,0
53.9159,-55.7828,-0.464562,0
54.0976,-55.7218,-0.479518,0
54.2777,-55.6553,-0.494567,0
54.4558,-55.5832,-0.509704,0
54.632,-55.5058,-0.524889,0
54.8058,-55.423,-0.540134,0
54.9773,-55.335,-0.555397,0
55.1275,-55.2129,-0.574611,0
55.2566,-55.0615,-0.597092,0
55.3816,-54.9084,-0.619094,0
55.5022,-54.7537,-0.640612,0
55.6187,-54.5974,-0.661647,0
55.731,-54.4398,-0.682189,0
55.8391,-54.2809,-0.702243,0
55.9431,-54.1208,-0.721808,0
56.0431,-53.9597,-0.740876,0
56.139,-53.7976,-0.759455,0
56.2308,-53.6346,-0.777541,0
56.3185,-53.4709,-0.795138,0
56.4067,-53.3103,-0.811711,0
56.5021,-53.1582,-0.826486,0
56.5942,-53.0049,-0.840846,0
56.6829,-52.8503,-0.854787,0
56.7681,-52.6947,-0.868307,0
56.8501,-52.538,-0.881408,0
56.9287,-52.3803,-0.894089,0
57.0038,-52.2216,-0.90634,0
57.0757,-52.062,-0.91819,0
57.1442,-51.9017,-0.929596,0
57.2095,-51.7405,-0.940602,0
57.2712,-51.5786,-0.951188,0
57.3298,-51.4161,-0.96134,0
57.3851,-51.253,-0.971091,0
57.437,-51.0893,-0.980417,0
57.4856,-50.925,-0.989333,0
57.5201,-50.7562,-0.998674,0
57.553,-50.5882,-1.00742,0
57.5821,-50.4202,-1.01578,0
57.6074,-50.2521,-1.02373,0
57.6289,-50.0841,-1.03129,0
57.6466,-49.9162,-1.03845,0
57.6607,-49.7486,-1.04521,0
57.671,-49.5814,-1.05157,0
57.6777,-49.4145,-1.05754,0
57.6806,-49.2481,-1.06312,0
46.2854,-53.8914,0.0716291,0
46.4121,-54.0002,0.0623518,0
46.541,-54.1069,0.0529963,0
46.672,-54.2115,0.043548,0
46.8003,-54.322,0.0360871,0
46.9263,-54.4387,0.0305305,0
47.0553,-54.5538,0.0248713,0
47.187,-54.6672,0.0190949,0
47.3216,-54.7789,0.0132063,0
47.459,-54.8888,0.00721504,0
47.5993,-54.9969,0.00111153,0
47.7473,-55.0908,-0.00781425,0
47.9001,-55.1759,-0.0182342,0
48.0551,-55.2582,-0.0287811,0
48.2105,-55.3431,-0.0383221,0
48.3648,-55.4362,-0.0457342,0
48.522,-55.5268,-0.0533172,0
48.6819,-55.6146,-0.0610857,0
48.8445,-55.6996,-0.0690203,0
49.0099,-55.7817,-0.0771307,0
49.1786,-55.8571,-0.0861248,0
49.3504,-55.9254,-0.0960076,0
49.5245,-55.9907,-0.105978,0
49.7006,-56.0531,-0.116052,0
49.8787,-56.1161,-0.125539,0
50.0583,-56.1899,-0.132687,0
50.2423,-56.2208,-0.146852,0
50.4277,-56.2283,-0.164416,0
50.6131,-56.2317,-0.181999,0
50.7986,-56.2309,-0.199601,0
50.9841,-56.2259,-0.217214,0
51.1694,-56.2168,-0.234806,0
51.3545,-56.2035,-0.252414,0
51.5391,-56.1862,-0.269987,0
51.7234,-56.1646,-0.287541,0
51.9072,-56.139,-0.305051,0
52.0903,-56.1093,-0.322526,0
52.2729,-56.0754,-0.339943,0
52.4576,-56.05,-0.355431,0
52.6448,-56.0309,-0.369352,0
52.8327,-56.0096,-0.382966,0
53.0206,-55.9834,-0.396696,0
53.2083,-55.9521,-0.410539,0
53.3955,-55.9157,-0.424489,0
53.5821,-55.8743,-0.438522,0
53.7681,-55.8277,-0.452638,0
53.9512,-55.7715,-0.467453,0
54.1325,-55.7094,-0.482424,0
54.3122,-55.6418,-0.497487,0
54.49,-55.5687,-0.512634,0
54.6657,-55.4902,-0.527834,0
54.8391,-55.4064,-0.543083,0
55.0102,-55.3173,-0.558351,0
55.1527,-55.1838,-0.578996,0
55.2811,-55.0321,-0.601384,0
55.4052,-54.8786,-0.623293,0
55.525,-54.7236,-0.644719,0
55.6407,-54.5671,-0.665656,0
55.7523,-54.4092,-0.6861,0
55.8596,-54.25,-0.706056,0
55.9628,-54.0897,-0.725529,0
56.062,-53.9284,-0.744499,0
56.157,-53.7661,-0.76299,0
56.248,-53.603,-0.780978,0
56.3351,-53.4391,-0.798483,0
56.4254,-53.2809,-0.814601,0
56.5202,-53.1286,-0.829304,0
56.6116,-52.9751,-0.843571,0
56.6996,-52.8203,-0.857428,0
56.7843,-52.6645,-0.870871,0
56.8655,-52.5076,-0.883888,0
56.9434,-52.3497,-0.896486,0
57.018,-52.1908,-0.908664,0
57.0891,-52.0311,-0.920427,0
57.1571,-51.8706,-0.93176,0
57.2216,-51.7093,-0.942677,0
57.2829,-51.5473,-0.95318,0
57.3408,-51.3846,-0.963263,0
57.3954,-51.2214,-0.972927,0
57.4467,-51.0575,-0.98217,0
57.4912,-50.8918,-0.991276,0
57.5267,-50.7237,-1.0004,0
57.5589,-50.5557,-1.00906,0
57.5873,-50.3876,-1.01735,0
57.6119,-50.2196,-1.02523,0
57.6327,-50.0516,-1.03271,0
57.6497,-49.8838,-1.03978,0
57.663,-49.7163,-1.04647,0
57.6726,-49.5491,-1.05276,0
57.6784,-49.3823,-1.05865,0
57.6808,-49.216,-1.06415,0
47.5847,-51.9911,-0.439083,174
46.3098,-53.9126,0.0698371,0
46.4369,-54.021,0.0605549,0
46.5661,-54.1273,0.0511701,0
46.6976,-54.2315,0.0417121,0
46.8244,-54.3447,0.0350227,0
46.9511,-54.4611,0.0294465,0
47.0805,-54.5759,0.0237629,0
47.2128,-54.6889,0.0179621,0
47.348,-54.8003,0.0120588,0
47.4859,-54.9098,0.00603828,0
47.6266,-55.0176,-8.47626e-05,0
47.7766,-55.1075,-0.00981621,0
47.9299,-55.192,-0.0202557,0
48.0853,-55.2737,-0.0308416,0
48.2402,-55.3613,-0.0397381,0
48.395,-55.454,-0.0471844,0
48.5527,-55.544,-0.0548113,0
48.7131,-55.6312,-0.0626092,0
48.8762,-55.7157,-0.0705779,0
49.0422,-55.7972,-0.0787127,0
49.2116,-55.8705,-0.0880291,0
49.3839,-55.9382,-0.0979314,0
49.5584,-56.003,-0.107917,0
49.735,-56.0648,-0.118005,0
49.9133,-56.1306,-0.126911,0
50.0933,-56.2039,-0.134084,0
50.2781,-56.2226,-0.150241,0
50.4635,-56.2293,-0.167819,0
50.649,-56.2318,-0.185402,0
50.8345,-56.2302,-0.20301,0
51.0199,-56.2245,-0.220617,0
51.2052,-56.2146,-0.238215,0
51.3901,-56.2005,-0.255812,0
51.5748,-56.1823,-0.273386,0
51.759,-56.16,-0.290925,0
51.9427,-56.1336,-0.308434,0
52.1257,-56.103,-0.32589,0
52.308,-56.0684,-0.343298,0
52.4937,-56.0465,-0.358141,0
52.6811,-56.0272,-0.371974,0
52.8691,-56.005,-0.385612,0
53.057,-55.9778,-0.399367,0
53.2445,-55.9455,-0.413229,0
53.4316,-55.9081,-0.427199,0
53.6181,-55.8656,-0.441252,0
53.8037,-55.8176,-0.455446,0
53.9863,-55.7599,-0.470339,0
54.1674,-55.6967,-0.485329,0
54.3467,-55.6281,-0.500412,0
54.5241,-55.5539,-0.515573,0
54.6994,-55.4744,-0.530783,0
54.8723,-55.3896,-0.546027,0
55.0429,-55.2995,-0.561305,0
55.178,-55.1546,-0.583361,0
55.3054,-55.0025,-0.605656,0
55.4287,-54.8488,-0.627468,0
55.5477,-54.6934,-0.648801,0
55.6626,-54.5366,-0.66965,0
55.7733,-54.3785,-0.690002,0
55.8798,-54.2191,-0.70987,0
55.9823,-54.0586,-0.729235,0
56.0807,-53.8971,-0.748112,0
56.1749,-53.7347,-0.766501,0
56.2652,-53.5714,-0.784401,0
56.3514,-53.4074,-0.801808,0
56.444,-53.2516,-0.817477,0
56.5381,-53.0991,-0.832092,0
56.6289,-52.9453,-0.846291,0
56.7162,-52.7903,-0.86006,0
56.8002,-52.6342,-0.87342,0
56.8809,-52.4771,-0.886359,0
56.9581,-52.319,-0.898869,0
57.032,-52.16,-0.910969,0
57.1026,-52.0001,-0.922643,0
57.1698,-51.8395,-0.933903,0
57.2337,-51.678,-0.944743,0
57.2943,-51.5159,-0.955163,0
57.3516,-51.3531,-0.965163,0
57.4055,-51.1897,-0.974748,0
57.4562,-51.0258,-0.983908,0
57.4979,-50.8592,-0.993112,0
57.5333,-50.6913,-1.0021,0
57.5647,-50.5233,-1.0107,0
57.5923,-50.3551,-1.0189,0
57.6162,-50.1871,-1.02671,0
57.6362,-50.0191,-1.03411,0
57.6525,-49.8514,-1.04111,0
57.6652,-49.6839,-1.04772,0
57.6741,-49.5168,-1.05393,0
47.7115,-51.9414,-0.434801,174
46.5373,-53.7761,0.0594807,0
46.6615,-53.8791,0.0504572,0
46.7877,-53.9801,0.0413508,0
46.9161,-54.079,0.0321711,0
47.038,-54.1905,0.0267316,0
47.1623,-54.3007,0.0212678,0
47.2894,-54.4092,0.0156965,0
47.4191,-54.516,0.0100324,0
47.5516,-54.621,0.00425606,0
47.6888,-54.7194,-0.00275078,0
47.8335,-54.8037,-0.0126287,0
47.9802,-54.8852,-0.0226336,0
48.1291,-54.964,-0.0327703,0
48.2799,-55.0401,-0.0430242,0
48.4312,-55.1184,-0.0523211,0
48.5818,-55.2041,-0.0596062,0
48.735,-55.2872,-0.0670476,0
48.8908,-55.3675,-0.0746648,0
49.0491,-55.4451,-0.0824432,0
49.2099,-55.5197,-0.0903728,0
49.3733,-55.5914,-0.0984783,0
49.539,-55.66,-0.10673,0
49.7071,-55.7255,-0.115138,0
49.8776,-55.7877,-0.123722,0
50.0505,-55.8443,-0.132878,0
50.2266,-55.8737,-0.146462,0
50.404,-55.8817,-0.163263,0
50.5816,-55.8856,-0.180095,0
50.7591,-55.8857,-0.196945,0
50.9367,-55.8817,-0.213801,0
51.1141,-55.8737,-0.230656,0
51.2912,-55.8618,-0.247497,0
51.4681,-55.8459,-0.264328,0
51.6447,-55.8261,-0.28113,0
51.8209,-55.8034,-0.297731,0
51.9966,-55.777,-0.314235,0
52.1718,-55.747,-0.330671,0
52.3464,-55.7132,-0.347023,0
52.5203,-55.6757,-0.363288,0
52.6905,-55.6241,-0.381047,0
52.8583,-55.5652,-0.39925,0
53.0346,-55.5326,-0.412751,0
53.2101,-55.4947,-0.426398,0
53.3848,-55.4518,-0.440187,0
53.5584,-55.4036,-0.454089,0
53.7308,-55.3503,-0.468107,0
53.9019,-55.2919,-0.482219,0
54.0712,-55.2283,-0.496418,0
54.239,-55.1597,-0.51069,0
54.4048,-55.0861,-0.525011,0
54.5684,-55.0074,-0.539391,0
54.7298,-54.9239,-0.553781,0
54.8887,-54.8355,-0.568195,0
55.045,-54.7423,-0.582604,0
55.1685,-54.6024,-0.603093,0
55.2851,-54.4565,-0.623747,0
55.3977,-54.3091,-0.643942,0
55.5065,-54.1603,-0.663688,0
55.6112,-54.0101,-0.682975,0
55.7121,-53.8588,-0.701804,0
55.8091,-53.7063,-0.720163,0
55.9023,-53.5527,-0.738068,0
55.9916,-53.3983,-0.7555,0
56.0867,-53.2518,-0.771149,0
56.1824,-53.1077,-0.785837,0
56.2749,-52.9623,-0.800134,0
56.3641,-52.8156,-0.81402,0
56.4501,-52.6677,-0.827502,0
56.5329,-52.5186,-0.840588,0
56.6123,-52.3685,-0.853278,0
56.6887,-52.2174,-0.865553,0
56.7617,-52.0653,-0.877424,0
56.8316,-51.9123,-0.888903,0
56.8981,-51.7584,-0.899972,0
56.9616,-51.6038,-0.910636,0
57.0218,-51.4484,-0.92089,0
57.073,-51.2896,-0.931281,0
57.112,-51.1263,-0.942072,0
57.1471,-50.963,-0.952448,0
57.1828,-50.8015,-0.962048,0
57.219,-50.6415,-0.970886,0
57.2516,-50.4812,-0.979357,0
57.2805,-50.3208,-0.987438,0
57.3056,-50.1604,-0.995138,0
57.3273,-50,-1.00247,0
57.3452,-49.8397,-1.00941,0
57.3596,-49.6795,-1.01598,0
57.3705,-49.5197,-1.02217,0
57.3779,-49.3601,-1.02798,0
57.3817,-49.201,-1.03341,0
47.7223,-51.9626,-0.433918,174
46.5611,-53.7961,0.0577473,0
46.6857,-53.8988,0.0487043,0
46.8124,-53.9994,0.0395832,0
46.9396,-54.1004,0.0310578,0
47.0619,-54.2119,0.0256867,0
47.1867,-54.3218,0.0202033,0
47.3143,-54.43,0.0146125,0
47.4445,-54.5364,0.00892891,0
47.5775,-54.6411,0.00312813,0
47.7166,-54.7359,-0.00464531,0
47.8617,-54.8196,-0.0145525,0
48.0089,-54.9007,-0.0245769,0
48.1581,-54.979,-0.0347332,0
48.3094,-55.0545,-0.0450164,0
48.4602,-55.1351,-0.0537078,0
48.6113,-55.2204,-0.0610223,0
48.765,-55.3029,-0.0685076,0
48.9212,-55.3827,-0.0761492,0
49.0801,-55.4597,-0.0839568,0
49.2413,-55.5338,-0.0919305,0
49.4051,-55.6049,-0.100055,0
49.5712,-55.6729,-0.108337,0
49.7398,-55.7377,-0.116789,0
49.9108,-55.7994,-0.125392,0
50.0841,-55.8542,-0.134782,0
50.2609,-55.8756,-0.149704,0
50.4383,-55.8827,-0.16652,0
50.6159,-55.886,-0.183351,0
50.7934,-55.8852,-0.200202,0
50.971,-55.8804,-0.217062,0
51.1483,-55.8717,-0.233908,0
51.3255,-55.859,-0.250759,0
51.5023,-55.8424,-0.26758,0
51.6787,-55.8219,-0.284362,0
51.8548,-55.7986,-0.300934,0
52.0305,-55.7715,-0.317419,0
52.2056,-55.7407,-0.333835,0
52.3801,-55.7062,-0.350168,0
52.5538,-55.668,-0.366413,0
52.723,-55.6125,-0.38466,0
52.8925,-55.5593,-0.401857,0
53.0686,-55.5257,-0.415378,0
53.244,-55.4868,-0.429054,0
53.4184,-55.4429,-0.442863,0
53.5919,-55.3937,-0.456794,0
53.7641,-55.3394,-0.470827,0
53.9348,-55.28,-0.484963,0
54.1038,-55.2154,-0.499177,0
54.2712,-55.1459,-0.513459,0
54.4365,-55.0712,-0.52779,0
54.5998,-54.9917,-0.542165,0
54.7607,-54.9072,-0.556569,0
54.9191,-54.8178,-0.570978,0
55.0716,-54.7188,-0.586105,0
55.1914,-54.5743,-0.607121,0
55.3072,-54.4281,-0.627687,0
55.4191,-54.2805,-0.6478,0
55.527,-54.1314,-0.667453,0
55.6311,-53.981,-0.686647,0
55.7312,-53.8294,-0.705383,0
55.8275,-53.6767,-0.723654,0
55.9198,-53.5229,-0.741467,0
56.0084,-53.3683,-0.758815,0
56.1055,-53.224,-0.774025,0
56.2005,-53.0797,-0.788635,0
56.2925,-52.934,-0.802844,0
56.381,-52.7871,-0.816657,0
56.4664,-52.6389,-0.83007,0
56.5485,-52.4897,-0.843078,0
56.6273,-52.3394,-0.85568,0
56.703,-52.188,-0.867878,0
56.7755,-52.0358,-0.879675,0
56.8447,-51.8826,-0.891071,0
56.9106,-51.7286,-0.902062,0
56.9734,-51.5738,-0.912653,0
57.033,-51.4183,-0.922829,0
57.0808,-51.258,-0.93341,0
57.1191,-51.0948,-0.944108,0
57.1535,-50.9315,-0.954411,0
57.1901,-50.7706,-0.963786,0
57.2256,-50.6105,-0.972551,0
57.2575,-50.4502,-0.980949,0
57.2855,-50.2898,-0.988957,0
57.3101,-50.1294,-0.996589,0
57.3309,-49.969,-1.00384,0
57.3483,-49.8087,-1.01071,0
57.362,-49.6486,-1.01721,0
57.3722,-49.4888,-1.02332,0
57.3788,-49.3293,-1.02906,0
57.382,-49.1703,-1.03443,0
47.6777,-51.8747,-0.437509,174
47.7332,-51.9839,-0.433021,174
46.585,-53.8161,0.0559992,0
46.71,-53.9184,0.0469465,0
46.8372,-54.0186,0.0378107,0
46.963,-54.1221,0.0300324,0
47.0857,-54.2333,0.024632,0
47.2111,-54.3428,0.019134,0
47.3392,-54.4507,0.0135236,0
47.47,-54.5568,0.00781563,0
47.6035,-54.6611,0.00199043,0
47.7445,-54.7523,-0.00655449,0
47.89,-54.8355,-0.0164764,0
48.0376,-54.916,-0.026535,0
48.1872,-54.9938,-0.0367205,0
48.3388,-55.0687,-0.0470232,0
48.4891,-55.1518,-0.0551141,0
48.6408,-55.2366,-0.0624578,0
48.795,-55.3186,-0.0699773,0
48.9517,-55.3979,-0.0776482,0
49.111,-55.4743,-0.0854852,0
49.2728,-55.5478,-0.0934832,0
49.437,-55.6183,-0.101647,0
49.6037,-55.6857,-0.109958,0
49.7727,-55.7499,-0.118444,0
49.9441,-55.8109,-0.127077,0
50.1178,-55.8668,-0.136169,0
50.2952,-55.8773,-0.152956,0
50.4727,-55.8837,-0.169772,0
50.6502,-55.8861,-0.186608,0
50.8278,-55.8846,-0.203464,0
51.0053,-55.8791,-0.220319,0
51.1827,-55.8696,-0.237165,0
51.3597,-55.8561,-0.254006,0
51.5364,-55.8387,-0.270832,0
51.7128,-55.8177,-0.28757,0
51.8888,-55.7936,-0.304118,0
52.0644,-55.7659,-0.320602,0
52.2394,-55.7344,-0.337004,0
52.4137,-55.6991,-0.353322,0
52.5874,-55.6602,-0.369553,0
52.7553,-55.6007,-0.388273,0
52.9266,-55.5532,-0.404455,0
53.1025,-55.5186,-0.41801,0
53.2777,-55.4787,-0.431711,0
53.452,-55.4338,-0.445544,0
53.6252,-55.3836,-0.459499,0
53.7971,-55.3283,-0.473552,0
53.9676,-55.2679,-0.487702,0
54.1363,-55.2024,-0.50193,0
54.3033,-55.1318,-0.516222,0
54.4683,-55.0562,-0.530568,0
54.631,-54.9757,-0.544943,0
54.7916,-54.8903,-0.559347,0
54.9495,-54.8,-0.573766,0
55.095,-54.691,-0.590207,0
55.2141,-54.5462,-0.611135,0
55.3291,-54.3997,-0.631618,0
55.4402,-54.2518,-0.651633,0
55.5475,-54.1024,-0.671193,0
55.6508,-53.9518,-0.6903,0
55.7502,-53.7999,-0.708952,0
55.8457,-53.647,-0.727136,0
55.9373,-53.4931,-0.74486,0
56.0264,-53.3395,-0.761945,0
56.1241,-53.1962,-0.776877,0
56.2186,-53.0516,-0.791408,0
56.3098,-52.9057,-0.805544,0
56.3978,-52.7585,-0.819279,0
56.4825,-52.6102,-0.832614,0
56.5641,-52.4607,-0.845539,0
56.6423,-52.3102,-0.858063,0
56.7173,-52.1587,-0.870192,0
56.7891,-52.0062,-0.881916,0
56.8577,-51.8529,-0.893224,0
56.923,-51.6988,-0.904133,0
56.9852,-51.5438,-0.91464,0
57.0441,-51.3882,-0.924753,0
57.0885,-51.2265,-0.935505,0
57.126,-51.0632,-0.94613,0
57.1597,-50.8999,-0.956354,0
57.1972,-50.7397,-0.965505,0
57.232,-50.5795,-0.974211,0
57.2632,-50.4192,-0.982521,0
57.2906,-50.2588,-0.990461,0
57.3145,-50.0984,-0.998019,0
57.3347,-49.938,-1.0052,0
57.3512,-49.7777,-1.01199,0
57.3643,-49.6177,-1.01842,0
57.3737,-49.4579,-1.02446,0
47.7436,-51.9027,-0.411238,174
47.7552,-52.0743,-0.387901,174
46.7975,-53.6853,0.0463898,0
46.9198,-53.7825,0.0375813,0
47.0441,-53.8777,0.0287043,0
47.1651,-53.9798,0.0221711,0
47.2856,-54.0853,0.016883,0
47.5989,-53.8237,-0.0822199,174
47.6973,-53.9598,-0.0772622,174
47.6636,-54.3894,-3.10516e-05,0
47.801,-54.4725,-0.00942558,0
47.9405,-54.553,-0.0189422,0
48.0821,-54.6308,-0.0285906,0
48.2255,-54.706,-0.0383562,0
48.3709,-54.7785,-0.0482391,0
48.5183,-54.8482,-0.0582439,0
48.6654,-54.9224,-0.0667693,0
48.8128,-55.0007,-0.0739471,0
48.9627,-55.0764,-0.0812811,0
49.1149,-55.1494,-0.0887762,0
49.2696,-55.2194,-0.0964275,0
49.4265,-55.2866,-0.104225,0
49.5856,-55.3508,-0.112175,0
49.7471,-55.412,-0.120265,0
49.9107,-55.47,-0.128512,0
50.0764,-55.5248,-0.136896,0
50.245,-55.5579,-0.148879,0
50.4149,-55.5767,-0.162927,0
50.5855,-55.5804,-0.179137,0
50.7561,-55.5804,-0.195319,0
50.9266,-55.5768,-0.211471,0
51.0971,-55.5695,-0.227595,0
51.2673,-55.5586,-0.243683,0
51.4374,-55.5441,-0.259719,0
51.6071,-55.526,-0.2757,0
51.7765,-55.5042,-0.291633,0
51.9453,-55.4788,-0.307492,0
52.1137,-55.4498,-0.323278,0
52.2815,-55.4173,-0.338991,0
52.4485,-55.3811,-0.354611,0
52.6141,-55.3388,-0.370553,0
52.7749,-55.2801,-0.388478,0
52.9341,-55.2181,-0.406203,0
53.0916,-55.153,-0.423727,0
53.2477,-55.0847,-0.441056,0
53.4023,-55.0145,-0.458,0
53.5652,-54.9632,-0.471271,0
53.7267,-54.9072,-0.484636,0
53.8867,-54.8465,-0.498073,0
54.0451,-54.7809,-0.511569,0
54.2016,-54.7107,-0.525129,0
54.3562,-54.6359,-0.538718,0
54.5085,-54.5564,-0.552331,0
54.6586,-54.4725,-0.565964,0
54.8062,-54.384,-0.579587,0
54.9513,-54.2912,-0.5932,0
55.0863,-54.1843,-0.608293,0
55.1953,-54.0449,-0.627721,0
55.3006,-53.904,-0.64672,0
55.4022,-53.7617,-0.66529,0
55.5001,-53.6182,-0.683434,0
55.5943,-53.4735,-0.701135,0
55.6869,-53.3297,-0.718073,0
55.7859,-53.1946,-0.733054,0
55.8819,-53.058,-0.747648,0
55.9746,-52.92,-0.761867,0
56.0643,-52.7807,-0.775695,0
56.1509,-52.6401,-0.789142,0
56.2343,-52.4982,-0.802204,0
56.3146,-52.3553,-0.81488,0
56.3919,-52.2113,-0.827165,0
56.4659,-52.0662,-0.839069,0
56.537,-51.9202,-0.850578,0
56.6004,-51.7705,-0.862204,0
56.6541,-51.6166,-0.874128,0
56.7039,-51.4621,-0.88569,0
56.7501,-51.3071,-0.896872,0
56.7923,-51.1519,-0.907658,0
56.8309,-50.9964,-0.918083,0
56.868,-50.8416,-0.927922,0
56.9071,-50.6891,-0.936833,0
56.9427,-50.5361,-0.945387,0
56.9748,-50.383,-0.953576,0
57.0034,-50.2296,-0.961408,0
57.0284,-50.0762,-0.968869,0
57.05,-49.9227,-0.975978,0
57.0681,-49.7693,-0.982726,0
57.0828,-49.616,-0.989103,0
57.0941,-49.4629,-0.995119,0
57.102,-49.3101,-1.00077,0
57.1065,-49.1576,-1.00607,0
47.7517,-51.9272,-0.409224,174
46.7004,-53.6054,0.0534406,0
46.821,-53.7042,0.0446955,0
46.9436,-53.8011,0.0358771,0
47.0683,-53.8959,0.0269807,0
47.1881,-54.0003,0.0211506,0
47.3092,-54.1054,0.0158479,0
47.6211,-53.8432,-0.0829971,174
47.7135,-53.9926,-0.0746668,174
47.69,-54.4057,-0.00183769,0
47.8279,-54.4883,-0.0112566,0
47.9678,-54.5682,-0.0207977,0
48.1097,-54.6456,-0.0304705,0
48.2535,-54.7202,-0.0402557,0
48.3993,-54.7922,-0.0501678,0
48.547,-54.8613,-0.0601873,0
48.6937,-54.9377,-0.0681365,0
48.8416,-55.0156,-0.0753533,0
48.9919,-55.0907,-0.0827215,0
49.1447,-55.1631,-0.090241,0
49.2998,-55.2327,-0.0979217,0
49.4571,-55.2993,-0.105749,0
49.6167,-55.3629,-0.113727,0
49.7785,-55.4235,-0.121847,0
49.9426,-55.4808,-0.130129,0
50.1087,-55.535,-0.138537,0
50.2778,-55.5628,-0.151418,0
50.448,-55.5777,-0.166061,0
50.6185,-55.5807,-0.182262,0
50.7891,-55.58,-0.198444,0
50.9596,-55.5756,-0.214592,0
51.13,-55.5677,-0.230715,0
51.3002,-55.5561,-0.246784,0
51.4702,-55.5409,-0.262809,0
51.6399,-55.522,-0.278786,0
51.8091,-55.4996,-0.294704,0
51.9779,-55.4735,-0.310553,0
52.1461,-55.4438,-0.32632,0
52.3138,-55.4106,-0.342009,0
52.4808,-55.3737,-0.357619,0
52.6454,-55.3277,-0.37403,0
52.8059,-55.2684,-0.391916,0
52.9647,-55.2058,-0.409601,0
53.122,-55.14,-0.427101,0
53.2776,-55.0712,-0.444377,0
53.434,-55.0049,-0.460563,0
53.5966,-54.9528,-0.473849,0
53.7578,-54.8959,-0.487223,0
53.9175,-54.8342,-0.500676,0
54.0755,-54.7677,-0.514186,0
54.2316,-54.6966,-0.527746,0
54.3858,-54.6209,-0.541345,0
54.5377,-54.5405,-0.554968,0
54.6873,-54.4557,-0.568591,0
54.8345,-54.3664,-0.582223,0
54.9791,-54.2728,-0.595832,0
55.1076,-54.1575,-0.612087,0
55.2159,-54.0177,-0.631428,0
55.3205,-53.8766,-0.650353,0
55.4214,-53.7341,-0.668835,0
55.5186,-53.5903,-0.686886,0
55.6121,-53.4454,-0.704504,0
55.7062,-53.3037,-0.721003,0
55.8047,-53.1683,-0.735905,0
55.9,-53.0314,-0.750427,0
55.9923,-52.8931,-0.764572,0
56.0812,-52.7536,-0.778327,0
56.1673,-52.6127,-0.791696,0
56.2501,-52.4707,-0.804684,0
56.3298,-52.3275,-0.817282,0
56.4065,-52.1833,-0.829499,0
56.48,-52.038,-0.84132,0
56.5503,-51.8918,-0.852761,0
56.6111,-51.7408,-0.864538,0
56.664,-51.5867,-0.876393,0
56.7131,-51.4321,-0.887883,0
56.7585,-51.2771,-0.898986,0
56.8001,-51.1218,-0.909714,0
56.838,-50.9663,-0.920055,0
56.8758,-50.8122,-0.92967,0
56.9142,-50.6595,-0.938517,0
56.9491,-50.5065,-0.946999,0
56.9806,-50.3533,-0.955119,0
57.0085,-50.2,-0.962878,0
57.0329,-50.0465,-0.970275,0
57.0537,-49.893,-0.977306,0
57.0712,-49.7396,-0.983981,0
57.0852,-49.5864,-0.990295,0
57.0959,-49.4333,-0.996247,0
57.1031,-49.2806,-1.00183,0
57.107,-49.1282,-1.00706,0
47.7116,-51.8347,-0.414733,174
47.7592,-51.9528,-0.406926,174
46.7235,-53.6246,0.0517512,0
46.8445,-53.7231,0.0429963,0
46.9676,-53.8196,0.0341633,0
47.0923,-53.9144,0.0253693,0
47.2113,-54.0208,0.0201398,0
47.3329,-54.1256,0.0148078,0
47.641,-53.8675,-0.0825354,174
47.5837,-54.33,0.00385078,0
47.7165,-54.4219,-0.00364922,0
47.8548,-54.5039,-0.0130926,0
47.995,-54.5834,-0.022658,0
48.1373,-54.6602,-0.0323504,0
48.2816,-54.7344,-0.0421648,0
48.4277,-54.8058,-0.0520867,0
48.5757,-54.8744,-0.0621404,0
48.722,-54.953,-0.0695184,0
48.8705,-55.0303,-0.0767644,0
49.0212,-55.1049,-0.0841668,0
49.1745,-55.1768,-0.0917156,0
49.33,-55.2458,-0.0994207,0
49.4878,-55.3118,-0.107277,0
49.6478,-55.3749,-0.115285,0
49.8101,-55.4348,-0.123434,0
49.9745,-55.4916,-0.131735,0
50.1413,-55.5417,-0.140827,0
50.3106,-55.5674,-0.153967,0
50.4809,-55.5786,-0.169196,0
50.6515,-55.5808,-0.185392,0
50.8221,-55.5794,-0.201574,0
50.9926,-55.5744,-0.217707,0
51.163,-55.5657,-0.233815,0
51.3331,-55.5534,-0.249885,0
51.503,-55.5375,-0.2659,0
51.6727,-55.518,-0.281867,0
51.8418,-55.4948,-0.29777,0
52.0105,-55.468,-0.313605,0
52.1786,-55.4377,-0.329362,0
52.3462,-55.4037,-0.345031,0
52.513,-55.3662,-0.360627,0
52.6766,-55.3165,-0.377502,0
52.8366,-55.2565,-0.395358,0
52.9952,-55.1933,-0.413005,0
53.1522,-55.127,-0.430451,0
53.3075,-55.0575,-0.447697,0
53.4655,-54.9952,-0.463117,0
53.6278,-54.9422,-0.476428,0
53.7887,-54.8843,-0.489821,0
53.9481,-54.8217,-0.503288,0
54.1058,-54.7543,-0.516804,0
54.2616,-54.6823,-0.530378,0
54.4153,-54.6057,-0.543981,0
54.5669,-54.5245,-0.557604,0
54.716,-54.4388,-0.571232,0
54.8627,-54.3486,-0.58486,0
55.0066,-54.2542,-0.598459,0
55.1289,-54.1306,-0.615856,0
55.2365,-53.9906,-0.635119,0
55.3403,-53.8491,-0.653952,0
55.4405,-53.7064,-0.672355,0
55.537,-53.5624,-0.690324,0
55.6298,-53.4172,-0.707863,0
55.7255,-53.2777,-0.723913,0
55.8234,-53.1419,-0.738742,0
55.918,-53.0048,-0.75319,0
56.0097,-52.8663,-0.767258,0
56.0982,-52.7264,-0.780939,0
56.1835,-52.5854,-0.794235,0
56.2658,-52.4431,-0.80715,0
56.3448,-52.2997,-0.81967,0
56.4209,-52.1553,-0.831813,0
56.4937,-52.0098,-0.843566,0
56.5636,-51.8634,-0.854928,0
56.6216,-51.7111,-0.866857,0
56.6738,-51.5569,-0.878644,0
56.7222,-51.4022,-0.890055,0
56.7668,-51.2471,-0.901086,0
56.8077,-51.0918,-0.911735,0
56.8449,-50.9362,-0.922009,0
56.8835,-50.7827,-0.931408,0
56.9212,-50.63,-0.940182,0
56.9555,-50.477,-0.9486,0
56.9862,-50.3237,-0.956647,0
57.0135,-50.1703,-0.964338,0
57.0372,-50.0168,-0.971662,0
57.0574,-49.8634,-0.97863,0
57.0741,-49.71,-0.985231,0
57.0876,-49.5568,-0.991476,0
57.0976,-49.4038,-0.99735,0
47.7684,-51.8737,-0.385283,174
47.7838,-52.0385,-0.362828,174
46.925,-53.5037,0.0425764,0
47.0434,-53.5975,0.0340607,0
47.1638,-53.6892,0.025467,0
47.2838,-53.7829,0.0179084,0
47.4008,-53.8839,0.0127863,0
47.6134,-53.8041,-0.0399057,174
47.7263,-53.9095,-0.0422513,174
47.8055,-54.0924,-0.024639,174
47.9055,-54.2429,-0.0156316,0
48.0402,-54.3199,-0.0248211,0
48.1767,-54.3944,-0.0341326,0
48.3152,-54.4662,-0.0435467,0
48.4555,-54.5354,-0.0530877,0
48.5976,-54.6019,-0.0627312,0
48.7414,-54.6657,-0.0724871,0
48.8847,-54.7358,-0.0803289,0
49.0291,-54.8072,-0.087409,0
49.1758,-54.876,-0.0946404,0
49.3246,-54.942,-0.102013,0
49.4756,-55.0052,-0.109538,0
49.6287,-55.0654,-0.117189,0
49.784,-55.1227,-0.124997,0
49.9412,-55.1769,-0.132936,0
50.1005,-55.228,-0.141012,0
50.2624,-55.2559,-0.153117,0
50.4254,-55.2777,-0.165793,0
50.5892,-55.2959,-0.178566,0
50.7534,-55.3004,-0.193293,0
50.9175,-55.2969,-0.20884,0
51.0815,-55.2899,-0.224352,0
51.2455,-55.2794,-0.239836,0
51.4091,-55.2654,-0.255265,0
51.5723,-55.2479,-0.270646,0
51.7353,-55.2268,-0.285973,0
51.8977,-55.2024,-0.301232,0
52.0598,-55.1744,-0.316428,0
52.2212,-55.143,-0.33153,0
52.382,-55.1081,-0.346569,0
52.5421,-55.0697,-0.361511,0
52.6982,-55.0177,-0.378088,0
52.8516,-54.9584,-0.395178,0
53.0036,-54.8961,-0.412082,0
53.154,-54.8307,-0.428791,0
53.3027,-54.7623,-0.44529,0
53.4499,-54.691,-0.461594,0
53.5953,-54.6168,-0.477678,0
53.739,-54.5396,-0.493547,0
53.8809,-54.4597,-0.509191,0
54.021,-54.3769,-0.524611,0
54.1652,-54.3017,-0.538117,0
54.3095,-54.226,-0.551032,0
54.4517,-54.146,-0.563952,0
54.5916,-54.0619,-0.576872,0
54.729,-53.9736,-0.589792,0
54.8638,-53.8814,-0.602663,0
54.9959,-53.7852,-0.61551,0
55.1111,-53.668,-0.6311,0
55.2096,-53.5329,-0.649011,0
55.3046,-53.3965,-0.666511,0
55.4034,-53.2664,-0.682326,0
55.5024,-53.1384,-0.697189,0
55.5984,-53.0089,-0.711681,0
55.6914,-52.8779,-0.725822,0
55.7815,-52.7455,-0.739577,0
55.8685,-52.6118,-0.752985,0
55.9526,-52.4769,-0.766012,0
56.0291,-52.3373,-0.779294,0
56.0999,-52.1948,-0.792536,0
56.167,-52.0513,-0.805436,0
56.2305,-51.9068,-0.817995,0
56.2903,-51.7615,-0.830212,0
56.3464,-51.6154,-0.842072,0
56.3988,-51.4686,-0.853576,0
56.4477,-51.3213,-0.864743,0
56.493,-51.1736,-0.875529,0
56.5346,-51.0254,-0.885973,0
56.573,-50.8771,-0.896027,0
56.6148,-50.7315,-0.904992,0
56.6531,-50.5855,-0.91361,0
56.6881,-50.4391,-0.921887,0
56.7198,-50.2924,-0.929821,0
56.748,-50.1455,-0.937414,0
56.7727,-49.9985,-0.944655,0
56.7943,-49.8514,-0.95155,0
56.8125,-49.7043,-0.958097,0
56.8273,-49.5573,-0.964299,0
56.8389,-49.4105,-0.970153,0
56.8473,-49.2639,-0.975656,0
56.8524,-49.1176,-0.980827,0
47.7765,-51.898,-0.383204,174
47.7785,-52.0833,-0.354695,174
46.9477,-53.522,0.0409406,0
47.0666,-53.6153,0.0324055,0
47.1873,-53.7067,0.0237922,0
47.3062,-53.8026,0.016927,0
47.4237,-53.9033,0.0117854,0
47.6413,-53.8123,-0.0435755,174
47.7422,-53.9424,-0.039425,174
47.7981,-54.179,-0.0083123,0
47.9313,-54.258,-0.0173943,0
48.0664,-54.3345,-0.0266082,0
48.2034,-54.4085,-0.0359393,0
48.3422,-54.4798,-0.0453826,0
48.4828,-54.5485,-0.0549383,0
48.6252,-54.6145,-0.0646062,0
48.7695,-54.6777,-0.0743865,0
48.9124,-54.7498,-0.0816814,0
49.0573,-54.8207,-0.0888006,0
49.2044,-54.889,-0.0960564,0
49.3537,-54.9544,-0.103459,0
49.5051,-55.017,-0.111008,0
49.6587,-55.0767,-0.118688,0
49.8142,-55.1334,-0.126525,0
49.9718,-55.187,-0.134484,0
50.1316,-55.2356,-0.142961,0
50.2938,-55.2604,-0.155558,0
50.457,-55.2815,-0.168259,0
50.6209,-55.2989,-0.181047,0
50.7852,-55.3,-0.196296,0
50.9493,-55.2958,-0.211838,0
51.1133,-55.2881,-0.227345,0
51.277,-55.2769,-0.242814,0
51.4406,-55.2623,-0.258239,0
51.6038,-55.2441,-0.273615,0
51.7667,-55.2224,-0.288923,0
51.9291,-55.1972,-0.304177,0
52.091,-55.1686,-0.319347,0
52.2523,-55.1365,-0.334445,0
52.413,-55.1009,-0.34947,0
52.573,-55.0619,-0.364391,0
52.728,-55.0065,-0.381403,0
52.8812,-54.9466,-0.398459,0
53.0328,-54.8837,-0.415324,0
53.1829,-54.8177,-0.431994,0
53.3313,-54.7488,-0.448459,0
53.4781,-54.6769,-0.464719,0
53.6233,-54.6021,-0.480759,0
53.7666,-54.5244,-0.496589,0
53.9081,-54.4439,-0.512194,0
54.0478,-54.3605,-0.527565,0
54.1933,-54.2874,-0.540607,0
54.3372,-54.2108,-0.553527,0
54.479,-54.1301,-0.566457,0
54.6184,-54.0451,-0.579377,0
54.7553,-53.9561,-0.592282,0
54.8895,-53.8631,-0.605153,0
55.0211,-53.7661,-0.61798,0
55.1304,-53.642,-0.634596,0
55.2283,-53.5066,-0.652424,0
55.3227,-53.37,-0.669841,0
55.4227,-53.2418,-0.685231,0
55.5212,-53.1135,-0.700021,0
55.6166,-52.9837,-0.714445,0
55.7091,-52.8524,-0.728503,0
55.7985,-52.7198,-0.742204,0
55.885,-52.5858,-0.755529,0
55.9685,-52.4506,-0.768483,0
56.0431,-52.3098,-0.781882,0
56.1132,-52.1671,-0.79506,0
56.1796,-52.0234,-0.807892,0
56.2423,-51.8788,-0.820387,0
56.3013,-51.7333,-0.832536,0
56.3568,-51.5871,-0.844328,0
56.4086,-51.4402,-0.855763,0
56.4567,-51.2928,-0.866852,0
56.5013,-51.1449,-0.877585,0
56.5423,-50.9967,-0.887946,0
56.5814,-50.849,-0.89778,0
56.6225,-50.7033,-0.906686,0
56.6602,-50.5572,-0.915236,0
56.6945,-50.4108,-0.923449,0
56.7255,-50.264,-0.93131,0
56.753,-50.1171,-0.93884,0
56.7772,-49.9701,-0.946012,0
56.798,-49.823,-0.952844,0
56.8155,-49.6759,-0.959318,0
56.8298,-49.5289,-0.965451,0
56.8409,-49.3821,-0.971247,0
56.8486,-49.2356,-0.976686,0
56.853,-49.0894,-0.981779,0
47.7432,-51.7976,-0.391714,174
47.779,-51.9299,-0.378782,174
47.7731,-52.1289,-0.346413,174
46.9705,-53.5402,0.0392902,0
47.0898,-53.6332,0.0307502,0
47.2109,-53.7241,0.0221223,0
47.3288,-53.8222,0.0159406,0
47.4466,-53.9225,0.0107746,0
47.6639,-53.8307,-0.0445376,174
47.7543,-53.9841,-0.0343779,174
47.8238,-54.1944,-0.0100555,0
47.9573,-54.273,-0.0191766,0
48.0927,-54.349,-0.0284051,0
48.23,-54.4225,-0.0377508,0
48.3692,-54.4933,-0.0472234,0
48.5103,-54.5614,-0.0568084,0
48.653,-54.6269,-0.0664959,0
48.7973,-54.6906,-0.0760516,0
48.9402,-54.7637,-0.0830486,0
49.0855,-54.8341,-0.0901922,0
49.2331,-54.9018,-0.0974773,0
49.3827,-54.9668,-0.104909,0
49.5346,-55.0288,-0.112487,0
49.6886,-55.0879,-0.120197,0
49.8445,-55.144,-0.128049,0
50.0025,-55.1971,-0.136037,0
50.1629,-55.2407,-0.145388,0
50.3254,-55.2648,-0.158005,0
50.4887,-55.2852,-0.170724,0
50.6527,-55.3008,-0.183732,0
50.8169,-55.2994,-0.199304,0
50.9809,-55.2946,-0.214841,0
51.1449,-55.2862,-0.230339,0
51.3087,-55.2744,-0.245803,0
51.4722,-55.259,-0.261218,0
51.6354,-55.2402,-0.276574,0
51.7981,-55.2178,-0.291882,0
51.9605,-55.192,-0.307111,0
52.1223,-55.1627,-0.322277,0
52.2835,-55.1299,-0.337355,0
52.444,-55.0936,-0.352365,0
52.6033,-55.0525,-0.367507,0
52.7577,-54.9952,-0.384714,0
52.9105,-54.9347,-0.401735,0
53.062,-54.8712,-0.418561,0
53.2117,-54.8046,-0.435192,0
53.3598,-54.7351,-0.451618,0
53.5063,-54.6627,-0.467829,0
53.6511,-54.5873,-0.48384,0
53.7941,-54.509,-0.499621,0
53.9352,-54.428,-0.515182,0
54.0756,-54.346,-0.530212,0
54.2212,-54.2729,-0.543112,0
54.3648,-54.1956,-0.556027,0
54.5061,-54.114,-0.568952,0
54.645,-54.0282,-0.581877,0
54.7814,-53.9385,-0.594763,0
54.9152,-53.8446,-0.607638,0
55.0462,-53.7469,-0.620461,0
55.1496,-53.6159,-0.638078,0
55.2468,-53.4803,-0.655827,0
55.3412,-53.3442,-0.673029,0
55.442,-53.2171,-0.688112,0
55.5398,-53.0885,-0.702824,0
55.6347,-52.9584,-0.717194,0
55.7266,-52.8269,-0.731183,0
55.8155,-52.694,-0.744802,0
55.9014,-52.5598,-0.758068,0
55.9838,-52.4241,-0.770998,0
56.057,-52.2823,-0.78445,0
56.1263,-52.1395,-0.79756,0
56.192,-51.9955,-0.810339,0
56.254,-51.8507,-0.822761,0
56.3123,-51.7051,-0.834841,0
56.3671,-51.5587,-0.846559,0
56.4181,-51.4118,-0.857936,0
56.4656,-51.2642,-0.868947,0
56.5095,-51.1163,-0.879611,0
56.5498,-50.968,-0.889914,0
56.5896,-50.8209,-0.899528,0
56.63,-50.6751,-0.908356,0
56.6671,-50.5289,-0.916857,0
56.7007,-50.3824,-0.924992,0
56.731,-50.2356,-0.932795,0
56.758,-50.0887,-0.940251,0
56.7815,-49.9416,-0.94736,0
56.8017,-49.7945,-0.954123,0
56.8186,-49.6475,-0.960539,0
56.8322,-49.5006,-0.966598,0
56.8426,-49.3538,-0.972326,0
47.7928,-51.8451,-0.359657,174
47.8042,-52.0143,-0.334712,174
47.0453,-53.3323,0.0387189,0
47.1595,-53.4237,0.0307453,0
47.2762,-53.5122,0.0224201,0
47.3948,-53.5987,0.0140314,0
47.5087,-53.6953,0.00894356,0
47.6247,-53.7906,0.0038752,0
47.7512,-53.8675,-0.00571972,174
47.8745,-53.9526,-0.0126531,0
48.0028,-54.0289,-0.0214178,0
48.1329,-54.1027,-0.0302947,0
48.2649,-54.174,-0.039284,0
48.3988,-54.2428,-0.0483904,0
48.5343,-54.309,-0.0576043,0
48.6716,-54.3725,-0.0669158,0
48.8105,-54.4334,-0.0763348,0
48.951,-54.4916,-0.0858514,0
49.0908,-54.5575,-0.0930975,0
49.2322,-54.6225,-0.100085,0
49.3757,-54.6849,-0.107199,0
49.5212,-54.7444,-0.11446,0
49.6687,-54.8011,-0.121852,0
49.8182,-54.8549,-0.129372,0
49.9695,-54.9057,-0.137023,0
50.1227,-54.9528,-0.144943,0
50.2785,-54.9768,-0.157038,0
50.4352,-54.9973,-0.169225,0
50.5925,-55.0141,-0.181506,0
50.7505,-55.0274,-0.193874,0
50.909,-55.0367,-0.206384,0
51.067,-55.0299,-0.22133,0
51.225,-55.0197,-0.236252,0
51.3827,-55.0062,-0.251125,0
51.54,-54.9893,-0.265939,0
51.697,-54.969,-0.280715,0
51.8536,-54.9453,-0.295412,0
52.0097,-54.9183,-0.310051,0
52.1652,-54.8879,-0.324616,0
52.3202,-54.8542,-0.339094,0
52.4744,-54.8172,-0.353493,0
52.6268,-54.7733,-0.368405,0
52.7748,-54.7165,-0.384904,0
52.9216,-54.6567,-0.401227,0
53.0667,-54.594,-0.417355,0
53.2104,-54.5284,-0.433288,0
53.3524,-54.4599,-0.449025,0
53.4928,-54.3885,-0.464567,0
53.6316,-54.3144,-0.479899,0
53.7687,-54.2375,-0.495007,0
53.9039,-54.1579,-0.509899,0
54.0373,-54.0755,-0.524572,0
54.1689,-53.9906,-0.539015,0
54.2986,-53.903,-0.553229,0
54.4264,-53.8129,-0.567194,0
54.5522,-53.7202,-0.580929,0
54.6759,-53.625,-0.594416,0
54.7976,-53.5274,-0.607653,0
54.9173,-53.4273,-0.620637,0
55.0297,-53.3192,-0.634357,0
55.1285,-53.1965,-0.649987,0
55.2249,-53.073,-0.665129,0
55.318,-52.9476,-0.679992,0
55.4076,-52.8204,-0.694577,0
55.4938,-52.6915,-0.708864,0
55.5765,-52.5611,-0.722863,0
55.6557,-52.4291,-0.736559,0
55.7315,-52.2958,-0.749943,0
55.8037,-52.1612,-0.763014,0
55.8725,-52.0254,-0.775768,0
55.9378,-51.8886,-0.78821,0
55.9995,-51.7508,-0.800314,0
56.0578,-51.6121,-0.812096,0
56.1127,-51.4726,-0.823547,0
56.1639,-51.3325,-0.834665,0
56.2118,-51.1917,-0.845446,0
56.2562,-51.0505,-0.855886,0
56.2971,-50.9088,-0.865983,0
56.34,-50.7693,-0.875124,0
56.3809,-50.6298,-0.883801,0
56.4185,-50.4898,-0.89215,0
56.4528,-50.3494,-0.900173,0
56.4839,-50.2087,-0.907858,0
56.5117,-50.0677,-0.915221,0
56.5363,-49.9266,-0.922248,0
56.5577,-49.7854,-0.928942,0
56.5758,-49.6442,-0.935304,0
56.5908,-49.503,-0.941335,0
56.6027,-49.362,-0.947033,0
56.6195,-49.2225,-0.951623,0
56.6351,-49.0833,-0.955705,0
47.797,-51.8743,-0.355852,174
47.8061,-52.0487,-0.329462,174
47.0668,-53.3507,0.0373811,0
47.182,-53.441,0.0291438,0
47.2991,-53.5291,0.020799,0
47.4169,-53.6172,0.0129621,0
47.5309,-53.7138,0.007967,0
47.6539,-53.796,-0.000578575,174
47.7723,-53.8893,-0.00567558,0
47.8991,-53.9676,-0.0143377,0
48.0278,-54.0433,-0.0231316,0
48.1584,-54.1167,-0.032033,0
48.2907,-54.1875,-0.0410418,0
48.4248,-54.2558,-0.050158,0
48.5607,-54.3215,-0.0593914,0
48.6982,-54.3845,-0.0687322,0
48.8375,-54.4449,-0.0781658,0
48.9783,-54.5032,-0.0875506,0
49.118,-54.5703,-0.0944305,0
49.2598,-54.6348,-0.101442,0
49.4037,-54.6966,-0.1086,0
49.5495,-54.7556,-0.115876,0
49.6975,-54.8117,-0.123288,0
49.8473,-54.865,-0.130846,0
49.999,-54.9152,-0.138522,0
50.1528,-54.9577,-0.147277,0
50.3088,-54.9811,-0.159382,0
50.4655,-55.0008,-0.171589,0
50.623,-55.017,-0.183884,0
50.7812,-55.0295,-0.196271,0
50.9395,-55.0356,-0.209274,0
51.0977,-55.0282,-0.22422,0
51.2555,-55.0174,-0.239128,0
51.4131,-55.0032,-0.253991,0
51.5704,-54.9856,-0.268801,0
51.7273,-54.9647,-0.283556,0
51.8838,-54.9404,-0.298254,0
52.0398,-54.9127,-0.312873,0
52.1952,-54.8817,-0.327424,0
52.35,-54.8473,-0.341887,0
52.5041,-54.8096,-0.356266,0
52.6555,-54.7626,-0.371608,0
52.8034,-54.7052,-0.388073,0
52.9498,-54.6448,-0.404362,0
53.0946,-54.5816,-0.420451,0
53.238,-54.5154,-0.436354,0
53.3798,-54.4463,-0.452053,0
53.5198,-54.3744,-0.467551,0
53.6583,-54.2997,-0.482829,0
53.7949,-54.2223,-0.497897,0
53.9298,-54.1421,-0.512751,0
54.0629,-54.0593,-0.52738,0
54.1942,-53.9738,-0.541779,0
54.3235,-53.8858,-0.555944,0
54.4509,-53.7951,-0.56987,0
54.5762,-53.702,-0.583556,0
54.6995,-53.6063,-0.596989,0
54.8209,-53.5082,-0.610182,0
54.9401,-53.4077,-0.623112,0
55.0486,-53.2951,-0.637502,0
55.1474,-53.1728,-0.652936,0
55.2432,-53.0489,-0.668024,0
55.3356,-52.9232,-0.682839,0
55.4246,-52.7956,-0.69736,0
55.5101,-52.6664,-0.711598,0
55.5921,-52.5357,-0.725534,0
55.6707,-52.4034,-0.739167,0
55.7458,-52.2699,-0.752492,0
55.8173,-52.135,-0.7655,0
55.8854,-51.999,-0.7782,0
55.95,-51.862,-0.790573,0
56.0111,-51.724,-0.802619,0
56.0687,-51.5852,-0.814333,0
56.1228,-51.4456,-0.82572,0
56.1734,-51.3053,-0.836769,0
56.2206,-51.1645,-0.847492,0
56.2644,-51.0231,-0.857863,0
56.3048,-50.8814,-0.867887,0
56.3483,-50.7424,-0.876828,0
56.3884,-50.6027,-0.885446,0
56.4254,-50.4627,-0.893732,0
56.4591,-50.3222,-0.901677,0
56.4895,-50.1815,-0.909303,0
56.5167,-50.0405,-0.916608,0
56.5407,-49.8993,-0.923566,0
56.5614,-49.7581,-0.930197,0
56.579,-49.6169,-0.936501,0
56.5934,-49.4758,-0.942468,0
56.6048,-49.3348,-0.948083,0
56.6227,-49.1956,-0.952438,0
56.6378,-49.0563,-0.956452,0
47.7676,-51.7698,-0.366281,174
47.7987,-51.9073,-0.350897,174
47.8018,-52.0922,-0.321468,174
47.0889,-53.3684,0.0358137,0
47.2045,-53.4582,0.0275324,0
47.322,-53.5459,0.0191828,0
47.4387,-53.636,0.0120051,0
47.5533,-53.7323,0.00699043,0
47.6834,-53.801,-0.00514084,174
47.7966,-53.9047,-0.00733574,0
47.9238,-53.9824,-0.016032,0
48.0528,-54.0577,-0.0248357,0
48.1838,-54.1306,-0.0337664,0
48.3164,-54.2009,-0.0427947,0
48.4509,-54.2687,-0.0519402,0
48.5872,-54.3339,-0.0611932,0
48.7251,-54.3964,-0.0705486,0
48.8646,-54.4562,-0.0800018,0
49.0051,-54.5163,-0.0888738,0
49.1452,-54.583,-0.095783,0
49.2874,-54.6469,-0.102814,0
49.4317,-54.7082,-0.109992,0
49.578,-54.7667,-0.117297,0
49.7262,-54.8223,-0.124738,0
49.8765,-54.8749,-0.132316,0
50.0285,-54.9246,-0.140021,0
50.1829,-54.9625,-0.149606,0
50.339,-54.9852,-0.161735,0
50.4959,-55.0042,-0.173967,0
50.6535,-55.0197,-0.186271,0
50.8117,-55.0316,-0.198669,0
50.9702,-55.0344,-0.21217,0
51.1281,-55.0264,-0.227106,0
51.286,-55.0149,-0.242009,0
51.4435,-55.0001,-0.256852,0
51.6008,-54.9819,-0.271657,0
51.7576,-54.9603,-0.286403,0
51.9141,-54.9353,-0.301081,0
52.0699,-54.907,-0.31569,0
52.2252,-54.8753,-0.330226,0
52.3798,-54.8403,-0.34467,0
52.5338,-54.8019,-0.35903,0
52.6841,-54.7517,-0.374806,0
52.8318,-54.6938,-0.391242,0
52.9779,-54.6328,-0.407492,0
53.1224,-54.569,-0.423542,0
53.2655,-54.5022,-0.439401,0
53.4069,-54.4326,-0.455065,0
53.5466,-54.3602,-0.470519,0
53.6848,-54.285,-0.485759,0
53.8211,-54.207,-0.500793,0
53.9557,-54.1263,-0.515597,0
54.0884,-54.043,-0.530182,0
54.2193,-53.957,-0.544538,0
54.3482,-53.8685,-0.558649,0
54.4752,-53.7773,-0.572536,0
54.6002,-53.6837,-0.586169,0
54.7232,-53.5875,-0.599567,0
54.8441,-53.489,-0.612702,0
54.9628,-53.388,-0.625588,0
55.0677,-53.2712,-0.640568,0
55.1662,-53.149,-0.655876,0
55.2613,-53.0247,-0.67091,0
55.353,-52.8986,-0.685661,0
55.4414,-52.7708,-0.700134,0
55.5262,-52.6413,-0.714313,0
55.6076,-52.5102,-0.728195,0
55.6855,-52.3777,-0.741769,0
55.7598,-52.2439,-0.755036,0
55.8307,-52.1088,-0.76798,0
55.8981,-51.9726,-0.780617,0
55.9621,-51.8354,-0.792931,0
56.0225,-51.6972,-0.804914,0
56.0794,-51.5582,-0.816564,0
56.1328,-51.4185,-0.827883,0
56.1828,-51.2781,-0.838869,0
56.2294,-51.1372,-0.849523,0
56.2724,-50.9958,-0.859826,0
56.3134,-50.8546,-0.86964,0
56.3562,-50.7154,-0.878517,0
56.3959,-50.5757,-0.887067,0
56.4322,-50.4355,-0.89529,0
56.4652,-50.295,-0.90318,0
56.495,-50.1542,-0.910744,0
56.5216,-50.0132,-0.91797,0
56.5449,-49.872,-0.92488,0
56.565,-49.7308,-0.931447,0
56.582,-49.5896,-0.937678,0
56.5958,-49.4485,-0.943581,0
56.6084,-49.3079,-0.948947,0
47.8143,-51.8203,-0.333192,174
47.8241,-51.9908,-0.306693,174
47.1628,-53.1646,0.0330939,0
47.2715,-53.256,0.0263264,0
47.3823,-53.3454,0.0194611,0
47.4972,-53.4293,0.0114191,0
47.6101,-53.5182,0.00534004,0
47.7267,-53.6021,-0.00173515,0
47.8472,-53.68,-0.00997734,0
47.9695,-53.7556,-0.0183514,0
48.0938,-53.8288,-0.0268279,0
48.2197,-53.8997,-0.0354168,0
48.3473,-53.9681,-0.044118,0
48.4768,-54.034,-0.0529119,0
48.6079,-54.0975,-0.0618182,0
48.7406,-54.1583,-0.0708269,0
48.8749,-54.2166,-0.0799285,0
49.0108,-54.2722,-0.0891228,0
49.1481,-54.3252,-0.0983807,0
49.2847,-54.3868,-0.105134,0
49.4231,-54.4458,-0.112018,0
49.5635,-54.5021,-0.119035,0
49.7058,-54.5556,-0.126174,0
49.8498,-54.6062,-0.133434,0
49.9957,-54.654,-0.140822,0
50.1435,-54.6955,-0.14903,0
50.2934,-54.7181,-0.160671,0
50.4442,-54.7373,-0.172404,0
50.5956,-54.7531,-0.184221,0
50.7476,-54.7654,-0.196125,0
50.9001,-54.7742,-0.208097,0
51.053,-54.7794,-0.220134,0
51.2059,-54.7777,-0.232917,0
51.358,-54.7646,-0.247262,0
51.5098,-54.7483,-0.261564,0
51.6614,-54.7286,-0.275807,0
51.8124,-54.7057,-0.289997,0
51.963,-54.6796,-0.304113,0
52.113,-54.6502,-0.318161,0
52.2624,-54.6176,-0.332126,0
52.4112,-54.5818,-0.346013,0
52.5593,-54.5427,-0.359811,0
52.7031,-54.4906,-0.375314,0
52.8449,-54.4332,-0.391086,0
52.9852,-54.3729,-0.406681,0
53.1241,-54.3098,-0.422087,0
53.2614,-54.2439,-0.437297,0
53.3971,-54.1753,-0.452316,0
53.5312,-54.1039,-0.467136,0
53.6637,-54.0299,-0.48175,0
53.7945,-53.9532,-0.496149,0
53.9235,-53.8738,-0.510334,0
54.0507,-53.792,-0.524299,0
54.1762,-53.7075,-0.538039,0
54.2997,-53.6206,-0.551555,0
54.4212,-53.5312,-0.564836,0
54.5409,-53.4394,-0.577873,0
54.6573,-53.3436,-0.590964,0
54.757,-53.2277,-0.607067,0
54.8533,-53.11,-0.622883,0
54.9464,-52.9905,-0.638395,0
55.0363,-52.8693,-0.653615,0
55.1255,-52.749,-0.668068,0
55.2121,-52.6278,-0.682092,0
55.2955,-52.5049,-0.695846,0
55.3756,-52.3805,-0.709318,0
55.4524,-52.2546,-0.722507,0
55.5259,-52.1274,-0.735412,0
55.596,-51.9989,-0.74801,0
55.6628,-51.8692,-0.760304,0
55.7263,-51.7385,-0.772311,0
55.7865,-51.6068,-0.784001,0
55.8433,-51.4742,-0.795378,0
55.8967,-51.3408,-0.806447,0
55.947,-51.2067,-0.817184,0
55.9937,-51.072,-0.827614,0
56.0373,-50.9367,-0.837717,0
56.0811,-50.8028,-0.847048,0
56.1242,-50.6694,-0.855763,0
56.1641,-50.5355,-0.864167,0
56.2009,-50.4011,-0.872248,0
56.2346,-50.2662,-0.880026,0
56.2652,-50.131,-0.887487,0
56.2925,-49.9956,-0.894631,0
56.3168,-49.86,-0.901452,0
56.338,-49.7242,-0.907956,0
56.3562,-49.5884,-0.914147,0
56.3795,-49.4545,-0.919128,0
56.4005,-49.3204,-0.923761,0
56.4185,-49.186,-0.928058,0
56.4339,-49.0515,-0.932033,0
47.8164,-51.8522,-0.328341,174
47.826,-52.0249,-0.301319,174
47.1837,-53.1825,0.0318,0
47.2928,-53.2734,0.0250129,0
47.4042,-53.3621,0.0179914,0
47.5196,-53.4452,0.00984688,0
47.6316,-53.536,0.00439278,0
47.7498,-53.6173,-0.00331718,0
47.8707,-53.6948,-0.0115936,0
47.9934,-53.7699,-0.0199773,0
