68.1984,-50.8753,-2.35287,0
68.2315,-50.7895,-2.36035,0
68.2626,-50.7031,-2.36758,0
68.2917,-50.6161,-2.37457,0
68.3187,-50.5285,-2.38131,0
68.3439,-50.4404,-2.38778,0
68.367,-50.3517,-2.39401,0
68.388,-50.2627,-2.39997,0
68.4072,-50.1732,-2.40567,0
68.4242,-50.0834,-2.41112,0
68.4392,-49.9933,-2.41628,0
68.4522,-49.903,-2.42119,0
68.4643,-49.8126,-2.42561,0
68.4785,-49.7225,-2.42899,0
68.4909,-49.632,-2.43209,0
68.5013,-49.5413,-2.43489,0
68.5099,-49.4503,-2.43741,0
68.5167,-49.359,-2.43963,0
68.5216,-49.2676,-2.44154,0
68.5244,-49.176,-2.44317,0
68.5255,-49.0843,-2.44448,0
68.5245,-48.9925,-2.44551,0
68.5217,-48.9006,-2.44623,0
68.5171,-48.8088,-2.44665,0
68.5105,-48.7169,-2.44676,0
68.502,-48.6252,-2.44657,0
68.4914,-48.5335,-2.44609,0
68.4791,-48.442,-2.44528,0
68.4653,-48.3505,-2.44406,0
68.4499,-48.2592,-2.4425,0
68.4326,-48.168,-2.44062,0
68.4133,-48.0772,-2.43844,0
68.3921,-47.9866,-2.43594,0
68.3689,-47.8963,-2.43314,0
68.3438,-47.8065,-2.43003,0
68.3168,-47.717,-2.4266,0
68.2879,-47.628,-2.42287,0
68.2562,-47.5398,-2.41897,0
68.2203,-47.4534,-2.41527,0
68.1825,-47.3677,-2.41127,0
68.1427,-47.2827,-2.40697,0
68.1011,-47.1986,-2.40237,0
68.0576,-47.1153,-2.3975,0
68.0123,-47.033,-2.39233,0
67.9652,-46.9515,-2.38688,0
67.9163,-46.8711,-2.38114,0
67.8656,-46.7917,-2.37511,0
67.8132,-46.7133,-2.3688,0
67.7591,-46.636,-2.36221,0
67.7031,-46.5599,-2.35535,0
67.6455,-46.485,-2.3482,0
67.5862,-46.4113,-2.34078,0
67.5252,-46.3388,-2.3331,0
67.4626,-46.2676,-2.32514,0
67.3976,-46.1986,-2.31716,0
67.328,-46.1341,-2.3098,0
67.2573,-46.071,-2.30213,0
67.1867,-46.0077,-2.29378,0
67.1146,-45.9462,-2.28519,0
67.0481,-45.8775,-2.27403,0
66.9803,-45.8096,-2.26244,0
66.9104,-45.7435,-2.25066,0
66.8387,-45.6791,-2.2387,0
66.765,-45.6165,-2.22659,0
66.6895,-45.5559,-2.21431,0
66.6123,-45.4972,-2.20189,0
66.5333,-45.4406,-2.18931,0
66.4525,-45.3861,-2.1766,0
66.3702,-45.3338,-2.16378,0
67.1026,-52.7174,-2.06924,0
67.1757,-52.6516,-2.08302,0
67.2469,-52.584,-2.09671,0
67.3162,-52.5147,-2.11029,0
67.3834,-52.4436,-2.12377,0
67.4472,-52.3694,-2.13763,0
67.5078,-52.2926,-2.15169,0
67.5663,-52.2146,-2.16557,0
67.6227,-52.1353,-2.17926,0
67.6769,-52.0548,-2.19274,0
67.7291,-51.9733,-2.206,0
67.779,-51.8907,-2.21905,0
67.8266,-51.8072,-2.23188,0
67.8721,-51.7227,-2.24448,0
67.9154,-51.6375,-2.25684,0
67.9565,-51.5514,-2.26896,0
67.9954,-51.4646,-2.28083,0
68.032,-51.3772,-2.29245,0
68.0665,-51.2892,-2.30381,0
68.0987,-51.2007,-2.31491,0
68.1287,-51.1118,-2.32574,0
68.1566,-51.0224,-2.33631,0
68.1823,-50.9327,-2.3466,0
68.2105,-50.8447,-2.35557,0
68.2428,-50.7588,-2.36297,0
68.2732,-50.6721,-2.3701,0
68.3016,-50.5849,-2.377,0
68.328,-50.4971,-2.38364,0
68.3524,-50.4088,-2.39003,0
68.3748,-50.32,-2.39616,0
68.3951,-50.2308,-2.40204,0
68.4135,-50.1412,-2.40765,0
68.4298,-50.0513,-2.41299,0
68.444,-49.9611,-2.41806,0
68.4563,-49.8707,-2.42288,0
68.4696,-49.7805,-2.42685,0
68.4831,-49.6903,-2.43013,0
68.4948,-49.5997,-2.43313,0
68.5046,-49.5088,-2.43583,0
68.5126,-49.4177,-2.43823,0
68.5186,-49.3264,-2.44034,0
68.5227,-49.2349,-2.44216,0
68.525,-49.1433,-2.44367,0
68.5254,-49.0515,-2.44488,0
68.5238,-48.9597,-2.44581,0
68.5203,-48.8678,-2.44642,0
68.515,-48.776,-2.44673,0
68.5077,-48.6842,-2.44674,0
68.4984,-48.5924,-2.44643,0
68.4872,-48.5008,-2.44583,0
68.4741,-48.4094,-2.44492,0
68.46,-48.3179,-2.44354,0
68.444,-48.2266,-2.44186,0
68.4259,-48.1356,-2.43987,0
68.4059,-48.0448,-2.43758,0
68.3841,-47.9543,-2.43498,0
68.3602,-47.8642,-2.43207,0
68.3344,-47.7745,-2.42884,0
68.3067,-47.6852,-2.42531,0
68.2771,-47.5964,-2.42146,0
68.2437,-47.5089,-2.41769,0
68.207,-47.4227,-2.41387,0
68.1685,-47.3373,-2.40977,0
68.1281,-47.2526,-2.40537,0
68.0858,-47.1688,-2.40067,0
68.0417,-47.0858,-2.3957,0
67.9958,-47.0038,-2.39042,0
67.948,-46.9227,-2.38486,0
67.8984,-46.8426,-2.37902,0
67.8471,-46.7636,-2.3729,0
67.7941,-46.6856,-2.36648,0
67.7392,-46.6088,-2.3598,0
67.6827,-46.5331,-2.35283,0
67.6245,-46.4585,-2.34559,0
67.5646,-46.3853,-2.33808,0
67.503,-46.3133,-2.3303,0
67.4399,-46.2426,-2.32224,0
67.373,-46.1754,-2.31456,0
67.3028,-46.1115,-2.30712,0
67.2323,-46.0482,-2.29917,0
67.1612,-45.9856,-2.29073,0
67.0907,-45.922,-2.28137,0
67.0241,-45.8531,-2.26991,0
66.9555,-45.7858,-2.25825,0
66.8851,-45.7203,-2.24641,0
66.8126,-45.6566,-2.2344,0
66.7383,-45.5947,-2.22223,0
66.6622,-45.5347,-2.20989,0
66.5842,-45.4768,-2.1974,0
66.5046,-45.4209,-2.1848,0
66.4234,-45.3672,-2.17204,0
66.3405,-45.3157,-2.15917,0
67.1289,-52.6941,-2.07417,0
67.2013,-52.6277,-2.08791,0
67.2718,-52.5595,-2.10157,0
67.3404,-52.4895,-2.11512,0
67.407,-52.4178,-2.12856,0
67.4691,-52.3421,-2.14267,0
67.5289,-52.2649,-2.15667,0
67.5867,-52.1864,-2.17048,0
67.6423,-52.1067,-2.18408,0
67.6958,-52.0259,-2.1975,0
67.747,-51.944,-2.21069,0
67.7962,-51.861,-2.22366,0
67.8431,-51.7771,-2.23641,0
67.8878,-51.6924,-2.24892,0
67.9303,-51.6068,-2.26119,0
67.9707,-51.5205,-2.27322,0
68.0088,-51.4335,-2.28501,0
68.0446,-51.3459,-2.29654,0
68.0783,-51.2577,-2.3078,0
68.1097,-51.169,-2.31881,0
68.139,-51.0799,-2.32954,0
68.1659,-50.9904,-2.34001,0
68.1909,-50.9006,-2.35021,0
68.2222,-50.8141,-2.35824,0
68.2539,-50.7279,-2.36554,0
68.2836,-50.6411,-2.3726,0
68.3112,-50.5536,-2.3794,0
68.3369,-50.4657,-2.38595,0
68.3606,-50.3772,-2.39225,0
68.3823,-50.2882,-2.39829,0
68.4019,-50.1989,-2.40407,0
68.4195,-50.1092,-2.40958,0
68.4352,-50.0192,-2.41484,0
68.4486,-49.9289,-2.41982,0
68.4602,-49.8384,-2.42453,0
67.0044,-45.9899,-2.27036,0
66.9328,-45.9314,-2.2613,0
66.8655,-45.8668,-2.24991,0
66.7963,-45.804,-2.23835,0
66.7252,-45.7429,-2.22663,0
66.6523,-45.6837,-2.21474,0
66.5778,-45.6263,-2.20273,0
66.5016,-45.5709,-2.19056,0
66.4237,-45.5176,-2.17826,0
66.3441,-45.4663,-2.16585,0
67.0035,-52.6402,-2.0632,0
67.0753,-52.5771,-2.07661,0
67.1453,-52.5123,-2.08995,0
67.2135,-52.4457,-2.10319,0
67.2797,-52.3774,-2.11633,0
67.344,-52.3074,-2.12936,0
67.4063,-52.236,-2.14228,0
67.4645,-52.1609,-2.15579,0
67.5202,-52.0845,-2.16918,0
67.5741,-52.0068,-2.18239,0
67.6258,-51.9281,-2.1954,0
67.6754,-51.8483,-2.2082,0
67.7229,-51.7675,-2.22078,0
67.7683,-51.6859,-2.23315,0
67.8114,-51.6033,-2.24529,0
67.8525,-51.52,-2.2572,0
67.8915,-51.436,-2.26888,0
67.9283,-51.3513,-2.28031,0
67.9629,-51.266,-2.29149,0
67.9954,-51.1801,-2.30242,0
68.0257,-51.0938,-2.3131,0
68.0539,-51.007,-2.32352,0
68.08,-50.9199,-2.33367,0
68.1098,-50.835,-2.34223,0
68.1421,-50.7514,-2.34953,0
68.1726,-50.6671,-2.3566,0
68.201,-50.5822,-2.36343,0
68.2276,-50.4967,-2.37001,0
68.2521,-50.4108,-2.37633,0
68.2748,-50.3243,-2.38242,0
68.2954,-50.2374,-2.38825,0
68.3141,-50.1501,-2.39383,0
68.3308,-50.0625,-2.39915,0
68.3455,-49.9746,-2.4042,0
68.3614,-49.8869,-2.4084,0
68.377,-49.7992,-2.41198,0
68.3909,-49.7111,-2.41529,0
68.403,-49.6226,-2.41831,0
68.4131,-49.5339,-2.42105,0
68.4215,-49.4449,-2.4235,0
68.428,-49.3557,-2.42565,0
68.4327,-49.2663,-2.42752,0
68.4355,-49.1767,-2.42909,0
68.4364,-49.0871,-2.43037,0
68.4355,-48.9974,-2.43136,0
68.4327,-48.9076,-2.43206,0
68.428,-48.8178,-2.43245,0
68.4215,-48.728,-2.43256,0
68.413,-48.6383,-2.43236,0
68.4027,-48.5487,-2.43186,0
68.3905,-48.4593,-2.43106,0
68.3768,-48.37,-2.42989,0
68.3616,-48.2807,-2.42834,0
68.3446,-48.1917,-2.42649,0
68.3255,-48.1029,-2.42433,0
68.3048,-48.0144,-2.42187,0
68.282,-47.9263,-2.41911,0
68.2573,-47.8385,-2.41605,0
68.2309,-47.7511,-2.41268,0
68.2024,-47.6642,-2.40902,0
68.1702,-47.5787,-2.40544,0
68.1351,-47.4942,-2.40181,0
68.098,-47.4105,-2.39789,0
68.0591,-47.3276,-2.39369,0
68.0184,-47.2455,-2.38919,0
67.9758,-47.1642,-2.38442,0
67.9316,-47.0838,-2.37936,0
67.8855,-47.0043,-2.37402,0
67.8376,-46.9258,-2.3684,0
67.788,-46.8483,-2.3625,0
67.7367,-46.7718,-2.35632,0
67.6837,-46.6964,-2.34988,0
67.6291,-46.6222,-2.34316,0
67.5727,-46.549,-2.33617,0
67.5148,-46.4771,-2.32892,0
67.4552,-46.4064,-2.3214,0
67.3928,-46.338,-2.31393,0
67.3265,-46.2736,-2.30696,0
67.2588,-46.2107,-2.29979,0
67.1897,-46.1492,-2.29236,0
67.1207,-46.0876,-2.28421,0
67.0504,-46.0277,-2.27585,0
66.9787,-45.9693,-2.26728,0
66.9091,-45.9082,-2.25725,0
66.841,-45.8442,-2.24581,0
66.7711,-45.782,-2.23418,0
66.6995,-45.7215,-2.2224,0
66.626,-45.663,-2.21047,0
66.5508,-45.6063,-2.1984,0
66.474,-45.5516,-2.18619,0
66.3955,-45.499,-2.17385,0
66.3155,-45.4485,-2.1614,0
67.0294,-52.6179,-2.06799,0
67.1005,-52.5542,-2.08138,0
67.1699,-52.4887,-2.09468,0
67.2373,-52.4215,-2.10789,0
67.3029,-52.3526,-2.12099,0
67.3665,-52.2821,-2.13399,0
67.4274,-52.2095,-2.14708,0
67.4846,-52.1338,-2.16058,0
67.5397,-52.0569,-2.17392,0
67.5928,-51.9789,-2.18706,0
67.6437,-51.8997,-2.19999,0
67.6926,-51.8196,-2.21271,0
67.7393,-51.7385,-2.22522,0
67.7839,-51.6565,-2.23751,0
67.8264,-51.5737,-2.24957,0
67.8667,-51.4901,-2.26139,0
67.9048,-51.4058,-2.27298,0
67.9409,-51.3209,-2.28433,0
67.9748,-51.2354,-2.29542,0
68.0065,-51.1494,-2.30627,0
68.036,-51.0629,-2.31685,0
68.0635,-50.976,-2.32717,0
68.0887,-50.8887,-2.33723,0
68.1216,-50.8052,-2.34486,0
68.1532,-50.7214,-2.35208,0
68.1829,-50.6369,-2.35906,0
68.2108,-50.5518,-2.3658,0
68.2366,-50.4661,-2.37229,0
68.2605,-50.38,-2.37854,0
68.2823,-50.2933,-2.38453,0
68.3023,-50.2063,-2.39027,0
68.3203,-50.1189,-2.39575,0
68.3363,-50.0312,-2.40098,0
68.3503,-49.9432,-2.40594,0
68.3672,-49.8557,-2.40971,0
68.3822,-49.7678,-2.41319,0
68.3954,-49.6795,-2.4164,0
68.4068,-49.591,-2.41932,0
68.4163,-49.5022,-2.42195,0
68.4241,-49.4131,-2.42429,0
68.4299,-49.3238,-2.42634,0
68.4339,-49.2344,-2.42812,0
68.436,-49.1448,-2.42959,0
68.4363,-49.0551,-2.43076,0
68.4347,-48.9653,-2.43164,0
68.4312,-48.8755,-2.43223,0
68.4259,-48.7858,-2.43252,0
68.4187,-48.696,-2.43251,0
68.4095,-48.6064,-2.43221,0
68.3986,-48.5168,-2.4316,0
68.3856,-48.4274,-2.4307,0
68.3716,-48.3381,-2.42937,0
68.3557,-48.2489,-2.42771,0
68.338,-48.16,-2.42574,0
68.3184,-48.0713,-2.42349,0
68.2969,-47.9829,-2.42092,0
68.2734,-47.8949,-2.41805,0
68.2481,-47.8073,-2.41489,0
68.2209,-47.7201,-2.41141,0
68.1918,-47.6333,-2.40763,0
68.1579,-47.5485,-2.40418,0
68.122,-47.4643,-2.40044,0
68.0843,-47.3809,-2.39642,0
68.0447,-47.2982,-2.39212,0
68.0034,-47.2164,-2.38752,0
67.9602,-47.1354,-2.38264,0
67.9152,-47.0553,-2.37748,0
67.8686,-46.9762,-2.37204,0
67.8201,-46.898,-2.36633,0
67.7699,-46.8209,-2.36032,0
67.718,-46.7448,-2.35405,0
67.6645,-46.6698,-2.34752,0
67.6091,-46.5959,-2.3407,0
67.5523,-46.5232,-2.33362,0
67.4937,-46.4518,-2.32627,0
67.4335,-46.3815,-2.31866,0
67.3694,-46.3148,-2.31147,0
67.3025,-46.2509,-2.30444,0
67.2341,-46.1887,-2.29719,0
67.1652,-46.1271,-2.28947,0
67.0959,-46.066,-2.28124,0
67.025,-46.0066,-2.27282,0
66.9527,-45.9489,-2.26417,0
66.885,-45.8851,-2.25319,0
66.8162,-45.8218,-2.24168,0
66.7458,-45.7602,-2.23,0
66.6735,-45.7004,-2.21817,0
66.5994,-45.6425,-2.20619,0
66.5236,-45.5866,-2.19406,0
66.4462,-45.5326,-2.1818,0
66.3671,-45.4807,-2.16942,0
66.2866,-45.431,-2.15693,0
67.0549,-52.5954,-2.07278,0
67.1255,-52.531,-2.08613,0
67.1941,-52.4649,-2.09941,0
67.2609,-52.3971,-2.11258,0
67.3258,-52.3276,-2.12564,0
67.3887,-52.2566,-2.1386,0
67.448,-52.1826,-2.15192,0
67.5045,-52.1065,-2.16537,0
67.5589,-52.0292,-2.17863,0
67.6112,-51.9507,-2.1917,0
67.6614,-51.8712,-2.20455,0
67.7095,-51.7908,-2.2172,0
67.7555,-51.7093,-2.22964,0
67.7993,-51.627,-2.24184,0
67.841,-51.5439,-2.25382,0
67.8805,-51.4601,-2.26556,0
67.918,-51.3756,-2.27705,0
67.9532,-51.2905,-2.28831,0
67.9863,-51.2047,-2.29932,0
68.0173,-51.1186,-2.31007,0
68.0461,-51.0319,-2.32056,0
68.0727,-50.9449,-2.33079,0
68.1002,-50.8588,-2.34009,0
68.1331,-50.7754,-2.34747,0
68.1641,-50.6913,-2.3546,0
68.1931,-50.6066,-2.3615,0
68.2202,-50.5213,-2.36815,0
68.2453,-50.4354,-2.37455,0
68.2685,-50.3491,-2.3807,0
68.2897,-50.2623,-2.38661,0
68.309,-50.1751,-2.39226,0
68.3262,-50.0876,-2.39765,0
68.3415,-49.9998,-2.40278,0
68.3566,-49.912,-2.40731,0
68.3727,-49.8243,-2.41098,0
66.9441,-46.0687,-2.26155,0
66.8733,-46.0129,-2.25307,0
66.8012,-45.9588,-2.2444,0
66.7317,-45.9008,-2.23395,0
66.6625,-45.8417,-2.22255,0
66.5916,-45.7844,-2.211,0
66.5189,-45.729,-2.1993,0
66.4448,-45.6754,-2.18748,0
66.3689,-45.6238,-2.17554,0
66.2916,-45.5743,-2.16347,0
66.9348,-52.5451,-2.06215,0
67.0046,-52.484,-2.07519,0
67.0729,-52.4211,-2.08816,0
67.1392,-52.3565,-2.10103,0
67.2038,-52.2902,-2.11382,0
67.2665,-52.2224,-2.12651,0
67.3273,-52.1531,-2.13906,0
67.3861,-52.0823,-2.15151,0
67.4417,-52.009,-2.16423,0
67.4943,-51.9336,-2.1771,0
67.5449,-51.8572,-2.18978,0
67.5934,-51.7797,-2.20227,0
67.64,-51.7013,-2.21454,0
67.6844,-51.6219,-2.22662,0
67.7269,-51.5417,-2.23846,0
67.7672,-51.4608,-2.25009,0
67.8054,-51.3791,-2.26149,0
67.8416,-51.2967,-2.27265,0
67.8756,-51.2138,-2.28358,0
67.9076,-51.1303,-2.29426,0
67.9374,-51.0463,-2.30469,0
67.9652,-50.9619,-2.31488,0
67.9916,-50.8774,-2.32466,0
68.0251,-50.7965,-2.33204,0
68.0566,-50.7149,-2.33917,0
68.0864,-50.6326,-2.34609,0
68.1143,-50.5498,-2.35276,0
68.1402,-50.4663,-2.35919,0
68.1643,-50.3824,-2.36538,0
68.1865,-50.298,-2.37133,0
68.2067,-50.2132,-2.37703,0
68.225,-50.128,-2.38248,0
68.242,-50.0426,-2.38756,0
68.2609,-49.9576,-2.39161,0
68.2779,-49.8721,-2.39539,0
68.2932,-49.7863,-2.39889,0
68.3067,-49.7001,-2.40212,0
68.3185,-49.6136,-2.40507,0
68.3284,-49.5268,-2.40774,0
68.3365,-49.4398,-2.41012,0
68.3428,-49.3525,-2.41222,0
68.3473,-49.2651,-2.41404,0
68.35,-49.1775,-2.41557,0
68.3509,-49.0898,-2.41682,0
68.3499,-49.002,-2.41778,0
68.3471,-48.9143,-2.41844,0
68.3425,-48.8265,-2.41882,0
68.336,-48.7387,-2.4189,0
68.3276,-48.651,-2.41869,0
68.3175,-48.5634,-2.41819,0
68.3055,-48.476,-2.4174,0
68.2918,-48.3886,-2.41627,0
68.2769,-48.3014,-2.41474,0
68.2601,-48.2144,-2.41291,0
68.2414,-48.1276,-2.41078,0
68.2209,-48.0411,-2.40836,0
68.1986,-47.955,-2.40564,0
68.1744,-47.8692,-2.40263,0
68.1483,-47.7839,-2.39933,0
68.1203,-47.699,-2.39574,0
68.0877,-47.6159,-2.39246,0
68.0532,-47.5334,-2.38891,0
68.0169,-47.4517,-2.38507,0
67.9788,-47.3707,-2.38094,0
67.939,-47.2904,-2.37654,0
67.8974,-47.2111,-2.37187,0
67.8541,-47.1325,-2.36691,0
67.809,-47.0549,-2.36169,0
67.7621,-46.9783,-2.35618,0
67.7137,-46.9026,-2.35041,0
67.6634,-46.8279,-2.34437,0
67.6116,-46.7543,-2.33806,0
67.5581,-46.6818,-2.33149,0
67.503,-46.6104,-2.32465,0
67.4463,-46.5402,-2.31755,0
67.3866,-46.4725,-2.3106,0
67.3234,-46.4081,-2.30402,0
67.2586,-46.3452,-2.29723,0
67.1924,-46.2839,-2.29024,0
67.125,-46.2241,-2.28301,0
67.0577,-46.164,-2.27507,0
66.9891,-46.1055,-2.2669,0
66.9191,-46.0486,-2.25855,0
66.8477,-45.9934,-2.25,0
66.7752,-45.9397,-2.2412,0
66.7072,-45.8795,-2.2299,0
66.6373,-45.821,-2.21845,0
66.5659,-45.7644,-2.20684,0
66.4926,-45.7096,-2.1951,0
66.4178,-45.6568,-2.18323,0
66.3415,-45.6059,-2.17125,0
66.2637,-45.5571,-2.15915,0
66.9598,-52.5235,-2.0668,0
67.0292,-52.4617,-2.07982,0
67.0968,-52.3982,-2.09276,0
67.1625,-52.333,-2.10561,0
67.2264,-52.2662,-2.11837,0
67.2884,-52.1979,-2.131,0
67.3484,-52.128,-2.14351,0
67.4066,-52.0567,-2.15591,0
67.4607,-51.9823,-2.16884,0
67.5127,-51.9065,-2.18165,0
67.5625,-51.8296,-2.19426,0
67.6104,-51.7518,-2.20668,0
67.6561,-51.673,-2.21887,0
67.6998,-51.5934,-2.23086,0
67.7415,-51.5129,-2.24264,0
67.7811,-51.4317,-2.25418,0
67.8185,-51.3498,-2.2655,0
67.8539,-51.2672,-2.27658,0
67.8872,-51.184,-2.28742,0
67.9184,-51.1004,-2.29801,0
67.9476,-51.0162,-2.30836,0
67.9746,-50.9317,-2.31845,0
68.0037,-50.8486,-2.32732,0
68.0365,-50.7674,-2.33461,0
68.0675,-50.6856,-2.34167,0
68.0966,-50.6031,-2.34849,0
68.1238,-50.5201,-2.35508,0
68.1491,-50.4365,-2.36142,0
68.1724,-50.3524,-2.36753,0
68.1939,-50.2678,-2.37339,0
68.2134,-50.1828,-2.379,0
68.2311,-50.0975,-2.38437,0
68.249,-50.0123,-2.38904,0
68.2671,-49.9271,-2.39299,0
68.2836,-49.8415,-2.39668,0
68.2983,-49.7556,-2.40008,0
68.3112,-49.6693,-2.4032,0
68.3223,-49.5826,-2.40605,0
68.3316,-49.4958,-2.40862,0
68.339,-49.4086,-2.41091,0
68.3446,-49.3213,-2.41291,0
68.3485,-49.2338,-2.41463,0
68.3505,-49.1462,-2.41605,0
68.3508,-49.0585,-2.41719,0
68.3491,-48.9707,-2.41805,0
68.3456,-48.8829,-2.41861,0
68.3403,-48.7951,-2.41888,0
68.3332,-48.7074,-2.41886,0
68.3242,-48.6197,-2.41855,0
68.3134,-48.5322,-2.41794,0
68.3007,-48.4448,-2.41705,0
68.2866,-48.3575,-2.41576,0
68.2711,-48.2703,-2.41412,0
68.2537,-48.1834,-2.41218,0
68.2344,-48.0967,-2.40995,0
68.2131,-48.0104,-2.40742,0
68.1902,-47.9244,-2.4046,0
68.1653,-47.8387,-2.40149,0
68.1386,-47.7535,-2.39807,0
68.1089,-47.6693,-2.3946,0
68.0755,-47.5864,-2.39122,0
68.0404,-47.5042,-2.38757,0
68.0036,-47.4227,-2.38363,0
67.9648,-47.3419,-2.37942,0
67.9244,-47.262,-2.3749,0
67.8821,-47.1829,-2.37013,0
67.8381,-47.1047,-2.36508,0
67.7924,-47.0275,-2.35975,0
67.745,-46.9511,-2.35415,0
67.6959,-46.8758,-2.34828,0
67.6452,-46.8015,-2.34215,0
67.5927,-46.7283,-2.33574,0
67.5387,-46.6562,-2.32907,0
67.483,-46.5853,-2.32215,0
67.4256,-46.5155,-2.31495,0
67.3642,-46.4494,-2.30827,0
67.3004,-46.3855,-2.30162,0
67.2352,-46.3231,-2.29476,0
67.1684,-46.2624,-2.28769,0
67.1012,-46.2024,-2.28021,0
67.0334,-46.1429,-2.27217,0
66.9642,-46.085,-2.26395,0
66.8937,-46.0287,-2.25551,0
66.822,-45.9741,-2.2469,0
66.7512,-45.918,-2.23719,0
66.6824,-45.8584,-2.22583,0
66.612,-45.8006,-2.21432,0
66.5399,-45.7446,-2.20267,0
66.4662,-45.6906,-2.19088,0
66.3908,-45.6384,-2.17898,0
66.3138,-45.5882,-2.16694,0
66.2355,-45.5402,-2.15481,0
66.9848,-52.5017,-2.07146,0
67.0535,-52.4393,-2.08445,0
67.1205,-52.3751,-2.09735,0
67.1855,-52.3094,-2.11017,0
67.2487,-52.242,-2.12288,0
67.3101,-52.1731,-2.13549,0
67.3695,-52.1027,-2.14796,0
67.4262,-52.0304,-2.1605,0
67.4795,-51.9553,-2.17343,0
67.5307,-51.8792,-2.18617,0
67.5798,-51.802,-2.19871,0
67.6269,-51.7238,-2.21106,0
67.672,-51.6447,-2.22318,0
67.7149,-51.5648,-2.23509,0
67.7558,-51.484,-2.24678,0
67.7946,-51.4025,-2.25824,0
67.8314,-51.3204,-2.26948,0
67.866,-51.2376,-2.28047,0
67.8986,-51.1542,-2.29123,0
67.9291,-51.0704,-2.30174,0
67.9575,-50.9861,-2.31198,0
67.9838,-50.9014,-2.32199,0
68.0156,-50.8197,-2.32995,0
68.0478,-50.7383,-2.33716,0
68.0781,-50.6562,-2.34413,0
68.1065,-50.5735,-2.35088,0
68.133,-50.4903,-2.35737,0
68.1577,-50.4065,-2.36363,0
68.1804,-50.3222,-2.36966,0
68.2011,-50.2375,-2.37542,0
68.22,-50.1524,-2.38095,0
68.2369,-50.067,-2.38622,0
68.2557,-49.982,-2.39049,0
68.2733,-49.8966,-2.39434,0
68.289,-49.8109,-2.39792,0
66.8866,-46.1441,-2.25313,0
66.8173,-46.0897,-2.24484,0
66.7469,-46.0369,-2.23637,0
66.6752,-45.9857,-2.22773,0
66.6028,-45.9354,-2.21868,0
66.5337,-45.88,-2.20743,0
66.463,-45.8263,-2.19606,0
66.3908,-45.7745,-2.18456,0
66.3169,-45.7246,-2.17294,0
66.2417,-45.6767,-2.16121,0
66.8693,-52.4547,-2.06115,0
66.9374,-52.3954,-2.07384,0
67.004,-52.3344,-2.08645,0
67.0687,-52.2717,-2.09899,0
67.1316,-52.2074,-2.11144,0
67.1927,-52.1416,-2.12377,0
67.2521,-52.0743,-2.13601,0
67.3094,-52.0056,-2.14812,0
67.365,-51.9355,-2.16011,0
67.4183,-51.8639,-2.17206,0
67.4679,-51.7896,-2.18443,0
67.5154,-51.7143,-2.19661,0
67.561,-51.638,-2.2086,0
67.6045,-51.5609,-2.22038,0
67.6461,-51.4829,-2.23195,0
67.6857,-51.4042,-2.2433,0
67.7232,-51.3247,-2.25444,0
67.7588,-51.2446,-2.26534,0
67.7922,-51.1639,-2.27602,0
67.8237,-51.0827,-2.28646,0
67.853,-51.0009,-2.29666,0
67.8805,-50.9188,-2.30663,0
67.911,-50.8386,-2.31507,0
67.9437,-50.7596,-2.32227,0
67.9748,-50.6799,-2.32926,0
68.0038,-50.5996,-2.33601,0
68.0312,-50.5187,-2.34253,0
68.0566,-50.4372,-2.34882,0
68.0802,-50.3553,-2.35488,0
68.1019,-50.2729,-2.3607,0
68.1217,-50.19,-2.36628,0
68.1425,-50.1075,-2.371,0
68.1627,-50.0247,-2.37523,0
68.181,-49.9415,-2.37919,0
68.1977,-49.8579,-2.38288,0
68.2127,-49.7739,-2.38631,0
68.2259,-49.6895,-2.38945,0
68.2373,-49.6049,-2.39234,0
68.2469,-49.52,-2.39494,0
68.2548,-49.4348,-2.39727,0
68.2609,-49.3494,-2.39932,0
68.2653,-49.2639,-2.40109,0
68.2679,-49.1782,-2.40258,0
68.2687,-49.0924,-2.40379,0
68.2677,-49.0066,-2.40471,0
68.2648,-48.9207,-2.40535,0
68.2602,-48.8348,-2.40571,0
68.2538,-48.7489,-2.40578,0
68.2455,-48.6632,-2.40557,0
68.2355,-48.5775,-2.40507,0
68.2237,-48.4919,-2.40428,0
68.2102,-48.4066,-2.40319,0
68.1955,-48.3213,-2.40168,0
68.1788,-48.2362,-2.39987,0
68.1605,-48.1514,-2.39778,0
68.1404,-48.0668,-2.39538,0
68.1184,-47.9826,-2.39271,0
68.0946,-47.8988,-2.38975,0
68.0691,-47.8153,-2.38649,0
68.0404,-47.7329,-2.38322,0
68.0084,-47.6516,-2.38002,0
67.9747,-47.571,-2.37653,0
67.9391,-47.4911,-2.37276,0
67.9019,-47.412,-2.36872,0
67.8629,-47.3336,-2.36441,0
67.8222,-47.256,-2.35983,0
67.7797,-47.1793,-2.35497,0
67.7355,-47.1035,-2.34985,0
67.6898,-47.0286,-2.34446,0
67.6423,-46.9547,-2.33881,0
67.5931,-46.8817,-2.3329,0
67.5423,-46.8098,-2.32672,0
67.49,-46.739,-2.32028,0
67.4361,-46.6693,-2.31359,0
67.3787,-46.6024,-2.30718,0
67.3185,-46.5381,-2.30096,0
67.2567,-46.4752,-2.29454,0
67.1936,-46.4138,-2.28792,0
67.1291,-46.3539,-2.28109,0
67.0631,-46.2955,-2.27406,0
66.9974,-46.237,-2.26632,0
66.9304,-46.18,-2.25835,0
66.862,-46.1245,-2.25019,0
66.7924,-46.0706,-2.24184,0
66.7214,-46.0184,-2.23331,0
66.6494,-45.9679,-2.2246,0
66.5784,-45.9155,-2.21469,0
66.5087,-45.8606,-2.2034,0
66.4374,-45.8076,-2.19197,0
66.3646,-45.7565,-2.18043,0
66.2902,-45.7073,-2.16878,0
66.2145,-45.6601,-2.15701,0
66.8938,-52.4338,-2.06569,0
66.9613,-52.3738,-2.07835,0
67.0273,-52.3122,-2.09094,0
67.0913,-52.2489,-2.10344,0
67.1537,-52.1841,-2.11585,0
67.2141,-52.1177,-2.12816,0
67.2727,-52.0499,-2.14035,0
67.3295,-51.9807,-2.15242,0
67.3843,-51.9102,-2.16436,0
67.4362,-51.8375,-2.17649,0
67.4851,-51.7628,-2.18879,0
67.5319,-51.6872,-2.20091,0
67.5767,-51.6106,-2.21283,0
67.6196,-51.5332,-2.22453,0
67.6605,-51.4549,-2.23602,0
67.6993,-51.3759,-2.2473,0
67.7361,-51.2962,-2.25836,0
67.7709,-51.2159,-2.26918,0
67.8037,-51.135,-2.27978,0
67.8344,-51.0536,-2.29013,0
67.8631,-50.9717,-2.30025,0
67.8898,-50.8894,-2.31012,0
67.9229,-50.8105,-2.31766,0
67.9551,-50.7312,-2.32479,0
67.9854,-50.6513,-2.33169,0
68.0138,-50.5708,-2.33837,0
68.0404,-50.4897,-2.34481,0
68.0652,-50.408,-2.35102,0
68.0881,-50.3259,-2.35698,0
68.1092,-50.2433,-2.36272,0
68.1287,-50.1604,-2.36815,0
68.1499,-50.078,-2.37254,0
68.1694,-49.9951,-2.37667,0
68.1871,-49.9117,-2.38054,0
68.2032,-49.8279,-2.38414,0
68.2175,-49.7438,-2.38746,0
68.2302,-49.6594,-2.39052,0
68.2409,-49.5746,-2.3933,0
68.2499,-49.4896,-2.39581,0
68.2572,-49.4044,-2.39804,0
68.2627,-49.3189,-2.39998,0
68.2665,-49.2333,-2.40165,0
68.2684,-49.1476,-2.40304,0
68.2685,-49.0618,-2.40415,0
68.2669,-48.9759,-2.40498,0
68.2634,-48.89,-2.40551,0
68.2582,-48.8042,-2.40577,0
68.2511,-48.7183,-2.40574,0
68.2422,-48.6326,-2.40542,0
68.2316,-48.5469,-2.40482,0
68.2191,-48.4615,-2.40392,0
68.2051,-48.3761,-2.40269,0
68.1897,-48.2909,-2.40106,0
68.1725,-48.2059,-2.39916,0
68.1536,-48.1212,-2.39695,0
68.1328,-48.0367,-2.39447,0
68.1102,-47.9526,-2.39169,0
68.0857,-47.869,-2.38862,0
68.0595,-47.7857,-2.38526,0
68.0292,-47.7038,-2.38211,0
67.9966,-47.6228,-2.3788,0
67.9622,-47.5424,-2.37521,0
67.926,-47.4628,-2.37135,0
67.8881,-47.3839,-2.36721,0
67.8485,-47.3058,-2.3628,0
67.8071,-47.2286,-2.35813,0
67.7641,-47.1522,-2.35318,0
67.7194,-47.0767,-2.34797,0
67.673,-47.0021,-2.34247,0
67.6249,-46.9285,-2.33673,0
67.5752,-46.856,-2.33072,0
67.5239,-46.7845,-2.32445,0
67.4709,-46.714,-2.31792,0
67.4164,-46.6447,-2.31114,0
67.3575,-46.5793,-2.30498,0
67.2966,-46.5155,-2.29869,0
67.2344,-46.4531,-2.2922,0
67.1707,-46.3922,-2.2855,0
67.1056,-46.3329,-2.27861,0
67.0398,-46.2745,-2.27134,0
66.9737,-46.2165,-2.2635,0
66.9062,-46.16,-2.25546,0
66.8373,-46.1051,-2.24723,0
66.7672,-46.0518,-2.23882,0
66.6959,-46.0002,-2.23022,0
66.6234,-45.9502,-2.22146,0
66.5537,-45.8957,-2.21067,0
66.4834,-45.8415,-2.19934,0
66.4116,-45.7892,-2.18787,0
66.3382,-45.7387,-2.17628,0
66.2634,-45.6902,-2.16458,0
66.1871,-45.6437,-2.15279,0
66.9181,-52.4126,-2.0702,0
66.9851,-52.352,-2.08284,0
67.0503,-52.2898,-2.09541,0
67.1138,-52.226,-2.10788,0
67.1755,-52.1606,-2.12025,0
67.2352,-52.0937,-2.13252,0
67.2933,-52.0254,-2.14467,0
67.3493,-51.9557,-2.1567,0
67.4034,-51.8847,-2.16859,0
67.4538,-51.811,-2.1809,0
67.502,-51.7359,-2.19315,0
67.548,-51.66,-2.20518,0
67.5923,-51.5831,-2.21702,0
67.6345,-51.5053,-2.22865,0
67.6745,-51.4268,-2.24007,0
67.7127,-51.3476,-2.25127,0
67.7488,-51.2676,-2.26224,0
67.7828,-51.1871,-2.27299,0
67.8148,-51.106,-2.2835,0
67.8448,-51.0244,-2.29378,0
67.8728,-50.9423,-2.3038,0
67.9013,-50.8611,-2.31296,0
67.9345,-50.7822,-2.32023,0
67.9661,-50.7028,-2.32728,0
67.9957,-50.6226,-2.3341,0
68.0235,-50.5419,-2.34069,0
68.0495,-50.4606,-2.34704,0
68.0736,-50.3788,-2.35317,0
68.0959,-50.2965,-2.35906,0
68.1162,-50.2138,-2.3647,0
68.1364,-50.1311,-2.36974,0
68.157,-50.0484,-2.37404,0
68.1759,-49.9654,-2.37808,0
68.1931,-49.8819,-2.38185,0
68.2086,-49.798,-2.38536,0
66.8314,-46.2163,-2.24506,0
66.7637,-46.1632,-2.23697,0
66.695,-46.1116,-2.2287,0
66.6249,-46.0617,-2.22025,0
66.5537,-46.0134,-2.21163,0
66.4815,-45.9668,-2.20284,0
66.4099,-45.9189,-2.19299,0
66.3395,-45.8687,-2.18178,0
66.2677,-45.8204,-2.17049,0
66.1943,-45.774,-2.15907,0
66.8071,-52.3688,-2.06019,0
66.8735,-52.3111,-2.07255,0
66.9384,-52.2519,-2.08484,0
67.0015,-52.191,-2.09705,0
67.0629,-52.1285,-2.10916,0
67.1226,-52.0646,-2.12118,0
67.1805,-51.9992,-2.13311,0
67.2366,-51.9325,-2.14491,0
67.2908,-51.8644,-2.15659,0
66.465,-51.0407,-2.4692,174
67.3935,-51.7245,-2.17956,0
67.4408,-51.6518,-2.19121,0
67.4855,-51.5777,-2.20292,0
67.5283,-51.5026,-2.21443,0
67.569,-51.4268,-2.22572,0
67.6078,-51.3502,-2.23682,0
67.6447,-51.2728,-2.2477,0
67.6796,-51.1949,-2.25836,0
67.7125,-51.1163,-2.2688,0
67.7434,-51.0372,-2.27901,0
67.7724,-50.9576,-2.289,0
67.7999,-50.8778,-2.2986,0
67.8337,-50.8013,-2.30586,0
67.8659,-50.7242,-2.31291,0
67.8962,-50.6463,-2.31974,0
67.9247,-50.5679,-2.32635,0
67.9515,-50.4888,-2.33273,0
67.9763,-50.4093,-2.33888,0
67.9995,-50.3292,-2.34482,0
68.0222,-50.2491,-2.35018,0
68.0452,-50.169,-2.35484,0
68.0665,-50.0885,-2.35923,0
68.0862,-50.0075,-2.36337,0
68.1042,-49.926,-2.36724,0
68.1205,-49.8441,-2.37085,0
68.1351,-49.7619,-2.37419,0
68.148,-49.6794,-2.37727,0
68.1591,-49.5965,-2.38008,0
68.1685,-49.5134,-2.38263,0
68.1762,-49.43,-2.3849,0
68.1822,-49.3465,-2.3869,0
68.1864,-49.2628,-2.38862,0
68.1888,-49.1789,-2.39007,0
68.1895,-49.0949,-2.39125,0
68.1885,-49.0109,-2.39215,0
68.1857,-48.9269,-2.39276,0
68.1811,-48.8428,-2.3931,0
68.1748,-48.7588,-2.39316,0
68.1666,-48.6749,-2.39294,0
68.1568,-48.591,-2.39243,0
68.1451,-48.5073,-2.39165,0
68.1316,-48.4238,-2.39058,0
68.1171,-48.3404,-2.3891,0
68.1008,-48.2572,-2.38733,0
68.0828,-48.1742,-2.38525,0
68.063,-48.0915,-2.38291,0
68.0413,-48.0091,-2.38027,0
68.018,-47.9272,-2.37736,0
67.9928,-47.8456,-2.37416,0
67.9636,-47.7654,-2.3712,0
67.9323,-47.6859,-2.36805,0
67.8992,-47.6072,-2.36462,0
67.8644,-47.529,-2.36093,0
67.8279,-47.4517,-2.35698,0
67.7898,-47.375,-2.35275,0
67.7498,-47.2992,-2.34826,0
67.7082,-47.2242,-2.3435,0
67.665,-47.1501,-2.33849,0
67.6202,-47.0769,-2.33321,0
67.5737,-47.0047,-2.32767,0
67.5256,-46.9334,-2.32188,0
67.4759,-46.8632,-2.31583,0
67.4247,-46.794,-2.30952,0
67.3695,-46.7279,-2.30366,0
67.3122,-46.6637,-2.29779,0
67.2533,-46.6008,-2.29173,0
67.193,-46.5394,-2.28546,0
67.1314,-46.4795,-2.27899,0
67.0684,-46.421,-2.27233,0
67.004,-46.364,-2.26547,0
66.9396,-46.307,-2.25795,0
66.8741,-46.2513,-2.25016,0
66.8074,-46.1972,-2.24219,0
66.7394,-46.1446,-2.23403,0
66.6701,-46.0936,-2.2257,0
66.5997,-46.0443,-2.21719,0
66.528,-45.9966,-2.20851,0
66.4554,-45.9506,-2.19967,0
66.3849,-45.9008,-2.189,0
66.314,-45.8513,-2.17777,0
66.2416,-45.8036,-2.16643,0
66.1678,-45.7579,-2.15497,0
66.831,-52.3484,-2.06461,0
66.8968,-52.2902,-2.07695,0
66.961,-52.2303,-2.0892,0
67.0236,-52.1689,-2.10138,0
67.0844,-52.1059,-2.11346,0
67.1434,-52.0414,-2.12546,0
67.2006,-51.9756,-2.13733,0
67.2561,-51.9083,-2.14909,0
67.3096,-51.8398,-2.16072,0
66.5202,-51.0589,-2.45767,174
67.411,-51.699,-2.1836,0
67.457,-51.6255,-2.19541,0
67.5009,-51.551,-2.20704,0
67.543,-51.4757,-2.21847,0
67.583,-51.3995,-2.2297,0
67.6212,-51.3227,-2.24072,0
67.6573,-51.2451,-2.25152,0
67.6916,-51.1669,-2.26211,0
67.7237,-51.0881,-2.27247,0
67.754,-51.0088,-2.28259,0
67.7823,-50.9291,-2.2925,0
67.8122,-50.8506,-2.30121,0
67.8455,-50.7739,-2.30841,0
67.8769,-50.6965,-2.31537,0
67.9066,-50.6184,-2.32213,0
67.9344,-50.5397,-2.32865,0
67.9605,-50.4605,-2.33496,0
67.9848,-50.3808,-2.34103,0
68.0073,-50.3005,-2.34687,0
68.0305,-50.2206,-2.35188,0
68.053,-50.1403,-2.35643,0
68.0737,-50.0596,-2.36073,0
68.0928,-49.9784,-2.36477,0
68.1102,-49.8968,-2.36856,0
68.1259,-49.8149,-2.37207,0
68.1398,-49.7325,-2.37532,0
68.1521,-49.6498,-2.37831,0
68.1627,-49.5669,-2.38102,0
68.1715,-49.4837,-2.38347,0
68.1785,-49.4002,-2.38564,0
68.1839,-49.3166,-2.38755,0
68.1874,-49.2329,-2.38917,0
68.1893,-49.1489,-2.39052,0
68.1894,-49.065,-2.3916,0
68.1877,-48.9809,-2.39239,0
68.1843,-48.8969,-2.39291,0
68.1791,-48.8128,-2.39316,0
68.172,-48.7288,-2.39311,0
68.1633,-48.6449,-2.39279,0
68.1527,-48.5611,-2.39219,0
68.1405,-48.4775,-2.39131,0
68.1266,-48.3941,-2.3901,0
68.1115,-48.3107,-2.3885,0
68.0945,-48.2275,-2.38662,0
68.0759,-48.1446,-2.38445,0
68.0554,-48.0621,-2.382,0
68.0332,-47.9798,-2.37927,0
68.0092,-47.898,-2.37624,0
67.9828,-47.8168,-2.37307,0
67.9527,-47.737,-2.37009,0
67.9207,-47.6577,-2.36685,0
67.887,-47.5792,-2.36334,0
67.8516,-47.5013,-2.35955,0
67.8145,-47.4242,-2.3555,0
67.7756,-47.3479,-2.35118,0
67.7352,-47.2724,-2.34659,0
67.693,-47.1977,-2.34174,0
67.6492,-47.1239,-2.33663,0
67.6038,-47.0511,-2.33126,0
67.5567,-46.9791,-2.32564,0
67.508,-46.9082,-2.31975,0
67.4578,-46.8384,-2.31361,0
67.4056,-46.7698,-2.30732,0
67.3493,-46.7048,-2.30159,0
67.2913,-46.6411,-2.29565,0
67.2319,-46.5788,-2.28951,0
67.1712,-46.5179,-2.28317,0
67.109,-46.4584,-2.27663,0
67.0455,-46.4004,-2.2699,0
66.981,-46.3436,-2.26285,0
66.9164,-46.2869,-2.25519,0
66.8505,-46.2318,-2.24734,0
66.7833,-46.1782,-2.2393,0
66.7148,-46.1262,-2.23108,0
66.6451,-46.0758,-2.22269,0
66.5743,-46.0271,-2.21411,0
66.5023,-45.98,-2.20538,0
66.4298,-45.9336,-2.19616,0
66.3598,-45.8829,-2.185,0
66.2884,-45.834,-2.17373,0
66.2155,-45.7871,-2.16236,0
66.1412,-45.7421,-2.15086,0
66.8547,-52.3278,-2.06902,0
66.9199,-52.269,-2.08132,0
66.9836,-52.2086,-2.09356,0
67.0455,-52.1466,-2.10571,0
67.1056,-52.0831,-2.11776,0
67.1641,-52.0181,-2.1297,0
67.2206,-51.9517,-2.14154,0
67.2754,-51.884,-2.15325,0
66.462,-51.0612,-2.4643,174
66.58,-51.0798,-2.44486,174
67.4277,-51.6729,-2.18782,0
67.4729,-51.599,-2.19958,0
67.5162,-51.5242,-2.21114,0
67.5575,-51.4486,-2.22251,0
67.597,-51.3722,-2.23366,0
67.6344,-51.2951,-2.24461,0
67.6698,-51.2173,-2.25533,0
67.7033,-51.1389,-2.26583,0
67.7348,-51.0599,-2.27611,0
67.7643,-50.9804,-2.28615,0
67.7919,-50.9005,-2.29597,0
67.8243,-50.8233,-2.30381,0
67.8568,-50.7463,-2.31091,0
67.8877,-50.6687,-2.31781,0
67.9167,-50.5904,-2.32448,0
67.944,-50.5116,-2.33092,0
67.9694,-50.4321,-2.33715,0
67.993,-50.3522,-2.34314,0
68.0152,-50.2719,-2.3488,0
68.0387,-50.192,-2.35352,0
68.0605,-50.1116,-2.358,0
68.0808,-50.0307,-2.3622,0
68.0992,-49.9494,-2.36615,0
68.1159,-49.8676,-2.36984,0
68.131,-49.7855,-2.37327,0
66.7784,-46.2855,-2.23732,0
66.7124,-46.2336,-2.22942,0
66.6452,-46.1833,-2.22133,0
66.5767,-46.1345,-2.21308,0
66.5072,-46.0874,-2.20466,0
66.4365,-46.0419,-2.19607,0
66.3648,-45.9981,-2.18732,0
66.292,-45.956,-2.17843,0
66.2206,-45.9115,-2.16814,0
66.1492,-45.8665,-2.15704,0
66.7477,-52.2868,-2.05928,0
66.8126,-52.2308,-2.07133,0
66.8759,-52.1732,-2.08329,0
66.9374,-52.1141,-2.09519,0
66.9974,-52.0534,-2.107,0
67.0557,-51.9912,-2.11871,0
67.1122,-51.9277,-2.13033,0
67.167,-51.8628,-2.14184,0
67.2199,-51.7966,-2.15323,0
66.4588,-51.0325,-2.45091,174
66.5879,-51.0599,-2.42682,174
67.3678,-51.5908,-2.18661,0
67.4134,-51.52,-2.19748,0
67.4552,-51.4469,-2.20873,0
67.4952,-51.3731,-2.21976,0
67.5334,-51.2985,-2.23062,0
67.5696,-51.2232,-2.24125,0
67.6039,-51.1472,-2.25168,0
67.6362,-51.0707,-2.26188,0
67.6667,-50.9936,-2.27187,0
67.6952,-50.9161,-2.28164,0
67.7265,-50.8403,-2.28992,0
67.7596,-50.7656,-2.29702,0
67.7911,-50.6902,-2.30392,0
67.8208,-50.6141,-2.31061,0
67.8487,-50.5375,-2.31707,0
67.8749,-50.4602,-2.32332,0
67.9,-50.3827,-2.32918,0
67.9258,-50.3054,-2.33423,0
67.9499,-50.2275,-2.33904,0
67.9724,-50.1491,-2.34359,0
67.9934,-50.0702,-2.34789,0
68.0126,-49.9908,-2.35194,0
68.0302,-49.9111,-2.35573,0
68.0461,-49.8309,-2.35925,0
68.0603,-49.7504,-2.36253,0
68.0729,-49.6696,-2.36554,0
68.0837,-49.5885,-2.36829,0
68.093,-49.5071,-2.37077,0
68.1005,-49.4255,-2.37299,0
68.1063,-49.3436,-2.37493,0
68.1104,-49.2617,-2.37662,0
68.1127,-49.1796,-2.37803,0
68.1134,-49.0974,-2.37917,0
68.1123,-49.0151,-2.38004,0
68.1095,-48.9328,-2.38064,0
68.1049,-48.8505,-2.38096,0
68.0986,-48.7683,-2.38101,0
68.0906,-48.6861,-2.38077,0
68.0809,-48.6041,-2.38027,0
68.0694,-48.5222,-2.37949,0
68.0562,-48.4404,-2.37843,0
68.0417,-48.3588,-2.37701,0
68.0256,-48.2774,-2.37525,0
68.0079,-48.1962,-2.37321,0
67.9884,-48.1153,-2.3709,0
67.9671,-48.0347,-2.3683,0
67.9442,-47.9545,-2.36543,0
67.9187,-47.875,-2.36244,0
67.8898,-47.7966,-2.35963,0
67.8591,-47.7189,-2.35654,0
67.8266,-47.6419,-2.35318,0
67.7926,-47.5655,-2.34956,0
67.7568,-47.4898,-2.34569,0
67.7194,-47.4149,-2.34154,0
67.6802,-47.3408,-2.33714,0
67.6395,-47.2674,-2.33248,0
67.5973,-47.195,-2.32756,0
67.5533,-47.1234,-2.32238,0
67.5077,-47.0528,-2.31695,0
67.4606,-46.9831,-2.31128,0
67.412,-46.9144,-2.30536,0
67.3589,-46.8491,-2.30004,0
67.3043,-46.7851,-2.29452,0
67.2483,-46.7224,-2.2888,0
67.1908,-46.661,-2.28287,0
67.1319,-46.601,-2.27675,0
67.0716,-46.5424,-2.27043,0
67.0101,-46.4852,-2.26393,0
66.9472,-46.4296,-2.25723,0
66.8842,-46.374,-2.24992,0
66.8203,-46.3197,-2.2423,0
66.755,-46.2668,-2.23452,0
66.6885,-46.2155,-2.22655,0
66.6209,-46.1657,-2.21841,0
66.552,-46.1175,-2.21009,0
66.482,-46.071,-2.20161,0
66.411,-46.0261,-2.19297,0
66.339,-45.9829,-2.18417,0
66.2659,-45.9414,-2.17522,0
66.1953,-45.8952,-2.16419,0
66.1234,-45.8509,-2.15304,0
66.771,-52.267,-2.06358,0
66.8354,-52.2105,-2.0756,0
66.898,-52.1523,-2.08755,0
66.959,-52.0926,-2.09942,0
67.0184,-52.0314,-2.11119,0
67.076,-51.9687,-2.12287,0
67.132,-51.9047,-2.13445,0
67.1861,-51.8393,-2.14591,0
66.4422,-51.0699,-2.44324,174
66.4891,-51.0297,-2.44769,174
67.3376,-51.6358,-2.17956,0
67.3843,-51.5657,-2.1905,0
67.4285,-51.494,-2.20152,0
67.4698,-51.4207,-2.21269,0
67.5091,-51.3465,-2.22366,0
67.5465,-51.2717,-2.23444,0
67.582,-51.1962,-2.24499,0
67.6156,-51.12,-2.25534,0
67.6473,-51.0433,-2.26547,0
67.6771,-50.966,-2.27539,0
67.7049,-50.8883,-2.28507,0
67.7385,-50.8137,-2.29248,0
67.771,-50.7388,-2.29951,0
67.8019,-50.6631,-2.30633,0
67.8309,-50.5868,-2.31294,0
67.8583,-50.51,-2.31933,0
67.8838,-50.4325,-2.3255,0
67.9094,-50.3552,-2.33101,0
67.9345,-50.2776,-2.33597,0
67.9582,-50.1996,-2.34069,0
67.9801,-50.121,-2.34515,0
68.0004,-50.0419,-2.34936,0
68.0191,-49.9624,-2.35332,0
68.036,-49.8825,-2.35701,0
68.0513,-49.8023,-2.36045,0
68.065,-49.7216,-2.36363,0
68.077,-49.6407,-2.36654,0
68.0873,-49.5595,-2.3692,0
68.0959,-49.478,-2.37158,0
68.1028,-49.3963,-2.37371,0
68.1079,-49.3144,-2.37557,0
68.1114,-49.2324,-2.37715,0
68.1132,-49.1502,-2.37846,0
68.1132,-49.068,-2.37951,0
68.1115,-48.9857,-2.38029,0
68.108,-48.9034,-2.38078,0
68.1029,-48.8212,-2.38101,0
68.096,-48.739,-2.38095,0
68.0873,-48.6568,-2.38063,0
68.077,-48.5748,-2.38003,0
68.0649,-48.493,-2.37915,0
68.0511,-48.4113,-2.378,0
68.0361,-48.3297,-2.37642,0
68.0195,-48.2484,-2.37456,0
68.0012,-48.1673,-2.37242,0
67.981,-48.0865,-2.37,0
67.9591,-48.006,-2.36731,0
67.9355,-47.926,-2.36434,0
67.9086,-47.8469,-2.36147,0
67.879,-47.7689,-2.35855,0
67.8477,-47.6914,-2.35537,0
67.8147,-47.6146,-2.35192,0
67.78,-47.5384,-2.3482,0
67.7437,-47.463,-2.34424,0
67.7056,-47.3884,-2.34,0
67.6659,-47.3145,-2.3355,0
67.6246,-47.2415,-2.33076,0
67.5817,-47.1694,-2.32574,0
67.5373,-47.0981,-2.32048,0
67.4912,-47.0278,-2.31497,0
67.4435,-46.9585,-2.3092,0
67.3932,-46.891,-2.30348,0
67.3396,-46.8262,-2.29809,0
67.2845,-46.7626,-2.29251,0
67.228,-46.7004,-2.28671,0
67.17,-46.6395,-2.28071,0
67.1105,-46.5799,-2.27452,0
67.0498,-46.5219,-2.26814,0
66.9878,-46.4652,-2.26156,0
66.9247,-46.4098,-2.25471,0
66.8616,-46.3545,-2.24722,0
66.7971,-46.3006,-2.23955,0
66.7314,-46.2483,-2.23169,0
66.6645,-46.1975,-2.22366,0
66.5964,-46.1483,-2.21546,0
66.5272,-46.1007,-2.20709,0
66.4569,-46.0548,-2.19855,0
66.3855,-46.0105,-2.18985,0
66.313,-45.9679,-2.18099,0
66.2409,-45.9247,-2.17131,0
66.1698,-45.8792,-2.16022,0
66.0974,-45.8356,-2.14904,0
66.7942,-52.247,-2.06788,0
66.8579,-52.1899,-2.07987,0
66.9199,-52.1312,-2.09179,0
66.9804,-52.0709,-2.10363,0
67.0391,-52.0092,-2.11537,0
67.0962,-51.946,-2.12701,0
67.1515,-51.8815,-2.13855,0
67.2049,-51.8157,-2.14997,0
66.4464,-51.0447,-2.44933,174
66.5431,-51.0462,-2.43631,174
67.3545,-51.6109,-2.18348,0
67.4005,-51.5404,-2.19437,0
67.4434,-51.4679,-2.20552,0
67.484,-51.3943,-2.21663,0
67.5226,-51.3199,-2.22753,0
67.5594,-51.2448,-2.23822,0
67.5942,-51.169,-2.24872,0
67.6272,-51.0927,-2.25898,0
67.6582,-51.0157,-2.26904,0
67.6872,-50.9383,-2.27887,0
67.7166,-50.8615,-2.28785,0
67.7504,-50.787,-2.29501,0
67.7823,-50.7118,-2.30197,0
67.8124,-50.636,-2.30871,0
67.8409,-50.5595,-2.31524,0
67.8676,-50.4824,-2.32155,0
67.8925,-50.4048,-2.32764,0
67.9186,-50.3276,-2.33281,0
67.9431,-50.2498,-2.33768,0
67.9662,-50.1716,-2.34231,0
67.9875,-50.0928,-2.34668,0
68.0073,-50.0136,-2.3508,0
68.0252,-49.934,-2.35466,0
68.0417,-49.8539,-2.35827,0
68.0564,-49.7735,-2.36162,0
66.7277,-46.3519,-2.22989,0
66.663,-46.3012,-2.22216,0
66.5973,-46.2521,-2.21426,0
66.5305,-46.2045,-2.20619,0
66.4624,-46.1584,-2.19796,0
66.3934,-46.114,-2.18957,0
66.3234,-46.0712,-2.18103,0
66.2523,-46.03,-2.17233,0
66.1802,-45.9906,-2.16349,0
66.1073,-45.9528,-2.15451,0
66.6911,-52.2086,-2.05842,0
66.7544,-52.1542,-2.07015,0
66.8162,-52.0982,-2.08182,0
66.8763,-52.0406,-2.09341,0
66.9349,-51.9816,-2.10493,0
66.9918,-51.9212,-2.11635,0
67.047,-51.8594,-2.12769,0
67.1005,-51.7962,-2.1389,0
66.4275,-51.0829,-2.4203,174
66.4527,-51.0243,-2.43268,174
66.5802,-51.0506,-2.40822,174
67.297,-51.5316,-2.18259,0
67.3416,-51.4627,-2.19318,0
67.3843,-51.3928,-2.20361,0
67.4247,-51.3217,-2.21407,0
67.462,-51.249,-2.22467,0
67.4977,-51.1756,-2.23507,0
67.5313,-51.1016,-2.24528,0
67.5632,-51.027,-2.25527,0
67.5931,-50.9519,-2.26504,0
67.6218,-50.8766,-2.27443,0
67.656,-50.8043,-2.28158,0
67.6884,-50.7312,-2.28854,0
67.7192,-50.6575,-2.29529,0
67.7484,-50.5832,-2.30183,0
67.7762,-50.5084,-2.30802,0
67.8046,-50.4339,-2.31344,0
67.8314,-50.3587,-2.31863,0
67.8566,-50.2829,-2.32358,0
67.8803,-50.2066,-2.32828,0
67.9023,-50.1298,-2.33275,0
67.9228,-50.0526,-2.33695,0
67.9416,-49.9749,-2.34091,0
67.9588,-49.8967,-2.34462,0
67.9744,-49.8182,-2.34808,0
67.9884,-49.7393,-2.35128,0
68.0006,-49.6602,-2.35422,0
68.0112,-49.5807,-2.35691,0
68.0202,-49.501,-2.35934,0
68.0275,-49.421,-2.3615,0
68.0331,-49.3409,-2.3634,0
68.0371,-49.2606,-2.36505,0
68.0394,-49.1802,-2.36642,0
68.0399,-49.0997,-2.36753,0
68.0388,-49.0191,-2.36837,0
68.0359,-48.9385,-2.36895,0
68.0316,-48.858,-2.36925,0
68.0252,-48.7774,-2.36929,0
68.0173,-48.697,-2.36906,0
68.0078,-48.6166,-2.36856,0
67.9965,-48.5364,-2.36778,0
67.9834,-48.4564,-2.36674,0
67.9691,-48.3765,-2.36535,0
67.9533,-48.2968,-2.36362,0
67.9358,-48.2173,-2.36161,0
67.9166,-48.1381,-2.35932,0
67.8957,-48.0593,-2.35678,0
67.8731,-47.9808,-2.35394,0
67.8471,-47.9034,-2.35126,0
67.8187,-47.8267,-2.34849,0
67.7886,-47.7507,-2.34546,0
67.7569,-47.6753,-2.34217,0
67.7234,-47.6006,-2.33862,0
67.6884,-47.5266,-2.33482,0
67.6517,-47.4533,-2.33075,0
67.6134,-47.3807,-2.32644,0
67.5735,-47.309,-2.32187,0
67.532,-47.2381,-2.31705,0
67.489,-47.1681,-2.31197,0
67.4444,-47.0991,-2.30666,0
67.3973,-47.0315,-2.30133,0
67.347,-46.9665,-2.29635,0
67.2952,-46.9027,-2.29116,0
67.2417,-46.8401,-2.28576,0
67.187,-46.7788,-2.28017,0
67.1308,-46.7188,-2.27438,0
67.0732,-46.6601,-2.2684,0
67.0144,-46.6029,-2.26222,0
66.9542,-46.547,-2.25586,0
66.8927,-46.4925,-2.24932,0
66.8311,-46.4384,-2.24221,0
66.7685,-46.3853,-2.23478,0
66.7048,-46.3337,-2.22716,0
66.6398,-46.2835,-2.21937,0
66.5736,-46.2349,-2.21141,0
66.5063,-46.1878,-2.20328,0
66.438,-46.1424,-2.19499,0
66.3685,-46.0985,-2.18654,0
66.2981,-46.0563,-2.17794,0
66.2267,-46.0158,-2.16919,0
66.1543,-45.9769,-2.1603,0
66.0812,-45.9395,-2.15121,0
66.7139,-52.1894,-2.0626,0
66.7766,-52.1344,-2.07432,0
66.8379,-52.0778,-2.08597,0
66.8974,-52.0198,-2.09753,0
66.9554,-51.9602,-2.10902,0
67.0117,-51.8993,-2.12041,0
67.0663,-51.837,-2.1317,0
67.1192,-51.7734,-2.14288,0
66.4293,-51.0555,-2.42747,174
66.4837,-51.0223,-2.42902,174
67.2674,-51.5754,-2.17571,0
67.3131,-51.5072,-2.18638,0
67.357,-51.4379,-2.19692,0
67.3991,-51.3677,-2.2073,0
67.4382,-51.2958,-2.21787,0
67.4749,-51.2229,-2.2284,0
67.5098,-51.1493,-2.23873,0
67.5429,-51.0751,-2.24886,0
67.574,-51.0003,-2.25877,0
67.6034,-50.925,-2.26848,0
67.6342,-50.8509,-2.277,0
67.6677,-50.7783,-2.28409,0
67.6996,-50.705,-2.29097,0
67.7298,-50.6311,-2.29764,0
67.7583,-50.5565,-2.30411,0
67.7866,-50.4819,-2.30999,0
67.8144,-50.4071,-2.31532,0
67.8406,-50.3317,-2.32043,0
67.8653,-50.2558,-2.32528,0
67.8884,-50.1793,-2.3299,0
67.9098,-50.1023,-2.33428,0
67.9297,-50.0249,-2.33839,0
67.9479,-49.947,-2.34227,0
67.9646,-49.8687,-2.34589,0
67.9796,-49.7901,-2.34924,0
67.9929,-49.7111,-2.35236,0
68.0046,-49.6319,-2.35521,0
68.0146,-49.5523,-2.3578,0
68.023,-49.4725,-2.36013,0
68.0297,-49.3925,-2.36221,0
68.0348,-49.3123,-2.36402,0
68.0381,-49.2319,-2.36556,0
68.0398,-49.1515,-2.36685,0
68.0398,-49.071,-2.36786,0
68.038,-48.9904,-2.36861,0
68.0346,-48.9098,-2.36909,0
68.0294,-48.8292,-2.36929,0
68.0227,-48.7487,-2.36924,0
68.0142,-48.6683,-2.36891,0
68.0039,-48.588,-2.36831,0
67.992,-48.5079,-2.36744,0
67.9784,-48.4279,-2.3663,0
67.9636,-48.3481,-2.36477,0
67.9473,-48.2684,-2.36294,0
67.9291,-48.189,-2.36083,0
67.9093,-48.11,-2.35845,0
67.8878,-48.0312,-2.35579,0
67.8645,-47.9529,-2.35291,0
67.8372,-47.8759,-2.3503,0
67.8081,-47.7995,-2.34744,0
67.7774,-47.7237,-2.34431,0
67.7451,-47.6486,-2.34093,0
67.7111,-47.5741,-2.33729,0
67.6755,-47.5003,-2.3334,0
67.6382,-47.4273,-2.32924,0
67.5994,-47.355,-2.32484,0
67.5589,-47.2836,-2.32018,0
67.5168,-47.2131,-2.31527,0
67.4732,-47.1434,-2.31011,0
67.428,-47.0746,-2.3047,0
67.3796,-47.0082,-2.29957,0
67.3286,-46.9436,-2.29451,0
67.2762,-46.8802,-2.28925,0
67.2223,-46.8181,-2.2838,0
67.1671,-46.7572,-2.27812,0
67.1104,-46.6977,-2.27227,0
67.0523,-46.6395,-2.26621,0
66.993,-46.5827,-2.25998,0
66.9324,-46.5274,-2.25355,0
66.8706,-46.4733,-2.2469,0
66.8089,-46.4193,-2.23958,0
66.7459,-46.3667,-2.23207,0
66.6817,-46.3156,-2.22439,0
66.6162,-46.266,-2.21654,0
66.5498,-46.2179,-2.20853,0
66.482,-46.1714,-2.20033,0
66.4133,-46.1265,-2.19199,0
66.3435,-46.0833,-2.18349,0
66.2727,-46.0416,-2.17483,0
66.2009,-46.0017,-2.16603,0
66.1282,-45.9634,-2.1571,0
66.0559,-45.9246,-2.14731,0
66.7364,-52.1699,-2.06679,0
66.7987,-52.1144,-2.07849,0
66.8593,-52.0573,-2.0901,0
66.9183,-51.9987,-2.10164,0
66.9757,-51.9386,-2.11309,0
67.0314,-51.8772,-2.12445,0
67.0854,-51.8145,-2.1357,0
66.4328,-51.1113,-2.41189,174
66.4386,-51.035,-2.43175,174
66.5357,-51.0372,-2.41794,174
67.2839,-51.5512,-2.17953,0
67.329,-51.4826,-2.19016,0
67.3723,-51.4129,-2.20065,0
67.4136,-51.3424,-2.211,0
67.4515,-51.2699,-2.22166,0
67.4877,-51.1967,-2.23212,0
67.5219,-51.1229,-2.24237,0
67.5542,-51.0485,-2.25242,0
67.5848,-50.9735,-2.26226,0
67.6134,-50.898,-2.27188,0
67.6463,-50.8251,-2.27955,0
67.6793,-50.7522,-2.28657,0
67.7105,-50.6787,-2.29338,0
67.7402,-50.6045,-2.29998,0
67.768,-50.5298,-2.30637,0
67.7966,-50.4553,-2.31192,0
67.8239,-50.3803,-2.31717,0
67.8496,-50.3047,-2.32219,0
67.8737,-50.2285,-2.32696,0
67.8962,-50.1519,-2.3315,0
67.9171,-50.0747,-2.33578,0
67.9364,-49.9972,-2.33981,0
67.9541,-49.9191,-2.34359,0
67.9701,-49.8407,-2.34712,0
67.9845,-49.762,-2.35039,0
66.6788,-46.4157,-2.22276,0
66.6157,-46.3662,-2.2152,0
66.5514,-46.3181,-2.20747,0
66.486,-46.2716,-2.19958,0
66.4195,-46.2266,-2.19153,0
66.352,-46.1832,-2.18333,0
66.2834,-46.1414,-2.17497,0
66.214,-46.1011,-2.16648,0
66.1435,-46.0626,-2.15782,0
66.0722,-46.0257,-2.14905,0
66.6371,-52.1339,-2.05759,0
66.6989,-52.081,-2.06903,0
66.7592,-52.0265,-2.08041,0
66.818,-51.9705,-2.09172,0
66.8752,-51.9131,-2.10296,0
66.9307,-51.8542,-2.1141,0
66.9847,-51.7941,-2.12516,0
67.037,-51.7326,-2.13611,0
66.4147,-51.0684,-2.40464,174
66.4493,-51.0185,-2.41354,174
66.5725,-51.0414,-2.38969,174
67.2292,-51.475,-2.17875,0
67.2729,-51.4079,-2.18909,0
67.3148,-51.3399,-2.19928,0
67.3548,-51.2709,-2.20933,0
67.393,-51.2011,-2.21922,0
67.4287,-51.13,-2.22916,0
67.4617,-51.0579,-2.23914,0
67.493,-50.9852,-2.24891,0
67.5226,-50.9119,-2.25849,0
67.5547,-50.8403,-2.26656,0
67.5881,-50.7696,-2.27357,0
67.6199,-50.6982,-2.28037,0
67.6511,-50.6265,-2.28673,0
67.6819,-50.5547,-2.29252,0
67.7112,-50.4822,-2.29807,0
67.739,-50.4092,-2.30338,0
67.7652,-50.3355,-2.30846,0
67.7899,-50.2613,-2.31331,0
67.8131,-50.1865,-2.31792,0
67.8348,-50.1113,-2.32229,0
67.8547,-50.0356,-2.32641,0
67.8731,-49.9594,-2.33029,0
67.89,-49.8829,-2.33392,0
67.9052,-49.8059,-2.3373,0
67.9189,-49.7287,-2.34043,0
67.9309,-49.6511,-2.34331,0
67.9412,-49.5732,-2.34593,0
67.95,-49.4951,-2.34831,0
67.9571,-49.4168,-2.35042,0
67.9626,-49.3383,-2.35228,0
67.9664,-49.2596,-2.35388,0
67.9686,-49.1808,-2.35522,0
67.9691,-49.102,-2.3563,0
67.968,-49.023,-2.35712,0
67.9652,-48.9441,-2.35767,0
67.9606,-48.8651,-2.35797,0
67.9545,-48.7863,-2.358,0
67.9468,-48.7074,-2.35776,0
67.9373,-48.6287,-2.35726,0
67.9261,-48.5502,-2.35649,0
67.9133,-48.4718,-2.35546,0
67.899,-48.3936,-2.35412,0
67.8834,-48.3156,-2.3524,0
67.8662,-48.2377,-2.35042,0
67.8474,-48.1602,-2.34817,0
67.8268,-48.083,-2.34566,0
67.8044,-48.0063,-2.34295,0
67.7781,-47.9307,-2.34049,0
67.7502,-47.8557,-2.33777,0
67.7208,-47.7813,-2.33479,0
67.6896,-47.7075,-2.33156,0
67.6568,-47.6344,-2.32808,0
67.6224,-47.5619,-2.32435,0
67.5865,-47.4902,-2.32036,0
67.5489,-47.4192,-2.31613,0
67.5098,-47.349,-2.31165,0
67.4691,-47.2797,-2.30693,0
67.427,-47.2112,-2.30195,0
67.3816,-47.1448,-2.29723,0
67.3338,-47.0801,-2.29256,0
67.2845,-47.0165,-2.28769,0
67.2337,-46.9541,-2.28262,0
67.1816,-46.8929,-2.27735,0
67.128,-46.8329,-2.27188,0
67.0731,-46.7743,-2.26622,0
67.017,-46.7169,-2.26037,0
66.9593,-46.6609,-2.25433,0
66.9005,-46.6063,-2.24811,0
66.8404,-46.553,-2.24172,0
66.78,-46.5002,-2.23481,0
66.7189,-46.4483,-2.22754,0
66.6565,-46.3979,-2.22008,0
66.5929,-46.3489,-2.21247,0
66.5282,-46.3013,-2.20468,0
66.4624,-46.2554,-2.19673,0
66.3955,-46.2109,-2.18862,0
66.3277,-46.1681,-2.18036,0
66.2588,-46.1268,-2.17195,0
66.189,-46.0872,-2.1634,0
66.1182,-46.0492,-2.15471,0
66.0466,-46.0129,-2.14588,0
66.6593,-52.1152,-2.06168,0
