36.5464,-15.5071,0.478275,0
36.5488,-15.401,0.478978,0
36.5487,-15.2948,0.479652,0
36.5462,-15.1886,0.480286,0
36.5413,-15.0826,0.480902,0
36.5332,-14.9766,0.481214,0
36.5221,-14.871,0.48138,0
36.5086,-14.7656,0.481497,0
36.4927,-14.6606,0.481575,0
36.4743,-14.556,0.481614,0
36.4536,-14.4518,0.481614,0
36.4303,-14.3481,0.481575,0
36.4048,-14.245,0.481507,0
36.3769,-14.1425,0.48138,0
36.3466,-14.0407,0.481224,0
36.3139,-13.9397,0.481028,0
31.134,-20.0743,0.422611,0
31.2427,-20.0905,0.423792,0
31.3516,-20.104,0.424954,0
31.4609,-20.1149,0.426097,0
31.5706,-20.1207,0.426536,0
31.6803,-20.1236,0.426898,0
31.7899,-20.1238,0.427239,0
31.8994,-20.1215,0.427571,0
32.0087,-20.1166,0.427904,0
32.1177,-20.1091,0.428226,0
32.2263,-20.0991,0.428538,0
32.3347,-20.0865,0.428841,0
32.4425,-20.0714,0.429134,0
32.5498,-20.0538,0.429417,0
32.6567,-20.0337,0.429691,0
32.7628,-20.0111,0.429954,0
32.8685,-19.9871,0.430501,0
32.9738,-19.9619,0.431429,0
33.0784,-19.9344,0.432327,0
33.1823,-19.9043,0.433216,0
33.2853,-19.8719,0.434095,0
33.3875,-19.8371,0.434954,0
33.4888,-19.8,0.435794,0
33.5891,-19.7604,0.436624,0
33.6884,-19.7186,0.437425,0
33.7866,-19.6745,0.438226,0
33.8837,-19.6281,0.438997,0
33.9797,-19.5795,0.439749,0
34.0743,-19.5288,0.440491,0
34.1677,-19.4758,0.441214,0
34.2598,-19.4208,0.441907,0
34.3505,-19.3636,0.442591,0
34.4398,-19.3044,0.443245,0
34.5276,-19.2432,0.44389,0
34.6139,-19.18,0.444515,0
34.6987,-19.1148,0.445101,0
34.7817,-19.0478,0.445677,0
34.8632,-18.9789,0.446234,0
34.943,-18.9081,0.446771,0
35.0212,-18.8356,0.447288,0
35.0976,-18.7615,0.447796,0
35.1733,-18.6867,0.448753,0
35.2473,-18.6104,0.449691,0
35.3197,-18.5325,0.450706,0
35.3906,-18.4534,0.451849,0
35.4598,-18.3727,0.452982,0
35.527,-18.2905,0.454095,0
35.5923,-18.2067,0.455189,0
35.6556,-18.1215,0.456253,0
35.717,-18.0349,0.457308,0
35.7764,-17.9469,0.458333,0
35.8337,-17.8576,0.459349,0
35.889,-17.767,0.460325,0
35.9422,-17.6752,0.461282,0
35.9932,-17.5822,0.46223,0
36.042,-17.4881,0.463148,0
36.0888,-17.3928,0.464036,0
36.1333,-17.2966,0.464896,0
36.1755,-17.1994,0.465745,0
36.2156,-17.1012,0.466566,0
36.2534,-17.0021,0.467347,0
36.2889,-16.9023,0.468118,0
36.3221,-16.8016,0.468861,0
36.353,-16.7003,0.469564,0
36.3816,-16.5982,0.470247,0
36.4077,-16.4956,0.470911,0
36.4316,-16.3923,0.471536,0
36.4531,-16.2886,0.472152,0
36.4734,-16.1846,0.47307,0
36.4912,-16.0801,0.473958,0
36.5067,-15.9753,0.474818,0
36.5198,-15.8701,0.475648,0
36.5305,-15.7646,0.476448,0
36.5387,-15.6588,0.47722,0
36.5446,-15.5529,0.477962,0
36.548,-15.4468,0.478675,0
36.5491,-15.3407,0.479359,0
36.5477,-15.2345,0.480023,0
36.5438,-15.1284,0.480638,0
36.5372,-15.0224,0.481136,0
36.5272,-14.9166,0.481312,0
36.5147,-14.8111,0.481448,0
36.4998,-14.706,0.481546,0
36.4825,-14.6012,0.481605,0
36.4628,-14.4968,0.481614,0
36.4407,-14.3929,0.481605,0
36.4162,-14.2895,0.481536,0
36.3892,-14.1868,0.481439,0
36.3599,-14.0847,0.481302,0
36.3284,-13.9833,0.481126,0
31.0871,-20.0665,0.422093,0
31.1956,-20.0838,0.423284,0
31.3045,-20.0985,0.424456,0
31.4137,-20.1105,0.425609,0
31.5232,-20.1186,0.42638,0
31.6329,-20.1226,0.426741,0
31.7425,-20.124,0.427093,0
31.852,-20.1228,0.427435,0
31.9615,-20.1191,0.427767,0
32.0705,-20.1127,0.428089,0
32.1795,-20.1038,0.428411,0
32.2879,-20.0923,0.428714,0
32.3959,-20.0783,0.429017,0
32.5035,-20.0617,0.4293,0
32.6105,-20.0427,0.429583,0
32.717,-20.0212,0.429847,0
32.8228,-19.9972,0.430101,0
32.9284,-19.9731,0.431019,0
33.0333,-19.9466,0.431937,0
33.1375,-19.9176,0.432835,0
33.2409,-19.8862,0.433714,0
33.3434,-19.8525,0.434583,0
33.4451,-19.8163,0.435423,0
33.5459,-19.7778,0.436263,0
33.6455,-19.737,0.437083,0
33.7443,-19.6939,0.437874,0
33.8419,-19.6485,0.438665,0
33.9384,-19.6008,0.439427,0
34.0336,-19.551,0.440169,0
34.1275,-19.499,0.440911,0
34.2202,-19.4448,0.441614,0
34.3115,-19.3886,0.442298,0
34.4013,-19.3303,0.442962,0
34.4898,-19.2699,0.443616,0
34.5767,-19.2075,0.444241,0
34.6622,-19.1432,0.444847,0
34.746,-19.077,0.445433,0
34.8283,-19.0089,0.445999,0
34.9087,-18.9389,0.446536,0
34.9877,-18.8672,0.447064,0
35.0648,-18.7937,0.447562,0
35.1408,-18.7192,0.448333,0
35.2155,-18.6436,0.44928,0
35.2884,-18.5662,0.450218,0
35.3602,-18.4878,0.451361,0
35.4301,-18.4078,0.452493,0
35.4981,-18.3262,0.453607,0
35.5643,-18.2431,0.45472,0
35.6285,-18.1585,0.455794,0
35.6907,-18.0725,0.456849,0
35.7509,-17.9851,0.457894,0
35.8092,-17.8964,0.4589,0
35.8653,-17.8063,0.459905,0
35.9195,-17.715,0.460872,0
35.9714,-17.6225,0.461829,0
36.0212,-17.5289,0.462757,0
36.0688,-17.4341,0.463655,0
36.1143,-17.3383,0.464534,0
36.1576,-17.2415,0.465384,0
36.1986,-17.1437,0.466214,0
36.2373,-17.0451,0.467015,0
36.2738,-16.9455,0.467786,0
36.308,-16.8452,0.468538,0
36.3399,-16.7442,0.469271,0
36.3695,-16.6424,0.469964,0
36.3967,-16.54,0.470628,0
36.4216,-16.437,0.471263,0
36.4441,-16.3335,0.471888,0
36.4649,-16.2296,0.472679,0
36.4838,-16.1254,0.473577,0
36.5003,-16.0207,0.474446,0
36.5145,-15.9156,0.475286,0
36.5262,-15.8102,0.476097,0
36.5355,-15.7046,0.476888,0
36.5424,-15.5987,0.47765,0
36.5469,-15.4927,0.478372,0
36.5489,-15.3866,0.479075,0
36.5486,-15.2804,0.479739,0
36.5458,-15.1743,0.480374,0
36.5405,-15.0682,0.48097,0
36.5318,-14.9623,0.481234,0
36.5205,-14.8567,0.48139,0
36.5066,-14.7514,0.481507,0
36.4903,-14.6464,0.481585,0
36.4716,-14.5418,0.481624,0
36.4505,-14.4377,0.481614,0
36.427,-14.3341,0.481566,0
36.4012,-14.2311,0.481487,0
36.3729,-14.1287,0.481361,0
36.3423,-14.027,0.481195,0
36.3093,-13.926,0.480989,0
31.0977,-19.932,0.420911,0
31.203,-19.9492,0.422073,0
31.3088,-19.9639,0.423216,0
31.4148,-19.976,0.424339,0
31.5212,-19.9855,0.425433,0
31.6276,-19.9917,0.426312,0
31.7342,-19.9935,0.426654,0
31.8408,-19.9929,0.426986,0
31.9471,-19.9896,0.427318,0
32.0533,-19.9839,0.42763,0
32.1591,-19.9757,0.427933,0
32.2647,-19.965,0.428245,0
32.3698,-19.9519,0.428529,0
32.4746,-19.9363,0.428812,0
32.5788,-19.9182,0.429085,0
32.6825,-19.8977,0.429339,0
32.7855,-19.8749,0.429603,0
32.888,-19.8511,0.430257,0
32.9902,-19.8257,0.431146,0
33.0916,-19.7979,0.432015,0
33.1923,-19.7678,0.432884,0
33.2923,-19.7353,0.433724,0
33.3913,-19.7005,0.434554,0
33.4895,-19.6635,0.435364,0
33.5867,-19.6241,0.436165,0
33.6828,-19.5826,0.436946,0
33.778,-19.5388,0.437718,0
33.872,-19.4929,0.43846,0
33.9648,-19.4447,0.439183,0
34.0564,-19.3945,0.439896,0
34.1467,-19.3422,0.440589,0
34.2358,-19.2878,0.441263,0
34.3234,-19.2314,0.441917,0
34.4098,-19.173,0.442552,0
34.4946,-19.1127,0.443167,0
34.578,-19.0505,0.443763,0
34.6598,-18.9863,0.444329,0
34.7401,-18.9204,0.444886,0
34.8187,-18.8527,0.445413,0
34.8957,-18.7832,0.445921,0
34.9718,-18.7128,0.446761,0
35.0465,-18.641,0.447689,0
35.1195,-18.5676,0.448607,0
35.1909,-18.4926,0.449534,0
35.2603,-18.416,0.450433,0
35.3284,-18.3381,0.451429,0
35.3949,-18.2589,0.452523,0
35.4595,-18.1783,0.453597,0
35.5223,-18.0961,0.454642,0
35.5832,-18.0126,0.455677,0
35.6421,-17.9277,0.456693,0
35.6991,-17.8415,0.457679,0
35.7541,-17.7541,0.458655,0
35.8069,-17.6654,0.459612,0
35.8578,-17.5755,0.46054,0
35.9066,-17.4845,0.461439,0
35.9532,-17.3924,0.462327,0
35.9978,-17.2993,0.463187,0
36.0402,-17.2052,0.464017,0
36.0805,-17.1102,0.464827,0
36.1185,-17.0143,0.465618,0
36.1543,-16.9175,0.46637,0
36.188,-16.82,0.467103,0
36.2193,-16.7217,0.467806,0
36.2484,-16.6227,0.468489,0
36.2752,-16.5232,0.469153,0
36.2998,-16.423,0.469769,0
36.322,-16.3223,0.470364,0
36.3427,-16.2213,0.471185,0
36.3613,-16.1198,0.472064,0
36.3777,-16.018,0.472904,0
36.3917,-15.9157,0.473734,0
36.4034,-15.8132,0.474534,0
36.4128,-15.7104,0.475296,0
36.4198,-15.6074,0.476038,0
36.4245,-15.5042,0.476751,0
36.4267,-15.4009,0.477435,0
36.4266,-15.2976,0.478089,0
36.4242,-15.1943,0.478714,0
36.4186,-15.0911,0.479046,0
36.4102,-14.988,0.479232,0
36.3995,-14.8852,0.479388,0
36.3863,-14.7827,0.479505,0
36.3708,-14.6805,0.479593,0
36.3529,-14.5787,0.479622,0
36.3327,-14.4773,0.479622,0
36.3102,-14.3764,0.479593,0
36.2853,-14.2761,0.479505,0
36.258,-14.1764,0.479398,0
36.2286,-14.0773,0.479241,0
36.1969,-13.979,0.479056,0
31.1574,-19.9421,0.421566,0
31.263,-19.9578,0.422718,0
31.369,-19.9711,0.423861,0
31.4752,-19.9817,0.424964,0
31.5816,-19.9897,0.426048,0
31.6881,-19.9931,0.426497,0
31.7947,-19.9935,0.426839,0
31.9012,-19.9913,0.427171,0
32.0074,-19.9867,0.427493,0
32.1134,-19.9796,0.427806,0
32.2191,-19.97,0.428109,0
32.3245,-19.9579,0.428411,0
32.4294,-19.9433,0.428685,0
32.5338,-19.9263,0.428968,0
32.6377,-19.9069,0.429232,0
32.7409,-19.8851,0.429486,0
32.8438,-19.8613,0.429876,0
32.9461,-19.8369,0.430765,0
33.0479,-19.8102,0.431644,0
33.1489,-19.7811,0.432503,0
33.2492,-19.7496,0.433362,0
33.3486,-19.7159,0.434202,0
33.4471,-19.6798,0.435023,0
33.5448,-19.6414,0.435823,0
33.6413,-19.6008,0.436605,0
33.737,-19.558,0.437386,0
33.8314,-19.513,0.438138,0
33.9248,-19.4658,0.43887,0
34.0169,-19.4165,0.439593,0
34.1078,-19.3651,0.440286,0
34.1975,-19.3116,0.44097,0
34.2858,-19.256,0.441634,0
34.3727,-19.1985,0.442279,0
34.4581,-19.139,0.442904,0
34.5421,-19.0776,0.443499,0
34.6246,-19.0143,0.444095,0
34.7055,-18.9491,0.444642,0
34.7849,-18.8822,0.445189,0
34.8627,-18.8134,0.445706,0
34.939,-18.7433,0.446341,0
35.0144,-18.6723,0.447288,0
35.0882,-18.5996,0.448216,0
35.1602,-18.5252,0.449134,0
35.2305,-18.4493,0.450042,0
35.2991,-18.3719,0.45095,0
35.3664,-18.2933,0.452044,0
35.4319,-18.2133,0.453128,0
35.4955,-18.1318,0.454202,0
35.5571,-18.0489,0.455237,0
35.6169,-17.9646,0.456263,0
35.6747,-17.8789,0.457259,0
35.7305,-17.792,0.458245,0
35.7843,-17.7039,0.459202,0
35.8361,-17.6145,0.46014,0
35.8858,-17.524,0.461058,0
35.9334,-17.4324,0.461946,0
35.9788,-17.3397,0.462816,0
36.0222,-17.246,0.463655,0
36.0633,-17.1514,0.464476,0
36.1023,-17.0558,0.465277,0
36.1391,-16.9594,0.466038,0
36.1737,-16.8622,0.46679,0
36.2059,-16.7643,0.467503,0
36.236,-16.6656,0.468206,0
36.2639,-16.5663,0.46887,0
36.2895,-16.4664,0.469505,0
36.3127,-16.3659,0.47012,0
36.3338,-16.265,0.470794,0
36.3535,-16.1637,0.471683,0
36.3709,-16.062,0.472542,0
36.3859,-15.96,0.473382,0
36.3987,-15.8576,0.474193,0
36.409,-15.7549,0.474974,0
36.4171,-15.6519,0.475726,0
36.4227,-15.5488,0.476448,0
36.426,-15.4456,0.477142,0
36.427,-15.3422,0.477806,0
36.4256,-15.2389,0.478441,0
36.4215,-15.1356,0.478948,0
36.4141,-15.0325,0.479154,0
36.4043,-14.9296,0.479329,0
36.3923,-14.827,0.479466,0
36.3778,-14.7246,0.479554,0
36.3609,-14.6226,0.479612,0
36.3417,-14.5211,0.479622,0
36.3202,-14.42,0.479612,0
36.2963,-14.3194,0.479544,0
36.2702,-14.2194,0.479446,0
36.2416,-14.12,0.47931,0
36.2109,-14.0214,0.479134,0
31.1119,-19.9344,0.421068,0
31.2173,-19.9513,0.42223,0
31.3231,-19.9657,0.423372,0
31.4292,-19.9774,0.424486,0
31.5355,-19.9866,0.425579,0
31.642,-19.9921,0.426351,0
31.7487,-19.9936,0.426693,0
31.8552,-19.9926,0.427034,0
31.9616,-19.989,0.427357,0
32.0676,-19.983,0.427669,0
32.1734,-19.9744,0.427982,0
32.279,-19.9634,0.428275,0
32.3841,-19.9499,0.428568,0
32.4888,-19.934,0.428851,0
32.5929,-19.9156,0.429114,0
32.6964,-19.8948,0.429378,0
32.7993,-19.8716,0.429642,0
32.902,-19.8478,0.430384,0
33.004,-19.822,0.431263,0
33.1054,-19.794,0.432132,0
33.2059,-19.7635,0.433001,0
33.3058,-19.7308,0.433841,0
33.4047,-19.6957,0.434671,0
33.5027,-19.6583,0.435472,0
33.5998,-19.6187,0.436273,0
33.6958,-19.5768,0.437054,0
33.7907,-19.5327,0.437806,0
33.8846,-19.4865,0.438558,0
33.9773,-19.4381,0.43928,0
34.0687,-19.3875,0.439993,0
34.1589,-19.335,0.440677,0
34.2477,-19.2803,0.441351,0
34.3352,-19.2236,0.442005,0
34.4213,-19.165,0.44263,0
34.506,-19.1044,0.443245,0
34.5891,-19.0419,0.443831,0
34.6708,-18.9775,0.444407,0
34.7508,-18.9113,0.444954,0
34.8292,-18.8433,0.445482,0
34.9061,-18.7736,0.445989,0
34.982,-18.7032,0.446878,0
35.0566,-18.6312,0.447816,0
35.1293,-18.5576,0.448734,0
35.2003,-18.4823,0.449652,0
35.2697,-18.4055,0.45055,0
35.3376,-18.3275,0.451585,0
35.4037,-18.2481,0.452669,0
35.4682,-18.1672,0.453734,0
35.5307,-18.0849,0.454788,0
35.5912,-18.0012,0.455823,0
35.6499,-17.9161,0.456829,0
35.7066,-17.8298,0.457825,0
35.7612,-17.7421,0.458782,0
35.8139,-17.6533,0.45973,0
35.8645,-17.5633,0.460667,0
35.913,-17.4721,0.461566,0
35.9595,-17.3799,0.462445,0
36.0037,-17.2866,0.463304,0
36.0459,-17.1924,0.464124,0
36.0857,-17.0973,0.464935,0
36.1235,-17.0012,0.465716,0
36.159,-16.9044,0.466468,0
36.1923,-16.8067,0.4672,0
36.2234,-16.7084,0.467903,0
36.2521,-16.6093,0.468577,0
36.2787,-16.5096,0.469232,0
36.3028,-16.4094,0.469857,0
36.3248,-16.3086,0.470452,0
36.3453,-16.2075,0.471302,0
36.3637,-16.1061,0.472181,0
36.3798,-16.0041,0.473021,0
36.3935,-15.9019,0.473841,0
36.4048,-15.7993,0.474642,0
36.4139,-15.6965,0.475404,0
36.4205,-15.5934,0.476136,0
36.4249,-15.4902,0.476849,0
36.4269,-15.3869,0.477523,0
36.4265,-15.2836,0.478177,0
36.4237,-15.1803,0.478792,0
36.4175,-15.0771,0.479075,0
36.4088,-14.9741,0.479261,0
36.3978,-14.8713,0.479407,0
36.3844,-14.7688,0.479515,0
36.3685,-14.6667,0.479593,0
36.3503,-14.5649,0.479632,0
36.3298,-14.4636,0.479622,0
36.307,-14.3628,0.479583,0
36.2817,-14.2625,0.479495,0
36.2542,-14.1629,0.479378,0
36.2245,-14.064,0.479222,0
36.1924,-13.9657,0.479027,0
31.1216,-19.8068,0.419945,0
31.2241,-19.8236,0.421077,0
31.327,-19.8379,0.422191,0
31.43,-19.8497,0.423284,0
31.5334,-19.859,0.424349,0
31.6368,-19.8658,0.425394,0
31.7404,-19.8696,0.426282,0
31.8441,-19.8691,0.426605,0
31.9476,-19.8661,0.426927,0
32.0509,-19.8606,0.42723,0
32.1539,-19.8528,0.427532,0
32.2566,-19.8425,0.427825,0
32.359,-19.8298,0.428109,0
32.4609,-19.8148,0.428392,0
32.5623,-19.7973,0.428646,0
32.6632,-19.7775,0.428909,0
32.7635,-19.7554,0.429154,0
32.8634,-19.7318,0.429642,0
32.9627,-19.7072,0.430511,0
33.0615,-19.6802,0.431361,0
33.1595,-19.651,0.432191,0
33.2568,-19.6195,0.433021,0
33.3532,-19.5857,0.433831,0
33.4488,-19.5497,0.434622,0
33.5434,-19.5115,0.435403,0
33.637,-19.4711,0.436165,0
33.7296,-19.4286,0.436907,0
33.8212,-19.3839,0.43764,0
33.9116,-19.3372,0.438343,0
34.0008,-19.2883,0.439036,0
34.0887,-19.2375,0.43971,0
34.1755,-19.1846,0.440364,0
34.2609,-19.1298,0.440999,0
34.3449,-19.073,0.441614,0
34.4276,-19.0144,0.44222,0
34.5088,-18.9539,0.442796,0
34.5886,-18.8915,0.443353,0
34.6667,-18.8274,0.4439,0
34.7434,-18.7615,0.444437,0
34.8194,-18.695,0.445364,0
34.8937,-18.6268,0.446292,0
34.9666,-18.5569,0.447191,0
35.0377,-18.4855,0.448099,0
35.1072,-18.4124,0.448987,0
35.1749,-18.3378,0.449866,0
35.2409,-18.2617,0.450736,0
35.3054,-18.1843,0.451624,0
35.3683,-18.1057,0.452669,0
35.4295,-18.0257,0.453695,0
35.4888,-17.9444,0.4547,0
35.5462,-17.8618,0.455687,0
35.6016,-17.7778,0.456654,0
35.6552,-17.6926,0.457601,0
35.7067,-17.6063,0.458529,0
35.7562,-17.5188,0.459437,0
35.8038,-17.4302,0.460316,0
35.8493,-17.3405,0.461165,0
35.8927,-17.2498,0.462005,0
35.9339,-17.1582,0.462825,0
35.9731,-17.0656,0.463607,0
36.0102,-16.9722,0.464368,0
36.0452,-16.878,0.46512,0
36.0779,-16.783,0.465823,0
36.1084,-16.6873,0.466517,0
36.1367,-16.5909,0.467181,0
36.1629,-16.4939,0.467816,0
36.1868,-16.3963,0.468431,0
36.2084,-16.2982,0.469007,0
36.2288,-16.1999,0.469876,0
36.247,-16.1011,0.470736,0
36.263,-16.0019,0.471566,0
36.2766,-15.9023,0.472366,0
36.2879,-15.8024,0.473138,0
36.297,-15.7023,0.47388,0
36.3038,-15.602,0.474603,0
36.3084,-15.5015,0.475296,0
36.3105,-15.4009,0.47596,0
36.3105,-15.3002,0.476595,0
36.3071,-15.1996,0.476937,0
36.3013,-15.0992,0.477171,0
36.2932,-14.9988,0.477347,0
36.2827,-14.8987,0.477503,0
36.2699,-14.7989,0.477611,0
36.2548,-14.6994,0.477689,0
36.2374,-14.6003,0.477728,0
36.2177,-14.5016,0.477728,0
36.1958,-14.4033,0.477698,0
36.1716,-14.3057,0.47762,0
36.1452,-14.2086,0.477513,0
36.1164,-14.1121,0.477357,0
36.0855,-14.0163,0.477171,0
31.1798,-19.8166,0.420599,0
31.2824,-19.832,0.421712,0
31.3854,-19.8449,0.422806,0
31.4887,-19.8553,0.42389,0
31.5921,-19.8632,0.424945,0
31.6956,-19.8685,0.42598,0
31.7993,-19.8696,0.426468,0
31.9029,-19.8677,0.42678,0
32.0062,-19.8633,0.427103,0
32.1095,-19.8565,0.427405,0
32.2123,-19.8472,0.427698,0
32.3148,-19.8356,0.427991,0
32.417,-19.8216,0.428265,0
32.5186,-19.8052,0.428538,0
32.6198,-19.7864,0.428792,0
32.7202,-19.7653,0.429046,0
32.8202,-19.7418,0.42929,0
32.9198,-19.7181,0.43014,0
33.0189,-19.6922,0.430999,0
33.1173,-19.6639,0.431839,0
33.2148,-19.6334,0.432669,0
33.3116,-19.6006,0.43348,0
33.4076,-19.5655,0.43429,0
33.5027,-19.5283,0.435062,0
33.5966,-19.4888,0.435833,0
33.6898,-19.4472,0.436575,0
33.7817,-19.4035,0.437327,0
33.8726,-19.3576,0.43804,0
33.9624,-19.3097,0.438734,0
34.0509,-19.2597,0.439417,0
34.1381,-19.2077,0.440081,0
34.2241,-19.1537,0.440726,0
34.3088,-19.0978,0.441351,0
34.3921,-19.04,0.441956,0
34.4739,-18.9803,0.442552,0
34.5542,-18.9187,0.443118,0
34.6331,-18.8553,0.443665,0
34.7104,-18.7902,0.444193,0
34.7867,-18.724,0.444964,0
34.8618,-18.6565,0.445892,0
34.9353,-18.5873,0.4468,0
35.0072,-18.5166,0.447708,0
35.0773,-18.4442,0.448607,0
35.1459,-18.3702,0.449486,0
35.2127,-18.2948,0.450355,0
35.2777,-18.2179,0.451224,0
35.3413,-18.1398,0.45222,0
35.4032,-18.0605,0.453255,0
35.4633,-17.9797,0.454261,0
35.5216,-17.8977,0.455267,0
35.5778,-17.8143,0.456243,0
35.6323,-17.7296,0.457191,0
35.6847,-17.6437,0.458128,0
35.7351,-17.5567,0.459046,0
35.7835,-17.4686,0.459935,0
35.8298,-17.3794,0.460804,0
35.8741,-17.2891,0.461654,0
35.9164,-17.1979,0.462464,0
35.9565,-17.1057,0.463265,0
35.9945,-17.0127,0.464046,0
36.0303,-16.9188,0.464798,0
36.064,-16.8241,0.465521,0
36.0955,-16.7287,0.466214,0
36.1248,-16.6326,0.466898,0
36.1519,-16.5359,0.467552,0
36.1767,-16.4386,0.468167,0
36.1993,-16.3407,0.468763,0
36.2203,-16.2425,0.469505,0
36.2395,-16.1439,0.470374,0
36.2563,-16.0448,0.471204,0
36.2709,-15.9454,0.472015,0
36.2834,-15.8456,0.472806,0
36.2934,-15.7456,0.473568,0
36.3012,-15.6454,0.4743,0
36.3067,-15.5449,0.475003,0
36.3098,-15.4444,0.475677,0
36.3108,-15.3438,0.476331,0
36.309,-15.2431,0.476829,0
36.3041,-15.1426,0.477073,0
36.297,-15.0422,0.477279,0
36.2876,-14.942,0.477435,0
36.2757,-14.842,0.477571,0
36.2616,-14.7424,0.477659,0
36.2452,-14.6431,0.477718,0
36.2266,-14.5442,0.477737,0
36.2056,-14.4457,0.477718,0
36.1823,-14.3478,0.477659,0
36.1568,-14.2505,0.477571,0
36.1291,-14.1537,0.477425,0
36.0991,-14.0576,0.477259,0
31.1355,-19.8092,0.420111,0
31.238,-19.8257,0.421234,0
31.3409,-19.8396,0.422347,0
31.444,-19.8511,0.423421,0
31.5473,-19.8601,0.424495,0
31.6508,-19.8666,0.42554,0
31.7545,-19.8697,0.426321,0
31.858,-19.8688,0.426644,0
31.9616,-19.8655,0.426966,0
32.0648,-19.8597,0.427269,0
32.1679,-19.8515,0.427571,0
32.2705,-19.8409,0.427864,0
32.3728,-19.8279,0.428148,0
32.4747,-19.8126,0.428421,0
32.5761,-19.7948,0.428685,0
32.6769,-19.7747,0.428939,0
32.7771,-19.7522,0.429193,0
32.8769,-19.7286,0.429759,0
32.9762,-19.7037,0.430628,0
33.0748,-19.6764,0.431478,0
33.1727,-19.6469,0.432318,0
33.2698,-19.615,0.433138,0
33.3662,-19.581,0.433939,0
33.4616,-19.5447,0.43473,0
33.5562,-19.5062,0.435501,0
33.6497,-19.4655,0.436263,0
33.7421,-19.4227,0.437005,0
33.8334,-19.3777,0.437728,0
33.9237,-19.3307,0.438431,0
34.0127,-19.2816,0.439124,0
34.1006,-19.2305,0.439798,0
34.1872,-19.1773,0.440452,0
34.2723,-19.1222,0.441077,0
34.3563,-19.0652,0.441702,0
34.4387,-19.0063,0.442288,0
34.5197,-18.9455,0.442874,0
34.5992,-18.8829,0.443421,0
34.6773,-18.8185,0.443958,0
34.7537,-18.7526,0.444554,0
34.8295,-18.6859,0.445491,0
34.9037,-18.6175,0.446409,0
34.9762,-18.5473,0.447318,0
35.0472,-18.4757,0.448216,0
35.1165,-18.4024,0.449105,0
35.184,-18.3276,0.449984,0
35.2498,-18.2513,0.450853,0
35.314,-18.1737,0.451761,0
35.3767,-18.095,0.452806,0
35.4376,-18.0148,0.453831,0
35.4966,-17.9333,0.454837,0
35.5537,-17.8505,0.455823,0
35.609,-17.7664,0.45679,0
35.6622,-17.681,0.457738,0
35.7135,-17.5945,0.458655,0
35.7628,-17.5068,0.459554,0
35.8101,-17.4181,0.460433,0
35.8552,-17.3283,0.461292,0
35.8984,-17.2374,0.462112,0
35.9394,-17.1457,0.462923,0
35.9784,-17.053,0.463714,0
36.0151,-16.9595,0.464476,0
36.0497,-16.8651,0.465208,0
36.0822,-16.77,0.465921,0
36.1124,-16.6742,0.466605,0
36.1405,-16.5778,0.467269,0
36.1662,-16.4807,0.467894,0
36.1898,-16.3831,0.468499,0
36.2113,-16.285,0.469124,0
36.2315,-16.1865,0.469993,0
36.2493,-16.0877,0.470843,0
36.2649,-15.9884,0.471673,0
36.2783,-15.8888,0.472464,0
36.2894,-15.7889,0.473236,0
36.2981,-15.6887,0.473987,0
36.3046,-15.5883,0.4747,0
36.3088,-15.4879,0.475394,0
36.3107,-15.3872,0.476048,0
36.3102,-15.2866,0.476683,0
36.3066,-15.186,0.476966,0
36.3004,-15.0856,0.477191,0
36.292,-14.9853,0.477366,0
36.2812,-14.8852,0.477523,0
36.268,-14.7854,0.47763,0
36.2527,-14.6859,0.477698,0
36.2349,-14.5869,0.477728,0
36.2149,-14.4882,0.477728,0
36.1927,-14.3901,0.477689,0
36.1681,-14.2925,0.477611,0
36.1413,-14.1955,0.477493,0
36.1123,-14.0991,0.477337,0
36.0811,-14.0034,0.477142,0
31.1444,-19.6878,0.419036,0
31.2441,-19.7042,0.42014,0
31.3441,-19.7182,0.421224,0
31.4445,-19.7297,0.422279,0
31.545,-19.7388,0.423323,0
31.6456,-19.7455,0.424339,0
31.7464,-19.7497,0.425335,0
31.8472,-19.7513,0.426243,0
31.948,-19.7485,0.426556,0
32.0486,-19.7433,0.426849,0
32.149,-19.7358,0.427152,0
32.249,-19.7259,0.427435,0
32.3487,-19.7137,0.427708,0
32.4479,-19.6991,0.427982,0
32.5466,-19.6823,0.428236,0
32.645,-19.6631,0.428489,0
32.7427,-19.6417,0.428724,0
32.8398,-19.6184,0.429066,0
32.9366,-19.5944,0.429905,0
33.0327,-19.5683,0.430736,0
33.1283,-19.5399,0.431556,0
33.223,-19.5092,0.432357,0
33.317,-19.4764,0.433148,0
33.4101,-19.4414,0.433919,0
33.5023,-19.4043,0.434671,0
33.5934,-19.365,0.435403,0
33.6837,-19.3236,0.436136,0
33.7728,-19.2802,0.436849,0
33.8609,-19.2347,0.437532,0
33.9478,-19.1873,0.438216,0
34.0336,-19.1378,0.43887,0
34.1181,-19.0864,0.439505,0
34.2013,-19.033,0.44013,0
34.2833,-18.9778,0.440726,0
34.3638,-18.9208,0.441312,0
34.443,-18.8619,0.441878,0
34.5206,-18.8012,0.442425,0
34.5973,-18.7392,0.443118,0
34.6728,-18.6761,0.444036,0
34.7468,-18.6113,0.444945,0
34.8194,-18.5448,0.445833,0
34.8903,-18.4768,0.446732,0
34.9597,-18.4071,0.447601,0
35.0274,-18.336,0.44847,0
35.0935,-18.2633,0.449329,0
35.1579,-18.1892,0.450179,0
35.2205,-18.1136,0.451009,0
35.2815,-18.0367,0.451829,0
35.3409,-17.9587,0.452786,0
35.3987,-17.8794,0.453763,0
35.4546,-17.7989,0.45473,0
35.5088,-17.7171,0.455677,0
35.5609,-17.6341,0.456595,0
35.6112,-17.55,0.457503,0
35.6595,-17.4647,0.458382,0
35.7058,-17.3783,0.459241,0
35.7502,-17.2909,0.460071,0
35.7924,-17.2026,0.460892,0
35.8327,-17.1133,0.461683,0
35.8709,-17.0231,0.462445,0
35.907,-16.9321,0.463196,0
35.9411,-16.8403,0.463919,0
35.973,-16.7477,0.464612,0
36.0027,-16.6544,0.465277,0
36.0304,-16.5605,0.465931,0
36.0559,-16.466,0.466556,0
36.0791,-16.3709,0.467142,0
36.1005,-16.2754,0.467777,0
36.1203,-16.1795,0.468636,0
36.138,-16.0832,0.469466,0
36.1536,-15.9866,0.470277,0
36.1668,-15.8895,0.471058,0
36.1779,-15.7922,0.47181,0
36.1867,-15.6946,0.472542,0
36.1933,-15.5968,0.473245,0
36.1977,-15.4989,0.473919,0
36.1998,-15.4008,0.474564,0
36.1988,-15.3028,0.474896,0
36.1953,-15.2048,0.47515,0
36.1897,-15.1069,0.475374,0
36.1818,-15.0092,0.47555,0
36.1715,-14.9116,0.475706,0
36.1591,-14.8144,0.475814,0
36.1444,-14.7174,0.475882,0
36.1274,-14.6208,0.475931,0
36.1083,-14.5247,0.475931,0
36.0869,-14.429,0.475892,0
36.0632,-14.3338,0.475814,0
36.0374,-14.2392,0.475706,0
36.0095,-14.1452,0.47556,0
35.9794,-14.0519,0.475384,0
31.2009,-19.6974,0.419661,0
31.3009,-19.7125,0.420755,0
31.401,-19.725,0.421829,0
31.5015,-19.7352,0.422874,0
31.6021,-19.7429,0.4239,0
31.7028,-19.7482,0.424905,0
31.8037,-19.7511,0.425892,0
31.9045,-19.75,0.426419,0
32.0052,-19.7458,0.426722,0
32.1056,-19.7393,0.427015,0
32.2058,-19.7305,0.427308,0
32.3056,-19.7193,0.427591,0
32.4051,-19.7057,0.427855,0
32.5041,-19.6898,0.428118,0
32.6026,-19.6717,0.428382,0
32.7005,-19.6512,0.428626,0
32.7978,-19.6285,0.428861,0
32.8948,-19.6051,0.429544,0
32.9913,-19.5798,0.430374,0
33.0871,-19.5524,0.431204,0
33.1822,-19.5227,0.432015,0
33.2764,-19.4909,0.432806,0
33.3699,-19.4568,0.433577,0
33.4625,-19.4206,0.434339,0
33.5541,-19.3822,0.435091,0
33.6448,-19.3418,0.435823,0
33.7344,-19.2993,0.436546,0
33.823,-19.2547,0.437239,0
33.9105,-19.208,0.437923,0
33.9967,-19.1594,0.438587,0
34.0817,-19.1088,0.439232,0
34.1655,-19.0563,0.439866,0
34.248,-19.0019,0.440472,0
34.3291,-18.9456,0.441058,0
34.4089,-18.8875,0.441634,0
34.4873,-18.8276,0.442191,0
34.5641,-18.766,0.442728,0
34.6403,-18.7036,0.443636,0
34.715,-18.6395,0.444554,0
34.7881,-18.5738,0.445452,0
34.8598,-18.5064,0.446351,0
34.9298,-18.4374,0.44722,0
34.9984,-18.3669,0.448099,0
35.0652,-18.2949,0.448958,0
35.1303,-18.2214,0.449808,0
35.1937,-18.1464,0.450648,0
35.2554,-18.0701,0.451478,0
35.3154,-17.9925,0.452357,0
35.374,-17.9138,0.453353,0
35.4307,-17.8339,0.45432,0
35.4856,-17.7526,0.455267,0
35.5386,-17.6701,0.456204,0
35.5897,-17.5865,0.457112,0
35.6388,-17.5017,0.458001,0
35.686,-17.4158,0.45887,0
35.7312,-17.3288,0.45971,0
35.7744,-17.2409,0.46054,0
35.8155,-17.152,0.461341,0
35.8546,-17.0622,0.462112,0
35.8917,-16.9715,0.462884,0
35.9266,-16.8801,0.463607,0
35.9595,-16.7878,0.46431,0
35.9902,-16.6948,0.464993,0
36.0187,-16.6012,0.465657,0
36.0452,-16.5069,0.466292,0
36.0694,-16.4121,0.466888,0
36.0914,-16.3167,0.467474,0
36.112,-16.221,0.468265,0
36.1306,-16.1249,0.469114,0
36.1471,-16.0284,0.469925,0
36.1613,-15.9315,0.470726,0
36.1734,-15.8343,0.471487,0
36.1832,-15.7368,0.47222,0
36.1907,-15.6391,0.472943,0
36.1961,-15.5412,0.473626,0
36.1992,-15.4432,0.47429,0
36.1995,-15.3452,0.474779,0
36.1971,-15.2471,0.475042,0
36.1924,-15.1492,0.475277,0
36.1855,-15.0514,0.475482,0
36.1762,-14.9537,0.475638,0
36.1647,-14.8564,0.475775,0
36.151,-14.7593,0.475853,0
36.135,-14.6625,0.475911,0
36.1169,-14.5662,0.475931,0
36.0964,-14.4703,0.475911,0
36.0737,-14.3749,0.475853,0
36.0489,-14.28,0.475765,0
36.0219,-14.1858,0.475628,0
35.9927,-14.0922,0.475462,0
31.1578,-19.6902,0.419193,0
31.2576,-19.7063,0.420286,0
31.3577,-19.7199,0.421361,0
31.458,-19.7311,0.422425,0
31.5586,-19.7399,0.42347,0
31.6593,-19.7462,0.424476,0
31.7601,-19.7501,0.425472,0
31.8609,-19.7511,0.426282,0
31.9616,-19.7479,0.426595,0
32.0622,-19.7425,0.426898,0
32.1625,-19.7346,0.427181,0
32.2625,-19.7244,0.427464,0
32.3621,-19.7118,0.427738,0
32.4613,-19.697,0.428011,0
32.56,-19.6798,0.428275,0
32.6583,-19.6604,0.428519,0
32.7559,-19.6386,0.428763,0
32.853,-19.6153,0.429183,0
32.9497,-19.591,0.430023,0
33.0458,-19.5645,0.430843,0
33.1412,-19.5358,0.431653,0
33.2358,-19.5049,0.432464,0
33.3296,-19.4718,0.433245,0
33.4226,-19.4365,0.434017,0
33.5146,-19.3991,0.434769,0
33.6057,-19.3595,0.435511,0
33.6958,-19.3179,0.436243,0
33.7848,-19.2742,0.436946,0
33.8727,-19.2284,0.43763,0
33.9595,-19.1807,0.438294,0
34.0451,-19.131,0.438958,0
34.1295,-19.0793,0.439593,0
34.2125,-19.0257,0.440208,0
34.2942,-18.9702,0.440814,0
34.3746,-18.9129,0.4414,0
34.4535,-18.8537,0.441956,0
34.531,-18.7928,0.442503,0
34.6075,-18.7307,0.443236,0
34.6829,-18.6674,0.444154,0
34.7567,-18.6024,0.445062,0
34.829,-18.5357,0.44596,0
34.8998,-18.4674,0.446849,0
34.9689,-18.3976,0.447718,0
35.0365,-18.3262,0.448597,0
35.1023,-18.2533,0.449446,0
35.1665,-18.179,0.450286,0
35.2289,-18.1033,0.451116,0
35.2895,-18.0261,0.451937,0
35.3488,-17.948,0.452913,0
35.4064,-17.8686,0.4539,0
35.4621,-17.7879,0.454857,0
35.5159,-17.7059,0.455804,0
35.5678,-17.6228,0.456722,0
35.6178,-17.5385,0.457611,0
35.6659,-17.4531,0.458499,0
35.7119,-17.3666,0.459359,0
35.756,-17.2791,0.460189,0
35.798,-17.1906,0.460999,0
35.838,-17.1011,0.46179,0
35.8759,-17.0108,0.462552,0
35.9118,-16.9197,0.463294,0
35.9455,-16.8278,0.464017,0
35.9771,-16.7351,0.46471,0
36.0066,-16.6417,0.465364,0
36.034,-16.5477,0.466009,0
36.0591,-16.4531,0.466634,0
36.0822,-16.358,0.46723,0
36.1033,-16.2624,0.467894,0
36.1229,-16.1665,0.468743,0
36.1403,-16.0702,0.469573,0
36.1555,-15.9734,0.470384,0
36.1684,-15.8763,0.471155,0
36.1792,-15.779,0.471907,0
36.1877,-15.6814,0.47264,0
36.1941,-15.5835,0.473343,0
36.1981,-15.4856,0.474007,0
36.1999,-15.3875,0.474642,0
36.1984,-15.2895,0.474935,0
36.1948,-15.1915,0.475179,0
36.1887,-15.0936,0.475404,0
36.1805,-14.9959,0.47557,0
36.17,-14.8984,0.475716,0
36.1572,-14.8012,0.475823,0
36.1422,-14.7043,0.475892,0
36.125,-14.6078,0.475931,0
36.1055,-14.5117,0.475921,0
36.0838,-14.4161,0.475882,0
36.0599,-14.321,0.475804,0
36.0338,-14.2264,0.475687,0
36.0055,-14.1325,0.47554,0
35.9751,-14.0393,0.475355,0
31.166,-19.5746,0.418167,0
31.263,-19.5907,0.419241,0
31.3605,-19.6043,0.420296,0
31.4581,-19.6156,0.421321,0
31.556,-19.6245,0.422337,0
31.6541,-19.631,0.423333,0
31.7522,-19.6352,0.4243,0
31.8503,-19.637,0.425247,0
31.9484,-19.6364,0.426175,0
32.0464,-19.6315,0.426488,0
32.1442,-19.6243,0.42678,0
32.2416,-19.6148,0.427064,0
32.3388,-19.603,0.427337,0
32.4355,-19.5889,0.427591,0
32.5317,-19.5726,0.427835,0
32.6276,-19.5541,0.428089,0
32.7227,-19.5333,0.428323,0
32.8173,-19.5104,0.428548,0
32.9116,-19.487,0.429329,0
33.0055,-19.4615,0.43014,0
33.0985,-19.4339,0.430931,0
33.1909,-19.4041,0.431722,0
33.2824,-19.3722,0.432484,0
33.3731,-19.3382,0.433236,0
33.463,-19.3021,0.433978,0
33.5519,-19.2639,0.4347,0
33.6398,-19.2236,0.435403,0
33.7268,-19.1814,0.436097,0
33.8127,-19.1371,0.436771,0
33.8974,-19.0909,0.437435,0
33.9809,-19.0428,0.43807,0
34.0634,-18.9927,0.438695,0
34.1445,-18.9408,0.43929,0
34.2244,-18.887,0.439876,0
34.303,-18.8315,0.440452,0
34.3802,-18.7741,0.441009,0
34.4566,-18.7158,0.441859,0
34.5316,-18.656,0.442757,0
34.6053,-18.5945,0.443655,0
34.6775,-18.5313,0.444534,0
34.7484,-18.4666,0.445413,0
34.8176,-18.4002,0.446273,0
34.8852,-18.3324,0.447132,0
34.9513,-18.263,0.447982,0
35.0158,-18.1922,0.448821,0
35.0786,-18.1199,0.449642,0
35.1397,-18.0462,0.450452,0
35.1991,-17.9712,0.451253,0
35.2568,-17.8949,0.452044,0
35.3128,-17.8174,0.452884,0
35.3674,-17.7389,0.453812,0
35.4201,-17.6592,0.454739,0
35.471,-17.5783,0.455638,0
35.52,-17.4962,0.456517,0
35.5671,-17.4131,0.457376,0
35.6123,-17.3289,0.458206,0
35.6555,-17.2437,0.459036,0
35.6968,-17.1576,0.459827,0
35.7361,-17.0705,0.460599,0
35.7734,-16.9826,0.461341,0
35.8085,-16.8938,0.462073,0
35.8417,-16.8043,0.462767,0
35.8729,-16.714,0.46345,0
35.9019,-16.6231,0.464105,0
35.9289,-16.5315,0.46473,0
35.9537,-16.4394,0.465345,0
35.9765,-16.3467,0.465921,0
35.9974,-16.2536,0.466614,0
36.0168,-16.1601,0.467445,0
36.0341,-16.0662,0.468255,0
36.0491,-15.9719,0.469036,0
36.062,-15.8773,0.469808,0
36.0728,-15.7824,0.47054,0
36.0814,-15.6872,0.471253,0
36.0878,-15.5919,0.471937,0
36.092,-15.4964,0.472601,0
36.0932,-15.4008,0.472913,0
36.092,-15.3052,0.473196,0
36.0887,-15.2097,0.47345,0
36.0831,-15.1142,0.473655,0
36.0755,-15.019,0.473841,0
36.0655,-14.9239,0.473987,0
36.0534,-14.8291,0.474095,0
36.0391,-14.7346,0.474163,0
36.0225,-14.6405,0.474202,0
36.0038,-14.5467,0.474212,0
35.983,-14.4534,0.474163,0
35.9599,-14.3607,0.474095,0
35.9348,-14.2685,0.473997,0
35.9076,-14.1768,0.473851,0
35.8781,-14.0859,0.473675,0
31.2211,-19.584,0.418782,0
31.3184,-19.5987,0.419847,0
31.4159,-19.611,0.420892,0
31.5137,-19.6209,0.421907,0
31.6116,-19.6285,0.422913,0
31.7097,-19.6337,0.42389,0
31.8079,-19.6365,0.424837,0
31.906,-19.637,0.425784,0
32.0041,-19.634,0.42637,0
32.102,-19.6277,0.426663,0
32.1995,-19.6192,0.426937,0
32.2968,-19.6084,0.42721,0
32.3937,-19.5953,0.427474,0
32.4902,-19.58,0.427738,0
32.5862,-19.5624,0.427982,0
32.6816,-19.5426,0.428226,0
32.7766,-19.5205,0.42845,0
32.8709,-19.4973,0.428978,0
32.965,-19.4728,0.429788,0
33.0584,-19.4461,0.430599,0
33.151,-19.4173,0.43138,0
33.2429,-19.3863,0.432161,0
33.334,-19.3532,0.432913,0
33.4242,-19.3179,0.433655,0
33.5136,-19.2806,0.434388,0
33.602,-19.2413,0.435101,0
33.6893,-19.1999,0.435804,0
33.7756,-19.1565,0.436478,0
33.8609,-19.1111,0.437142,0
33.945,-19.0638,0.437796,0
34.0279,-19.0146,0.438431,0
34.1096,-18.9635,0.439036,0
34.19,-18.9105,0.439632,0
34.2692,-18.8557,0.440218,0
34.347,-18.7991,0.440775,0
34.4236,-18.7412,0.441458,0
34.4993,-18.6821,0.442366,0
34.5737,-18.6213,0.443265,0
34.6465,-18.5588,0.444154,0
34.7179,-18.4948,0.445032,0
34.7877,-18.4291,0.445911,0
34.8562,-18.3619,0.446771,0
34.923,-18.2932,0.44762,0
34.9881,-18.223,0.44846,0
35.0516,-18.1513,0.44929,0
35.1134,-18.0782,0.450101,0
35.1737,-18.0038,0.450911,0
35.2321,-17.928,0.451702,0
35.2887,-17.851,0.452484,0
35.3441,-17.773,0.453411,0
35.3976,-17.6938,0.454339,0
35.4492,-17.6134,0.455247,0
35.4991,-17.5318,0.456136,0
35.547,-17.4491,0.457005,0
35.593,-17.3654,0.457855,0
35.6371,-17.2807,0.458685,0
35.6791,-17.1949,0.459476,0
35.7194,-17.1082,0.460257,0
35.7575,-17.0207,0.461019,0
35.7936,-16.9323,0.461761,0
35.8277,-16.8431,0.462474,0
35.8597,-16.7531,0.463157,0
35.8896,-16.6625,0.463821,0
35.9175,-16.5712,0.464466,0
35.9432,-16.4793,0.465091,0
35.9669,-16.3868,0.465677,0
35.9884,-16.2938,0.466243,0
36.0088,-16.2006,0.467083,0
36.0268,-16.1069,0.467913,0
36.0429,-16.0127,0.468714,0
36.0567,-15.9182,0.469486,0
36.0684,-15.8234,0.470237,0
36.078,-15.7284,0.47095,0
36.0853,-15.6331,0.471654,0
36.0905,-15.5377,0.472318,0
36.093,-15.4421,0.472786,0
36.0928,-15.3465,0.473079,0
36.0905,-15.251,0.473343,0
36.0859,-15.1555,0.473577,0
36.0791,-15.0602,0.473773,0
36.07,-14.965,0.473939,0
36.0589,-14.87,0.474046,0
36.0455,-14.7754,0.474144,0
36.0299,-14.6811,0.474193,0
36.0121,-14.5872,0.474212,0
35.9922,-14.4937,0.474183,0
35.9702,-14.4007,0.474134,0
35.9459,-14.3082,0.474046,0
35.9196,-14.2164,0.473919,0
35.8911,-14.1251,0.473763,0
31.1791,-19.577,0.418314,0
31.2762,-19.5927,0.419388,0
31.3737,-19.606,0.420433,0
31.4714,-19.6169,0.421468,0
31.5693,-19.6255,0.422474,0
31.6673,-19.6317,0.42347,0
31.7654,-19.6356,0.424437,0
31.8636,-19.6371,0.425384,0
31.9616,-19.6359,0.426243,0
32.0597,-19.6307,0.426536,0
32.1574,-19.6232,0.42682,0
32.2548,-19.6133,0.427093,0
32.352,-19.6012,0.427366,0
32.4486,-19.5869,0.42763,0
32.5448,-19.5702,0.427874,0
32.6405,-19.5514,0.428109,0
32.7356,-19.5303,0.428353,0
32.8302,-19.5072,0.428616,0
32.9245,-19.4837,0.429437,0
33.018,-19.4579,0.430247,0
33.111,-19.43,0.431048,0
33.2033,-19.3999,0.43182,0
33.2948,-19.3677,0.432581,0
33.3853,-19.3334,0.433343,0
33.475,-19.297,0.434075,0
33.5638,-19.2585,0.434798,0
33.6517,-19.218,0.435491,0
33.7384,-19.1755,0.436195,0
33.8242,-19.131,0.436859,0
33.9088,-19.0845,0.437513,0
33.9922,-19.0361,0.438157,0
34.0745,-18.9858,0.438773,0
34.1554,-18.9336,0.439378,0
34.2351,-18.8796,0.439964,0
34.3135,-18.8238,0.44053,0
34.3905,-18.7662,0.441077,0
34.4668,-18.7078,0.441976,0
34.5416,-18.6478,0.442874,0
34.6152,-18.5861,0.443773,0
34.6873,-18.5227,0.444652,0
34.7577,-18.4577,0.44553,0
34.8268,-18.3911,0.4464,0
34.8942,-18.3231,0.447249,0
34.9601,-18.2535,0.448099,0
35.0244,-18.1825,0.448929,0
35.087,-18.11,0.449749,0
35.1479,-18.0361,0.45056,0
35.207,-17.9609,0.451361,0
35.2645,-17.8845,0.452152,0
35.3204,-17.8069,0.453011,0
35.3746,-17.7282,0.453948,0
35.4271,-17.6483,0.454857,0
35.4778,-17.5672,0.455765,0
35.5265,-17.485,0.456634,0
35.5734,-17.4017,0.457493,0
35.6183,-17.3174,0.458323,0
35.6613,-17.2321,0.459134,0
35.7023,-17.1458,0.459935,0
35.7412,-17.0586,0.460696,0
35.7783,-16.9706,0.461448,0
35.8131,-16.8817,0.462161,0
35.8461,-16.7921,0.462864,0
35.877,-16.7017,0.463538,0
35.9056,-16.6107,0.464202,0
35.9323,-16.5191,0.464818,0
35.957,-16.4268,0.465423,0
35.9793,-16.3341,0.465999,0
36.0002,-16.2409,0.466722,0
36.0193,-16.1474,0.467552,0
36.0363,-16.0535,0.468362,0
36.051,-15.9591,0.469153,0
36.0636,-15.8645,0.469905,0
36.0741,-15.7695,0.470648,0
36.0824,-15.6743,0.471351,0
36.0885,-15.5789,0.472025,0
36.0923,-15.4834,0.47264,0
36.0931,-15.3879,0.472962,0
36.0917,-15.2923,0.473236,0
36.0881,-15.1967,0.47348,0
36.0823,-15.1014,0.473695,0
36.0742,-15.0061,0.47387,0
36.064,-14.9111,0.474007,0
36.0516,-14.8163,0.474105,0
36.037,-14.7218,0.474173,0
36.0201,-14.6277,0.474202,0
36.0011,-14.5341,0.474202,0
35.98,-14.4408,0.474163,0
35.9567,-14.3481,0.474095,0
35.9312,-14.256,0.473968,0
35.9037,-14.1645,0.473831,0
35.8741,-14.0736,0.473646,0
31.1866,-19.4669,0.417347,0
31.2812,-19.4825,0.418382,0
31.3761,-19.4958,0.419417,0
31.4712,-19.5068,0.420423,0
31.5666,-19.5155,0.421409,0
31.662,-19.522,0.422376,0
31.7577,-19.5261,0.423323,0
31.8533,-19.5279,0.424241,0
31.9488,-19.5274,0.42515,0
32.0443,-19.5245,0.426019,0
32.1397,-19.518,0.426429,0
32.2347,-19.5088,0.426702,0
32.3294,-19.4974,0.426966,0
32.4237,-19.4838,0.42722,0
32.5176,-19.468,0.427464,0
32.6109,-19.45,0.427698,0
32.7038,-19.4299,0.427933,0
32.796,-19.4076,0.428157,0
32.8879,-19.3844,0.428773,0
32.9793,-19.3597,0.429564,0
33.0701,-19.3328,0.430345,0
33.1601,-19.3039,0.431107,0
33.2494,-19.2728,0.431859,0
33.3379,-19.2397,0.432591,0
33.4255,-19.2045,0.433314,0
33.5122,-19.1673,0.434017,0
33.598,-19.1282,0.4347,0
33.6828,-19.087,0.435384,0
33.7665,-19.0439,0.436038,0
33.8492,-18.9989,0.436683,0
33.9307,-18.9521,0.437308,0
34.0112,-18.9033,0.437913,0
34.0903,-18.8527,0.438499,0
34.1682,-18.8004,0.439075,0
34.2451,-18.7465,0.439749,0
34.3211,-18.6916,0.440648,0
34.3956,-18.6349,0.441527,0
34.469,-18.5765,0.442415,0
34.5409,-18.5166,0.443284,0
34.6114,-18.455,0.444144,0
34.6804,-18.3918,0.445013,0
34.748,-18.3271,0.445853,0
34.8141,-18.2609,0.446683,0
34.8785,-18.1933,0.447513,0
34.9415,-18.1242,0.448333,0
35.0028,-18.0537,0.449134,0
35.0624,-17.9818,0.449925,0
35.1204,-17.9087,0.450706,0
35.1767,-17.8342,0.451478,0
35.2313,-17.7585,0.45223,0
35.2841,-17.6816,0.452972,0
35.3355,-17.6038,0.453841,0
35.3852,-17.5249,0.45471,0
35.4329,-17.4449,0.455579,0
35.4789,-17.3638,0.456419,0
35.523,-17.2816,0.45723,0
35.5652,-17.1986,0.45803,0
35.6055,-17.1145,0.458802,0
35.6437,-17.0296,0.459554,0
35.6801,-16.9438,0.460286,0
35.7145,-16.8572,0.460989,0
35.7469,-16.7699,0.461683,0
35.7773,-16.6819,0.462347,0
35.8056,-16.5931,0.462982,0
35.832,-16.5038,0.463597,0
35.8561,-16.4139,0.464193,0
35.8783,-16.3235,0.464759,0
35.899,-16.2327,0.465501,0
35.9179,-16.1415,0.466312,0
35.9347,-16.0499,0.467103,0
35.9494,-15.9579,0.467874,0
35.962,-15.8656,0.468616,0
35.9725,-15.773,0.469329,0
35.9809,-15.6802,0.470023,0
35.987,-15.5872,0.470648,0
35.9901,-15.494,0.470989,0
35.9912,-15.4008,0.471312,0
35.9901,-15.3075,0.471585,0
35.9869,-15.2144,0.471829,0
35.9814,-15.1213,0.472034,0
35.9739,-15.0284,0.47221,0
35.9642,-14.9357,0.472357,0
35.9524,-14.8432,0.472454,0
35.9384,-14.751,0.472523,0
35.9223,-14.6592,0.472562,0
35.9041,-14.5678,0.472571,0
35.8838,-14.4768,0.472532,0
35.8613,-14.3863,0.472464,0
35.8368,-14.2964,0.472357,0
35.8102,-14.207,0.47222,0
35.7816,-14.1183,0.472044,0
31.2402,-19.476,0.417943,0
31.335,-19.4903,0.418968,0
31.4301,-19.5023,0.419984,0
31.5253,-19.5121,0.42098,0
31.6207,-19.5195,0.421956,0
31.7163,-19.5246,0.422913,0
31.812,-19.5274,0.423841,0
31.9076,-19.5279,0.424759,0
32.003,-19.526,0.425657,0
32.0985,-19.5212,0.426302,0
32.1937,-19.5131,0.426585,0
32.2884,-19.5026,0.426849,0
32.383,-19.49,0.427112,0
32.477,-19.4751,0.427366,0
32.5706,-19.458,0.427601,0
32.6637,-19.4388,0.427835,0
32.7562,-19.4175,0.42806,0
32.8483,-19.3945,0.428431,0
32.9398,-19.3707,0.429232,0
33.0309,-19.3447,0.430013,0
33.1213,-19.3166,0.430784,0
33.2109,-19.2865,0.431536,0
33.2998,-19.2542,0.432269,0
33.3877,-19.22,0.433001,0
33.4749,-19.1837,0.433714,0
33.5611,-19.1453,0.434407,0
33.6462,-19.1051,0.435091,0
33.7305,-19.0628,0.435745,0
33.8137,-19.0186,0.436409,0
33.8957,-18.9725,0.437034,0
33.9766,-18.9246,0.437659,0
34.0562,-18.8748,0.438255,0
34.1347,-18.8232,0.438841,0
34.2119,-18.7699,0.439398,0
34.2884,-18.7155,0.440267,0
34.3636,-18.6596,0.441155,0
34.4375,-18.602,0.442034,0
34.5099,-18.5427,0.442904,0
34.5811,-18.4818,0.443773,0
34.6508,-18.4193,0.444632,0
34.719,-18.3553,0.445482,0
34.7856,-18.2897,0.446321,0
34.8509,-18.2227,0.447152,0
34.9145,-18.1542,0.447972,0
34.9765,-18.0843,0.448782,0
35.0369,-18.013,0.449583,0
35.0955,-17.9404,0.450374,0
35.1526,-17.8666,0.451146,0
35.208,-17.7914,0.451907,0
35.2615,-17.715,0.452659,0
35.3134,-17.6376,0.45346,0
35.3638,-17.5591,0.454339,0
35.4125,-17.4796,0.455208,0
35.4592,-17.399,0.456058,0
35.5041,-17.3173,0.456878,0
35.5472,-17.2346,0.457689,0
35.5883,-17.1509,0.45847,0
35.6274,-17.0664,0.459232,0
35.6646,-16.981,0.459974,0
35.6999,-16.8948,0.460696,0
35.7331,-16.8078,0.46139,0
35.7644,-16.72,0.462064,0
35.7936,-16.6316,0.462718,0
35.8208,-16.5425,0.463333,0
35.8459,-16.4529,0.463939,0
35.8689,-16.3627,0.464515,0
35.8902,-16.272,0.46513,0
35.9099,-16.181,0.46596,0
35.9277,-16.0896,0.466771,0
35.9433,-15.9977,0.467542,0
35.9568,-15.9056,0.468294,0
35.9682,-15.8131,0.469027,0
35.9774,-15.7204,0.469739,0
35.9846,-15.6274,0.470413,0
35.989,-15.5343,0.470843,0
35.991,-15.4411,0.471175,0
35.9909,-15.3478,0.471468,0
35.9885,-15.2546,0.471722,0
35.9841,-15.1615,0.471956,0
35.9774,-15.0685,0.472142,0
35.9687,-14.9757,0.472298,0
35.9577,-14.8831,0.472415,0
35.9447,-14.7908,0.472493,0
35.9295,-14.6988,0.472552,0
35.9122,-14.6072,0.472562,0
35.8927,-14.5161,0.472542,0
35.8713,-14.4254,0.472493,0
35.8476,-14.3352,0.472405,0
35.822,-14.2456,0.472288,0
35.7941,-14.1566,0.472122,0
31.1995,-19.4691,0.417484,0
31.294,-19.4844,0.418528,0
31.3889,-19.4974,0.419554,0
31.4841,-19.5081,0.42055,0
31.5795,-19.5166,0.421546,0
31.6749,-19.5226,0.422503,0
31.7705,-19.5264,0.42345,0
31.8662,-19.5279,0.424368,0
31.9617,-19.5271,0.425267,0
32.0573,-19.524,0.426146,0
32.1526,-19.5169,0.426468,0
32.2475,-19.5074,0.426732,0
32.3422,-19.4957,0.426995,0
32.4365,-19.4818,0.427249,0
32.5302,-19.4657,0.427503,0
32.6235,-19.4474,0.427738,0
32.7163,-19.427,0.427962,0
32.8084,-19.4044,0.428187,0
32.9004,-19.3812,0.42889,0
32.9916,-19.3562,0.429681,0
33.0823,-19.329,0.430452,0
33.1723,-19.2998,0.431204,0
33.2614,-19.2684,0.431956,0
33.3498,-19.235,0.432689,0
33.4373,-19.1996,0.433402,0
33.5239,-19.1622,0.434114,0
33.6095,-19.1227,0.434798,0
33.6942,-19.0813,0.435472,0
33.7778,-19.0379,0.436126,0
33.8603,-18.9927,0.436771,0
33.9417,-18.9455,0.437386,0
34.022,-18.8966,0.438001,0
34.1009,-18.8458,0.438587,0
34.1787,-18.7931,0.439154,0
34.2555,-18.7392,0.439876,0
34.3312,-18.684,0.440765,0
34.4056,-18.6271,0.441654,0
34.4787,-18.5685,0.442532,0
34.5505,-18.5083,0.443402,0
34.6209,-18.4465,0.444261,0
34.6897,-18.3832,0.44512,0
34.757,-18.3182,0.44597,0
34.8229,-18.2518,0.44679,0
34.8871,-18.184,0.44762,0
34.9498,-18.1147,0.448441,0
35.0109,-18.044,0.449232,0
35.0703,-17.972,0.450032,0
35.1282,-17.8987,0.450814,0
35.1842,-17.824,0.451585,0
35.2386,-17.7482,0.452327,0
35.2911,-17.6711,0.453079,0
35.3423,-17.5932,0.453958,0
35.3917,-17.5141,0.454827,0
35.4393,-17.4339,0.455687,0
35.4849,-17.3527,0.456527,0
35.5288,-17.2704,0.457337,0
35.5708,-17.1872,0.458128,0
35.6107,-17.1031,0.458909,0
35.6488,-17.018,0.459661,0
35.6849,-16.9321,0.460384,0
35.719,-16.8454,0.461087,0
35.7511,-16.758,0.461771,0
35.7812,-16.6699,0.462425,0
35.8093,-16.5811,0.46307,0
35.8353,-16.4917,0.463675,0
35.8592,-16.4017,0.464261,0
35.8812,-16.3112,0.464827,0
35.9016,-16.2204,0.465618,0
35.9203,-16.1291,0.466419,0
35.9368,-16.0375,0.46722,0
35.9512,-15.9454,0.467972,0
35.9635,-15.8531,0.468714,0
35.9738,-15.7604,0.469427,0
35.9818,-15.6676,0.47012,0
35.9875,-15.5745,0.470696,0
35.9904,-15.4814,0.471038,0
35.9912,-15.3881,0.471341,0
35.9898,-15.2949,0.471614,0
35.9862,-15.2018,0.471859,0
35.9806,-15.1087,0.472064,0
35.9727,-15.0158,0.472239,0
35.9627,-14.9231,0.472366,0
35.9506,-14.8307,0.472474,0
35.9363,-14.7386,0.472532,0
35.92,-14.6468,0.472562,0
35.9014,-14.5554,0.472562,0
35.8809,-14.4645,0.472523,0
35.8581,-14.3741,0.472445,0
35.8333,-14.2842,0.472337,0
35.8064,-14.195,0.4722,0
35.7775,-14.1063,0.472015,0
31.2062,-19.364,0.416556,0
31.2984,-19.3793,0.417571,0
31.3909,-19.3923,0.418568,0
31.4837,-19.4031,0.419554,0
31.5766,-19.4116,0.420521,0
31.6697,-19.4179,0.421458,0
31.7629,-19.422,0.422386,0
31.856,-19.4238,0.423284,0
31.9492,-19.4233,0.424163,0
32.0423,-19.4206,0.425023,0
32.1353,-19.4157,0.425862,0
32.228,-19.4076,0.426361,0
32.3204,-19.3965,0.426614,0
32.4124,-19.3834,0.426859,0
32.5039,-19.3681,0.427112,0
32.5951,-19.3506,0.427337,0
32.6856,-19.3311,0.427562,0
32.7756,-19.3094,0.427777,0
32.8652,-19.2865,0.428255,0
32.9545,-19.2624,0.429027,0
33.043,-19.2363,0.429779,0
33.1308,-19.2081,0.43053,0
33.2179,-19.1778,0.431253,0
33.3042,-19.1456,0.431976,0
33.3897,-19.1113,0.432679,0
33.4744,-19.0751,0.433362,0
33.558,-19.0369,0.434036,0
33.6408,-18.9969,0.4347,0
33.7225,-18.9549,0.435335,0
33.8031,-18.911,0.43597,0
33.8828,-18.8653,0.436575,0
33.9612,-18.8179,0.437171,0
34.0384,-18.7686,0.437747,0
34.1151,-18.7183,0.438607,0
34.1904,-18.6663,0.439486,0
34.2646,-18.6127,0.440364,0
34.3374,-18.5574,0.441224,0
34.4091,-18.5005,0.442083,0
34.4792,-18.442,0.442933,0
34.548,-18.3819,0.443773,0
34.6155,-18.3203,0.444613,0
34.6815,-18.2572,0.445443,0
34.746,-18.1926,0.446263,0
34.809,-18.1266,0.447064,0
34.8704,-18.0591,0.447855,0
34.9302,-17.9903,0.448646,0
34.9885,-17.9202,0.449417,0
35.0452,-17.8488,0.450179,0
35.1002,-17.7762,0.450931,0
35.1534,-17.7023,0.451673,0
35.205,-17.6272,0.452396,0
35.2548,-17.5511,0.453109,0
35.303,-17.4739,0.453841,0
35.3496,-17.3958,0.454681,0
35.3945,-17.3166,0.455491,0
35.4375,-17.2365,0.456302,0
35.4787,-17.1554,0.457064,0
35.518,-17.0734,0.457835,0
35.5555,-16.9905,0.458558,0
35.5909,-16.9068,0.459271,0
35.6245,-16.8223,0.459964,0
35.6561,-16.737,0.460638,0
35.6858,-16.6511,0.461282,0
35.7135,-16.5645,0.461907,0
35.7391,-16.4773,0.462513,0
35.7628,-16.3896,0.463079,0
35.7845,-16.3013,0.463636,0
35.8048,-16.2128,0.464437,0
35.8233,-16.1238,0.465228,0
35.8396,-16.0343,0.465999,0
35.8539,-15.9446,0.466751,0
35.8662,-15.8545,0.467474,0
35.8764,-15.7641,0.468177,0
35.8843,-15.6734,0.468753,0
35.8895,-15.5826,0.469124,0
35.8927,-15.4917,0.469456,0
35.8937,-15.4007,0.469759,0
35.8927,-15.3098,0.470042,0
35.8895,-15.2188,0.470267,0
35.8842,-15.128,0.470482,0
35.8769,-15.0374,0.470648,0
35.8674,-14.9469,0.470784,0
35.8559,-14.8567,0.470892,0
35.8422,-14.7667,0.47096,0
35.8265,-14.6771,0.470989,0
35.8087,-14.5879,0.470989,0
35.7889,-14.4991,0.47095,0
35.767,-14.4108,0.470882,0
35.743,-14.3231,0.470784,0
35.7171,-14.2359,0.470657,0
35.6891,-14.1493,0.470491,0
31.2585,-19.373,0.417142,0
31.3509,-19.3869,0.418148,0
31.4435,-19.3987,0.419134,0
31.5363,-19.4082,0.420101,0
31.6294,-19.4155,0.421048,0
31.7226,-19.4205,0.421986,0
31.8158,-19.4232,0.422894,0
31.909,-19.4238,0.423782,0
32.0021,-19.422,0.424652,0
32.0952,-19.4181,0.425501,0
32.188,-19.4116,0.426243,0
32.2805,-19.4016,0.426507,0
32.3727,-19.3893,0.426751,0
32.4645,-19.3749,0.427005,0
32.5557,-19.3584,0.427239,0
32.6466,-19.3398,0.427464,0
32.7368,-19.319,0.427689,0
32.8265,-19.2963,0.427913,0
32.9159,-19.2731,0.428695,0
33.0047,-19.2478,0.429456,0
33.0928,-19.2205,0.430208,0
33.1803,-19.1911,0.430941,0
33.267,-19.1598,0.431663,0
33.3528,-19.1264,0.432376,0
33.4379,-19.091,0.43307,0
