56.7543,-51.6616,-0.882844,0
56.7782,-51.5353,-0.890417,0
56.7984,-51.4087,-0.897746,0
56.8156,-51.282,-0.904748,0
56.8298,-51.1552,-0.911432,0
56.8409,-51.0285,-0.917795,0
56.8488,-50.9019,-0.923835,0
56.8581,-50.7762,-0.928971,0
56.8653,-50.6506,-0.933688,0
56.8695,-50.5251,-0.938097,0
56.8707,-50.3998,-0.942184,0
56.8689,-50.2747,-0.945949,0
56.8642,-50.1499,-0.949401,0
56.8566,-50.0255,-0.952541,0
56.846,-49.9015,-0.955363,0
49.22,-54.567,-0.099948,0
49.3206,-54.6426,-0.10465,0
50.8415,-55.2019,-0.201027,0
50.9651,-55.2234,-0.212878,0
51.0892,-55.2423,-0.224782,0
51.2138,-55.2584,-0.236696,0
51.3388,-55.2718,-0.248649,0
51.4642,-55.2824,-0.260602,0
51.5899,-55.2902,-0.27258,0
51.7159,-55.2953,-0.284557,0
51.842,-55.2976,-0.296535,0
51.9683,-55.2971,-0.308522,0
52.0947,-55.2938,-0.32049,0
52.2211,-55.2877,-0.332443,0
52.3475,-55.2788,-0.344372,0
52.4737,-55.2671,-0.356286,0
52.5998,-55.2517,-0.368361,0
52.7237,-55.2254,-0.382302,0
52.847,-55.1964,-0.396159,0
52.9696,-55.1648,-0.409914,0
53.0913,-55.1304,-0.423556,0
53.2123,-55.0934,-0.437087,0
53.3325,-55.0538,-0.450514,0
53.4556,-55.0219,-0.461418,0
53.5801,-54.9917,-0.471222,0
53.7039,-54.9579,-0.48112,0
53.8271,-54.9207,-0.491095,0
53.9494,-54.88,-0.501149,0
54.0707,-54.8358,-0.511276,0
54.191,-54.7882,-0.521442,0
54.3101,-54.737,-0.531672,0
54.4279,-54.6825,-0.54194,0
54.5443,-54.6245,-0.552243,0
54.6592,-54.5631,-0.56256,0
54.7725,-54.4985,-0.572897,0
54.884,-54.4305,-0.583234,0
54.9937,-54.3593,-0.593566,0
55.0945,-54.2765,-0.605856,0
55.1823,-54.1789,-0.620959,0
55.2676,-54.0796,-0.635778,0
55.3502,-53.9786,-0.650319,0
55.4302,-53.8761,-0.664577,0
55.5074,-53.7721,-0.678552,0
55.5821,-53.6667,-0.692214,0
55.6539,-53.5599,-0.705583,0
55.723,-53.4518,-0.718659,0
55.7902,-53.3431,-0.731266,0
55.8615,-53.2385,-0.74216,0
55.9304,-53.1324,-0.75277,0
55.9968,-53.025,-0.763078,0
56.0608,-52.9164,-0.773088,0
56.1223,-52.8065,-0.7828,0
56.1812,-52.6955,-0.792204,0
56.2377,-52.5834,-0.801301,0
56.2916,-52.4702,-0.810085,0
56.343,-52.356,-0.818547,0
56.3919,-52.2409,-0.826701,0
56.4382,-52.1249,-0.834543,0
56.482,-52.008,-0.842053,0
56.523,-51.8903,-0.849255,0
56.5534,-51.7691,-0.85736,0
56.5805,-51.6473,-0.865197,0
56.6047,-51.5252,-0.872731,0
56.6258,-51.4029,-0.879972,0
56.6439,-51.2804,-0.886886,0
56.6591,-51.1579,-0.893503,0
56.6712,-51.0353,-0.899811,0
56.6804,-50.9128,-0.905807,0
56.6902,-50.7911,-0.910978,0
56.6984,-50.6695,-0.91568,0
56.7038,-50.548,-0.920075,0
56.7062,-50.4266,-0.924172,0
56.7057,-50.3054,-0.927946,0
56.7024,-50.1844,-0.931432,0
56.6962,-50.0638,-0.934596,0
56.6873,-49.9436,-0.937468,0
49.3546,-54.4861,-0.107956,0
49.454,-54.5578,-0.112614,0
49.5552,-54.6278,-0.117399,0
49.6585,-54.696,-0.122297,0
49.7636,-54.7623,-0.127326,0
49.8705,-54.8266,-0.132463,0
49.9794,-54.8889,-0.137721,0
50.09,-54.9492,-0.143093,0
50.2046,-54.9992,-0.150973,0
50.3212,-55.044,-0.159772,0
50.4391,-55.0863,-0.168693,0
50.5583,-55.126,-0.177731,0
50.6785,-55.1631,-0.186887,0
50.8004,-55.1941,-0.197072,0
50.9238,-55.2166,-0.208923,0
51.0477,-55.2363,-0.220807,0
51.1722,-55.2533,-0.232721,0
51.2971,-55.2676,-0.244655,0
51.4223,-55.2792,-0.256608,0
51.5479,-55.2879,-0.268581,0
51.6737,-55.2939,-0.280558,0
51.7999,-55.2972,-0.292541,0
51.9261,-55.2976,-0.304518,0
52.0525,-55.2953,-0.316491,0
52.1789,-55.2901,-0.328459,0
52.3053,-55.2821,-0.340397,0
52.4316,-55.2713,-0.352316,0
52.5579,-55.2577,-0.364206,0
52.6825,-55.2345,-0.377663,0
52.806,-55.2064,-0.39154,0
52.9288,-55.1756,-0.405334,0
53.0509,-55.1422,-0.419015,0
53.1721,-55.1061,-0.43259,0
53.2924,-55.0673,-0.446042,0
53.4139,-55.0312,-0.458171,0
53.5386,-55.0021,-0.467941,0
53.6627,-54.9696,-0.477814,0
53.7861,-54.9335,-0.487765,0
53.9087,-54.894,-0.49779,0
54.0303,-54.851,-0.507892,0
54.151,-54.8044,-0.518044,0
54.2705,-54.7545,-0.528263,0
54.3887,-54.701,-0.538517,0
54.5056,-54.6442,-0.548805,0
54.6211,-54.584,-0.559113,0
54.7348,-54.5204,-0.569445,0
54.847,-54.4536,-0.579782,0
54.9573,-54.3834,-0.590119,0
55.0645,-54.3087,-0.600759,0
55.1533,-54.2117,-0.615954,0
55.2395,-54.1129,-0.630871,0
55.323,-54.0125,-0.645505,0
55.4038,-53.9105,-0.659855,0
55.482,-53.807,-0.673913,0
55.5574,-53.702,-0.687687,0
55.6302,-53.5956,-0.701159,0
55.7003,-53.488,-0.714328,0
55.7677,-53.3792,-0.727194,0
55.838,-53.2735,-0.738561,0
55.9077,-53.168,-0.749264,0
55.9749,-53.061,-0.759675,0
56.0398,-52.9528,-0.769782,0
56.102,-52.8433,-0.779592,0
56.1619,-52.7327,-0.789094,0
56.2191,-52.6209,-0.798293,0
56.2739,-52.5081,-0.807184,0
56.3262,-52.3942,-0.815759,0
56.3759,-52.2794,-0.82402,0
56.423,-52.1637,-0.831955,0
56.4676,-52.0471,-0.839582,0
56.5096,-51.9297,-0.846882,0
56.5437,-51.8096,-0.854675,0
56.5718,-51.688,-0.862619,0
56.597,-51.566,-0.870256,0
56.6191,-51.4437,-0.87759,0
56.6382,-51.3213,-0.884621,0
56.6543,-51.1988,-0.89134,0
56.6675,-51.0762,-0.897741,0
56.6776,-50.9537,-0.903845,0
56.6869,-50.8316,-0.909338,0
56.6961,-50.7101,-0.914147,0
56.7023,-50.5885,-0.918639,0
56.7057,-50.4671,-0.922834,0
56.7062,-50.3458,-0.926725,0
56.7038,-50.2248,-0.930304,0
56.6986,-50.104,-0.933581,0
56.6906,-49.9837,-0.936545,0
56.6798,-49.8638,-0.939206,0
49.322,-54.4617,-0.106428,0
49.4206,-54.5341,-0.111052,0
49.5212,-54.6047,-0.115793,0
49.6239,-54.6735,-0.120656,0
49.7283,-54.7404,-0.125632,0
49.8347,-54.8053,-0.130739,0
49.9429,-54.8683,-0.135949,0
50.0529,-54.9293,-0.141286,0
50.1659,-54.9837,-0.148063,0
50.2822,-55.0293,-0.156823,0
50.3996,-55.0725,-0.1657,0
50.5184,-55.1131,-0.174709,0
50.6383,-55.151,-0.183825,0
50.7594,-55.186,-0.193122,0
50.8826,-55.2094,-0.204968,0
51.0063,-55.23,-0.216833,0
51.1306,-55.248,-0.228737,0
51.2553,-55.2632,-0.240666,0
51.3805,-55.2756,-0.252619,0
51.506,-55.2853,-0.264592,0
51.6318,-55.2923,-0.276564,0
51.7577,-55.2964,-0.288542,0
51.884,-55.2978,-0.300524,0
52.0103,-55.2963,-0.312502,0
52.1367,-55.2921,-0.324465,0
52.2631,-55.2851,-0.336413,0
52.3895,-55.2752,-0.348346,0
52.5158,-55.2625,-0.360241,0
52.6411,-55.2433,-0.37301,0
52.7648,-55.2161,-0.386926,0
52.8879,-55.1862,-0.400744,0
53.0102,-55.1536,-0.41446,0
53.1317,-55.1184,-0.428068,0
53.2524,-55.0805,-0.441574,0
53.3722,-55.0401,-0.454928,0
53.497,-55.0122,-0.464675,0
53.6213,-54.9808,-0.474509,0
53.745,-54.946,-0.48443,0
53.8679,-54.9076,-0.494435,0
53.9898,-54.8657,-0.504518,0
54.1108,-54.8204,-0.51465,0
54.2308,-54.7715,-0.524845,0
54.3495,-54.7193,-0.535085,0
54.4668,-54.6635,-0.545368,0
54.5827,-54.6045,-0.555671,0
54.6971,-54.542,-0.565998,0
54.8098,-54.4762,-0.576335,0
54.9207,-54.4072,-0.586677,0
55.0297,-54.3349,-0.596994,0
55.124,-54.2443,-0.610915,0
55.211,-54.1461,-0.625915,0
55.2954,-54.0462,-0.640646,0
55.3772,-53.9447,-0.655104,0
55.4562,-53.8417,-0.66926,0
55.5326,-53.7372,-0.683127,0
55.6062,-53.6313,-0.696701,0
55.6773,-53.5241,-0.709972,0
55.7455,-53.4156,-0.722931,0
55.8142,-53.3085,-0.734928,0
55.8847,-53.2033,-0.745729,0
55.9527,-53.0968,-0.756237,0
56.0184,-52.989,-0.766442,0
56.0815,-52.88,-0.776354,0
56.1421,-52.7697,-0.785964,0
56.2003,-52.6584,-0.795265,0
56.2559,-52.5459,-0.804255,0
56.3091,-52.4323,-0.812936,0
56.3595,-52.3178,-0.821296,0
56.4076,-52.2024,-0.829347,0
56.453,-52.0861,-0.837077,0
56.4959,-51.969,-0.844484,0
56.5336,-51.8501,-0.851965,0
56.5627,-51.7286,-0.859997,0
56.5889,-51.6067,-0.867741,0
56.612,-51.4846,-0.875182,0
56.6322,-51.3622,-0.882306,0
56.6493,-51.2397,-0.889133,0
56.6634,-51.1171,-0.895641,0
56.6746,-50.9946,-0.901843,0
56.6832,-50.8722,-0.907673,0
56.6933,-50.7506,-0.91258,0
56.7005,-50.6291,-0.917175,0
56.7048,-50.5076,-0.921471,0
56.7063,-50.3862,-0.925461,0
56.7049,-50.2651,-0.929142,0
56.7006,-50.1443,-0.932521,0
56.6936,-50.0238,-0.935583,0
56.6837,-49.9037,-0.938356,0
49.2895,-54.4372,-0.104909,0
49.3874,-54.5101,-0.109499,0
50.8653,-55.0529,-0.202702,0
50.9852,-55.0751,-0.213859,0
51.1059,-55.0934,-0.225417,0
51.227,-55.1089,-0.237004,0
51.3485,-55.1218,-0.24861,0
51.4703,-55.132,-0.260231,0
51.5924,-55.1395,-0.271867,0
51.7148,-55.1443,-0.283508,0
51.8373,-55.1464,-0.295153,0
51.9601,-55.1458,-0.306789,0
52.0829,-55.1425,-0.31841,0
52.2057,-55.1364,-0.330021,0
52.3284,-55.1276,-0.341618,0
52.4512,-55.116,-0.353185,0
52.5737,-55.1017,-0.364719,0
52.6944,-55.0773,-0.378024,0
52.8142,-55.0492,-0.391491,0
52.9334,-55.0185,-0.404855,0
53.0517,-54.9851,-0.418122,0
53.1692,-54.9492,-0.431276,0
53.286,-54.9107,-0.444318,0
53.4019,-54.8697,-0.457248,0
53.5167,-54.8261,-0.470051,0
53.6306,-54.78,-0.482726,0
53.7491,-54.7434,-0.492404,0
53.8668,-54.7038,-0.502096,0
53.9836,-54.6608,-0.511852,0
54.0993,-54.6144,-0.521662,0
54.2139,-54.5648,-0.531525,0
54.3273,-54.5119,-0.541418,0
54.4393,-54.4557,-0.55134,0
54.5498,-54.3963,-0.561286,0
54.6587,-54.3337,-0.571242,0
54.7661,-54.2679,-0.581198,0
54.8716,-54.1991,-0.591149,0
54.9752,-54.1272,-0.601081,0
55.0739,-54.0489,-0.611833,0
55.157,-53.9531,-0.626227,0
55.2373,-53.8556,-0.640353,0
55.3152,-53.7567,-0.654206,0
55.3905,-53.6562,-0.667785,0
55.4633,-53.5544,-0.681076,0
55.5334,-53.4512,-0.694079,0
55.6012,-53.3471,-0.706706,0
55.673,-53.247,-0.717595,0
55.7425,-53.1454,-0.728205,0
55.8096,-53.0425,-0.738527,0
55.8743,-52.9384,-0.748566,0
55.9366,-52.8329,-0.758322,0
55.9966,-52.7263,-0.767775,0
56.0541,-52.6185,-0.77693,0
56.1091,-52.5097,-0.785788,0
56.1617,-52.3998,-0.794343,0
56.2119,-52.2889,-0.802594,0
56.2595,-52.1771,-0.810544,0
56.3004,-52.0625,-0.818893,0
56.3359,-51.9462,-0.82738,0
56.3684,-51.8293,-0.835588,0
56.3982,-51.712,-0.843508,0
56.4248,-51.5942,-0.851135,0
56.4486,-51.4762,-0.858469,0
56.4695,-51.3578,-0.865514,0
56.4874,-51.2393,-0.872258,0
56.5025,-51.1207,-0.878703,0
56.5148,-51.0021,-0.884855,0
56.524,-50.8835,-0.890695,0
56.535,-50.7658,-0.895578,0
56.5432,-50.648,-0.900168,0
56.5487,-50.5302,-0.90445,0
56.5513,-50.4126,-0.908454,0
56.5512,-50.2951,-0.912145,0
56.5482,-50.1779,-0.915544,0
56.5426,-50.061,-0.918644,0
56.5341,-49.9444,-0.921462,0
49.4188,-54.3613,-0.11259,0
49.5156,-54.4306,-0.11714,0
49.6144,-54.4982,-0.121799,0
49.7149,-54.5639,-0.126589,0
49.8173,-54.6278,-0.131481,0
49.9215,-54.6898,-0.136496,0
50.0274,-54.7497,-0.141618,0
50.1355,-54.8061,-0.14735,0
50.2477,-54.8518,-0.155778,0
50.3609,-54.895,-0.164328,0
50.4755,-54.9357,-0.172995,0
50.5912,-54.9739,-0.181779,0
50.708,-55.0095,-0.190676,0
50.8258,-55.0425,-0.199679,0
50.9452,-55.0685,-0.210007,0
51.0656,-55.0876,-0.221559,0
51.1866,-55.104,-0.233132,0
51.3079,-55.1178,-0.244738,0
51.4296,-55.1289,-0.256359,0
51.5517,-55.1373,-0.267985,0
51.674,-55.143,-0.279621,0
51.7965,-55.146,-0.291266,0
51.9191,-55.1463,-0.302907,0
52.042,-55.1439,-0.314533,0
52.1648,-55.1387,-0.326149,0
52.2875,-55.1308,-0.337751,0
52.4102,-55.1202,-0.349323,0
52.5328,-55.1068,-0.360871,0
52.6542,-55.0861,-0.373512,0
52.7743,-55.0588,-0.387004,0
52.8937,-55.029,-0.400402,0
53.0123,-54.9965,-0.413703,0
53.1301,-54.9615,-0.426896,0
53.2471,-54.9238,-0.439987,0
53.3633,-54.8837,-0.452941,0
53.4785,-54.8409,-0.465798,0
53.5927,-54.7956,-0.478508,0
53.7096,-54.7559,-0.489181,0
53.8276,-54.7174,-0.498859,0
53.9447,-54.6755,-0.508595,0
54.0608,-54.6303,-0.518386,0
54.1759,-54.5817,-0.528224,0
54.2896,-54.5299,-0.538117,0
54.4021,-54.4748,-0.548024,0
54.5131,-54.4164,-0.55797,0
54.6226,-54.3549,-0.567917,0
54.7305,-54.2902,-0.577878,0
54.8366,-54.2224,-0.587839,0
54.9409,-54.1515,-0.597775,0
55.0431,-54.0776,-0.607692,0
55.1295,-53.9852,-0.621457,0
55.2109,-53.8883,-0.635676,0
55.2895,-53.7899,-0.649616,0
55.3657,-53.6899,-0.663288,0
55.4393,-53.5885,-0.676681,0
55.5103,-53.4858,-0.689777,0
55.5786,-53.3818,-0.70258,0
55.6493,-53.2805,-0.713991,0
55.7196,-53.1795,-0.724694,0
55.7874,-53.077,-0.735114,0
55.853,-52.9733,-0.745256,0
55.9162,-52.8682,-0.755099,0
55.9769,-52.762,-0.764655,0
56.0352,-52.6546,-0.773913,0
56.091,-52.5461,-0.782868,0
56.1445,-52.4365,-0.79153,0
56.1954,-52.326,-0.799875,0
56.2438,-52.2145,-0.807931,0
56.2879,-52.1012,-0.816003,0
56.3244,-51.9851,-0.824582,0
56.358,-51.8684,-0.832873,0
56.3886,-51.7512,-0.840895,0
56.4162,-51.6336,-0.84862,0
56.441,-51.5156,-0.856052,0
56.4629,-51.3973,-0.863195,0
56.4818,-51.2789,-0.870031,0
56.4978,-51.1603,-0.876584,0
56.5109,-51.0417,-0.882834,0
56.5212,-50.9231,-0.888786,0
56.5316,-50.8051,-0.893981,0
56.5408,-50.6873,-0.898664,0
56.5472,-50.5695,-0.903054,0
56.5508,-50.4518,-0.90714,0
56.5516,-50.3343,-0.910939,0
56.5495,-50.217,-0.914445,0
56.5448,-50.1,-0.917648,0
56.5372,-49.9833,-0.920554,0
56.527,-49.867,-0.923166,0
49.3869,-54.3378,-0.111096,0
49.4831,-54.4077,-0.115607,0
49.5812,-54.4758,-0.120231,0
49.6812,-54.5422,-0.124972,0
49.7829,-54.6067,-0.129841,0
49.8865,-54.6693,-0.134811,0
49.9918,-54.7299,-0.139899,0
50.099,-54.7886,-0.145095,0
50.2101,-54.8368,-0.152951,0
50.323,-54.8809,-0.161452,0
50.4371,-54.9224,-0.170085,0
50.5524,-54.9614,-0.178835,0
50.6688,-54.9979,-0.187687,0
50.7863,-55.0318,-0.196662,0
50.905,-55.0615,-0.206159,0
51.0253,-55.0815,-0.217702,0
51.1462,-55.0988,-0.229269,0
51.2673,-55.1135,-0.240856,0
51.389,-55.1255,-0.252472,0
51.5109,-55.1348,-0.264103,0
51.6331,-55.1414,-0.275739,0
51.7555,-55.1453,-0.28738,0
51.8781,-55.1465,-0.299015,0
52.0009,-55.145,-0.310651,0
52.1237,-55.1408,-0.322277,0
52.2466,-55.1338,-0.333884,0
52.3693,-55.124,-0.345461,0
52.492,-55.1116,-0.357023,0
52.6141,-55.0945,-0.368991,0
52.7343,-55.0682,-0.382512,0
52.8539,-55.0392,-0.395939,0
52.9727,-55.0077,-0.409274,0
53.0909,-54.9735,-0.422507,0
53.2082,-54.9367,-0.435627,0
53.3246,-54.8973,-0.448635,0
53.4402,-54.8554,-0.46152,0
53.5548,-54.811,-0.474284,0
53.67,-54.7681,-0.485973,0
53.7884,-54.7306,-0.495617,0
53.9057,-54.6898,-0.505334,0
54.0222,-54.6457,-0.515114,0
54.1376,-54.5983,-0.524943,0
54.2518,-54.5475,-0.534806,0
54.3648,-54.4935,-0.544714,0
54.4762,-54.4363,-0.55465,0
54.5863,-54.3758,-0.564596,0
54.6947,-54.3121,-0.574553,0
54.8013,-54.2453,-0.584513,0
54.9062,-54.1755,-0.59446,0
55.0092,-54.1026,-0.604387,0
55.1018,-54.0172,-0.616647,0
55.1839,-53.9208,-0.630954,0
55.2635,-53.8229,-0.644992,0
55.3405,-53.7234,-0.658757,0
55.415,-53.6225,-0.672233,0
55.4869,-53.5202,-0.685436,0
55.5562,-53.4166,-0.698342,0
55.6254,-53.314,-0.710358,0
55.6964,-53.2133,-0.721159,0
55.7651,-53.1114,-0.731672,0
55.8314,-53.008,-0.741906,0
55.8953,-52.9034,-0.751852,0
55.9569,-52.7976,-0.761496,0
56.016,-52.6906,-0.770856,0
56.0727,-52.5824,-0.779914,0
56.1269,-52.4732,-0.788669,0
56.1787,-52.363,-0.797126,0
56.228,-52.2518,-0.805275,0
56.2748,-52.1397,-0.813112,0
56.3125,-52.0239,-0.821745,0
56.347,-51.9074,-0.830143,0
56.3787,-51.7904,-0.838249,0
56.4073,-51.6729,-0.846071,0
56.433,-51.555,-0.85361,0
56.4559,-51.4368,-0.860846,0
56.4759,-51.3184,-0.86779,0
56.4928,-51.1999,-0.87443,0
56.5069,-51.0813,-0.880778,0
56.5181,-50.9626,-0.886823,0
56.5279,-50.8443,-0.89236,0
56.5381,-50.7266,-0.897135,0
56.5453,-50.6088,-0.901628,0
56.5498,-50.4911,-0.905812,0
56.5516,-50.3735,-0.909709,0
56.5505,-50.2561,-0.913312,0
56.5466,-50.139,-0.916613,0
56.5401,-50.0222,-0.919616,0
56.5307,-49.9058,-0.922321,0
49.3552,-54.314,-0.109621,0
49.4508,-54.3845,-0.114089,0
50.8887,-54.9061,-0.205939,0
51.0044,-54.9344,-0.214821,0
51.1217,-54.9521,-0.226027,0
51.2395,-54.9672,-0.237292,0
51.3577,-54.9796,-0.248581,0
51.4761,-54.9894,-0.25988,0
51.5949,-54.9966,-0.271188,0
51.7139,-55.0012,-0.282512,0
51.833,-55.0031,-0.293825,0
51.9523,-55.0024,-0.305143,0
52.0717,-54.999,-0.316442,0
52.191,-54.9929,-0.327731,0
52.3104,-54.9842,-0.338996,0
52.4297,-54.9728,-0.350241,0
52.5488,-54.9588,-0.361447,0
52.6665,-54.9367,-0.373962,0
52.783,-54.9095,-0.387062,0
52.899,-54.8797,-0.400055,0
53.0141,-54.8473,-0.412961,0
53.1284,-54.8124,-0.425759,0
53.242,-54.775,-0.438454,0
53.3546,-54.7351,-0.451027,0
53.4664,-54.6928,-0.463478,0
53.5771,-54.648,-0.475803,0
53.687,-54.6007,-0.488,0
53.7955,-54.5511,-0.500051,0
53.9031,-54.499,-0.51197,0
54.0137,-54.4522,-0.521867,0
54.1242,-54.404,-0.531384,0
54.2334,-54.3526,-0.540925,0
54.3412,-54.2981,-0.550505,0
54.4478,-54.2405,-0.560099,0
54.5527,-54.1799,-0.569694,0
54.6561,-54.1163,-0.579294,0
54.7577,-54.0496,-0.588893,0
54.8574,-53.98,-0.598483,0
54.9554,-53.9076,-0.608039,0
55.0513,-53.8324,-0.61756,0
55.1309,-53.7396,-0.630954,0
55.2067,-53.6439,-0.644421,0
55.2802,-53.5468,-0.657624,0
55.3512,-53.4484,-0.670558,0
55.4198,-53.3488,-0.683151,0
55.492,-53.253,-0.69403,0
55.562,-53.1558,-0.704636,0
55.6298,-53.0573,-0.714972,0
55.6951,-52.9573,-0.725036,0
55.7582,-52.8562,-0.734816,0
55.819,-52.7538,-0.744313,0
55.8774,-52.6502,-0.753532,0
55.9335,-52.5455,-0.762453,0
55.9872,-52.4397,-0.771086,0
56.0347,-52.331,-0.780138,0
56.078,-52.2206,-0.789186,0
56.1184,-52.1094,-0.797985,0
56.1561,-51.9975,-0.806511,0
56.1909,-51.8849,-0.814762,0
56.2228,-51.7718,-0.822746,0
56.2519,-51.6582,-0.830456,0
56.2782,-51.5443,-0.837883,0
56.3016,-51.4299,-0.845021,0
56.3223,-51.3153,-0.851887,0
56.34,-51.2006,-0.858459,0
56.3551,-51.0857,-0.864753,0
56.3672,-50.9708,-0.870749,0
56.3776,-50.856,-0.876296,0
56.3886,-50.7419,-0.881056,0
56.3968,-50.6277,-0.885524,0
56.4023,-50.5135,-0.889719,0
56.4052,-50.3994,-0.89361,0
56.4052,-50.2855,-0.897228,0
56.4027,-50.1718,-0.900549,0
56.3974,-50.0583,-0.903591,0
56.3895,-49.9452,-0.906335,0
49.4797,-54.2428,-0.116989,0
49.5741,-54.3098,-0.121428,0
49.6704,-54.3751,-0.125983,0
49.7684,-54.4386,-0.130651,0
49.8682,-54.5002,-0.135431,0
49.9697,-54.56,-0.140319,0
50.073,-54.6178,-0.145319,0
50.1793,-54.6682,-0.152121,0
50.2884,-54.7123,-0.160319,0
50.3985,-54.754,-0.168635,0
50.5098,-54.7932,-0.177062,0
50.6222,-54.83,-0.185593,0
50.7358,-54.8643,-0.194255,0
50.8502,-54.896,-0.203,0
50.9657,-54.9252,-0.211857,0
51.0825,-54.9465,-0.222272,0
51.2002,-54.9624,-0.233527,0
51.3182,-54.9757,-0.244811,0
51.4366,-54.9864,-0.25611,0
51.5552,-54.9945,-0.267419,0
51.6741,-55,-0.278737,0
51.7933,-55.0028,-0.290055,0
51.9125,-55.0029,-0.301364,0
52.0319,-55.0004,-0.312673,0
52.1512,-54.9953,-0.323967,0
52.2706,-54.9874,-0.335241,0
52.3899,-54.9769,-0.346491,0
52.5091,-54.9638,-0.357717,0
52.6274,-54.9453,-0.369577,0
52.7442,-54.9189,-0.382697,0
52.8603,-54.8899,-0.395739,0
52.9757,-54.8584,-0.408669,0
53.0904,-54.8243,-0.421496,0
53.2041,-54.7878,-0.434225,0
53.3171,-54.7487,-0.446843,0
53.4292,-54.7072,-0.459338,0
53.5402,-54.6632,-0.471701,0
53.6503,-54.6168,-0.483942,0
53.7595,-54.5679,-0.496047,0
53.8673,-54.5167,-0.50801,0
53.9766,-54.4676,-0.518703,0
54.0875,-54.4205,-0.528195,0
54.1971,-54.3701,-0.537741,0
54.3055,-54.3167,-0.547306,0
54.4124,-54.2601,-0.556891,0
54.5179,-54.2005,-0.566486,0
54.6217,-54.1378,-0.576091,0
54.724,-54.0722,-0.5857,0
54.8244,-54.0036,-0.59529,0
54.9229,-53.9321,-0.604845,0
55.0195,-53.8578,-0.614391,0
55.105,-53.7712,-0.626393,0
55.1817,-53.676,-0.639958,0
55.256,-53.5794,-0.653259,0
55.3277,-53.4814,-0.666276,0
55.397,-53.382,-0.67903,0
55.4681,-53.2851,-0.690427,0
55.5389,-53.1884,-0.70113,0
55.6073,-53.0903,-0.711554,0
55.6735,-52.9908,-0.721711,0
55.7374,-52.8901,-0.731584,0
55.799,-52.7881,-0.741183,0
55.8582,-52.6849,-0.750485,0
55.915,-52.5806,-0.759504,0
55.9695,-52.4751,-0.768234,0
56.0196,-52.3676,-0.777057,0
56.0638,-52.2575,-0.786198,0
56.1052,-52.1466,-0.795075,0
56.1438,-52.0349,-0.803693,0
56.1796,-51.9226,-0.812043,0
56.2125,-51.8096,-0.820114,0
56.2426,-51.6962,-0.827912,0
56.2698,-51.5823,-0.835431,0
56.2941,-51.4681,-0.842673,0
56.3157,-51.3536,-0.849631,0
56.3344,-51.2389,-0.856301,0
56.3503,-51.124,-0.862678,0
56.3634,-51.0091,-0.868776,0
56.3738,-50.8942,-0.874582,0
56.3852,-50.78,-0.879504,0
56.3944,-50.6658,-0.884069,0
56.4008,-50.5516,-0.888351,0
56.4045,-50.4375,-0.892345,0
56.4055,-50.3235,-0.896056,0
56.4038,-50.2097,-0.899469,0
56.3995,-50.0961,-0.902604,0
56.3924,-49.9829,-0.905456,0
56.3827,-49.8701,-0.908014,0
49.4486,-54.2201,-0.115529,0
49.5424,-54.2877,-0.119933,0
49.6381,-54.3535,-0.124455,0
49.7355,-54.4176,-0.129084,0
49.8347,-54.4799,-0.13382,0
49.9356,-54.5402,-0.138679,0
50.0383,-54.5987,-0.143639,0
50.1433,-54.653,-0.149411,0
50.2519,-54.6979,-0.157565,0
50.3616,-54.7403,-0.165846,0
50.4726,-54.7804,-0.17424,0
50.5846,-54.818,-0.182741,0
50.6977,-54.8531,-0.191349,0
50.8119,-54.8857,-0.20006,0
50.927,-54.9158,-0.208884,0
51.0434,-54.9406,-0.218522,0
51.1609,-54.9574,-0.229772,0
51.2787,-54.9716,-0.241042,0
51.397,-54.9832,-0.252336,0
51.5155,-54.9921,-0.263639,0
51.6344,-54.9984,-0.274958,0
51.7534,-55.0021,-0.286276,0
51.8727,-55.0032,-0.29759,0
51.992,-55.0016,-0.308898,0
52.1114,-54.9973,-0.320197,0
52.2308,-54.9903,-0.331481,0
52.3502,-54.9807,-0.342746,0
52.4694,-54.9685,-0.353967,0
52.5884,-54.9535,-0.365168,0
52.7053,-54.928,-0.378327,0
52.8216,-54.8998,-0.391393,0
52.9373,-54.8692,-0.404362,0
53.0523,-54.836,-0.417228,0
53.1663,-54.8002,-0.429992,0
53.2795,-54.762,-0.442638,0
53.3919,-54.7213,-0.455173,0
53.5034,-54.6781,-0.46759,0
53.6138,-54.6325,-0.47988,0
53.7232,-54.5845,-0.492023,0
53.8315,-54.534,-0.504035,0
53.9395,-54.4827,-0.515539,0
54.0506,-54.4365,-0.525031,0
54.1607,-54.3873,-0.534557,0
54.2695,-54.3349,-0.544108,0
54.3769,-54.2793,-0.553698,0
54.4829,-54.2207,-0.563283,0
54.5873,-54.1591,-0.572892,0
54.6901,-54.0944,-0.582497,0
54.7911,-54.0268,-0.592087,0
54.8902,-53.9563,-0.601667,0
54.9875,-53.8829,-0.611208,0
55.0788,-53.8026,-0.621813,0
55.1564,-53.7079,-0.635461,0
55.2315,-53.6118,-0.648849,0
55.3041,-53.5142,-0.66196,0
55.3741,-53.4153,-0.674797,0
55.4441,-53.3171,-0.686799,0
55.5155,-53.2208,-0.69759,0
55.5848,-53.1232,-0.708102,0
55.6517,-53.0242,-0.718356,0
55.7163,-52.9238,-0.728327,0
55.7787,-52.8222,-0.738005,0
55.8387,-52.7194,-0.747414,0
55.8963,-52.6155,-0.756535,0
55.9516,-52.5104,-0.765353,0
56.0042,-52.4042,-0.773947,0
56.0495,-52.2943,-0.783171,0
56.0918,-52.1837,-0.79214,0
56.1312,-52.0722,-0.800846,0
56.168,-51.9601,-0.809289,0
56.2019,-51.8474,-0.817453,0
56.2328,-51.7341,-0.825344,0
56.2609,-51.6204,-0.832956,0
56.2862,-51.5063,-0.840285,0
56.3088,-51.3919,-0.847336,0
56.3284,-51.2772,-0.854108,0
56.3453,-51.1624,-0.860593,0
56.3594,-51.0475,-0.866774,0
56.3706,-50.9325,-0.872682,0
56.3816,-50.8181,-0.877912,0
56.3916,-50.7039,-0.882575,0
56.399,-50.5897,-0.88695,0
56.4036,-50.4755,-0.891037,0
56.4055,-50.3615,-0.89485,0
56.4047,-50.2476,-0.898366,0
56.4012,-50.134,-0.901589,0
56.3951,-50.0207,-0.904533,0
56.3862,-49.9077,-0.907194,0
49.4177,-54.1971,-0.114089,0
49.5109,-54.2653,-0.118449,0
50.9108,-54.7669,-0.209006,0
51.0233,-54.7941,-0.217643,0
51.1367,-54.818,-0.226598,0
51.2513,-54.8325,-0.23757,0
51.3663,-54.8446,-0.248547,0
51.4816,-54.854,-0.259548,0
51.5972,-54.8609,-0.270558,0
51.713,-54.8653,-0.281564,0
51.8289,-54.867,-0.292575,0
51.9449,-54.8662,-0.303581,0
52.0611,-54.8628,-0.314577,0
52.1773,-54.8568,-0.325558,0
52.2933,-54.8482,-0.336511,0
52.4093,-54.8369,-0.347443,0
52.5252,-54.8231,-0.358346,0
52.64,-54.8033,-0.370104,0
52.7535,-54.7768,-0.382853,0
52.8662,-54.7478,-0.395505,0
52.9783,-54.7164,-0.408058,0
53.0896,-54.6825,-0.420519,0
53.2001,-54.6461,-0.432873,0
53.3098,-54.6073,-0.445104,0
53.4185,-54.5661,-0.457228,0
53.5263,-54.5225,-0.46922,0
53.6331,-54.4766,-0.481091,0
53.7389,-54.4283,-0.492834,0
53.8436,-54.3776,-0.504426,0
53.9472,-54.3247,-0.515881,0
54.0496,-54.2695,-0.527184,0
54.1508,-54.212,-0.538342,0
54.2505,-54.1522,-0.549338,0
54.3523,-54.0949,-0.558986,0
54.4535,-54.0361,-0.568254,0
54.5532,-53.9744,-0.577526,0
54.6512,-53.9099,-0.586789,0
54.7474,-53.8425,-0.596042,0
54.8419,-53.7724,-0.60527,0
54.9343,-53.6996,-0.614465,0
55.0247,-53.6242,-0.62362,0
55.1042,-53.5373,-0.635173,0
55.1759,-53.4434,-0.648019,0
55.2453,-53.3483,-0.660539,0
55.3179,-53.2568,-0.671393,0
55.3883,-53.1637,-0.681994,0
55.4566,-53.0693,-0.692336,0
55.5226,-52.9735,-0.702414,0
55.5864,-52.8764,-0.712219,0
55.648,-52.7781,-0.721755,0
55.705,-52.6771,-0.731501,0
55.7581,-52.5742,-0.741281,0
55.8086,-52.4701,-0.750817,0
55.8564,-52.365,-0.760124,0
55.9014,-52.259,-0.769172,0
55.9437,-52.1521,-0.77798,0
55.9832,-52.0445,-0.78654,0
56.0201,-51.9361,-0.794831,0
56.0541,-51.8271,-0.802868,0
56.0854,-51.7176,-0.810641,0
56.114,-51.6076,-0.818141,0
56.1398,-51.4971,-0.825383,0
56.1629,-51.3863,-0.832336,0
56.1832,-51.2753,-0.83903,0
56.2009,-51.164,-0.845441,0
56.2157,-51.0526,-0.851574,0
56.2279,-50.9412,-0.857424,0
56.2393,-50.8301,-0.862687,0
56.2502,-50.7193,-0.867326,0
56.2584,-50.6085,-0.871691,0
56.2641,-50.4977,-0.875778,0
56.267,-50.3869,-0.879592,0
56.2673,-50.2763,-0.883122,0
56.265,-50.1659,-0.886374,0
56.2602,-50.0558,-0.889352,0
56.2527,-49.946,-0.892043,0
49.5377,-54.1302,-0.121169,0
49.6298,-54.195,-0.125505,0
49.7237,-54.2581,-0.129953,0
49.8193,-54.3195,-0.134513,0
49.9166,-54.379,-0.139177,0
50.0155,-54.4367,-0.143947,0
50.1162,-54.4925,-0.148835,0
50.2209,-54.5375,-0.156652,0
50.327,-54.5801,-0.164631,0
50.4341,-54.6204,-0.172717,0
50.5423,-54.6582,-0.180915,0
50.6517,-54.6937,-0.189225,0
50.762,-54.7267,-0.197638,0
50.8734,-54.7573,-0.206149,0
50.9856,-54.7853,-0.214753,0
51.0987,-54.8108,-0.223449,0
51.213,-54.828,-0.233908,0
51.3279,-54.8408,-0.24488,0
51.4431,-54.8512,-0.255871,0
51.5585,-54.8589,-0.266882,0
51.6743,-54.8641,-0.277887,0
51.7902,-54.8667,-0.288898,0
51.9062,-54.8668,-0.299909,0
52.0223,-54.8642,-0.31091,0
52.1385,-54.8591,-0.321896,0
52.2546,-54.8513,-0.332858,0
52.3706,-54.841,-0.343805,0
52.4866,-54.828,-0.354719,0
52.602,-54.8115,-0.365832,0
52.7156,-54.7859,-0.37861,0
52.8287,-54.7578,-0.391296,0
52.941,-54.7272,-0.403884,0
53.0525,-54.6941,-0.416374,0
53.1634,-54.6585,-0.428762,0
53.2733,-54.6205,-0.441032,0
53.3823,-54.5802,-0.453195,0
53.4905,-54.5374,-0.465236,0
53.5977,-54.4922,-0.47715,0
53.7038,-54.4447,-0.488928,0
53.8088,-54.3948,-0.500573,0
53.9127,-54.3426,-0.512077,0
54.0155,-54.2881,-0.523434,0
54.1171,-54.2314,-0.534631,0
54.2174,-54.1724,-0.545685,0
54.3182,-54.1139,-0.55589,0
54.4199,-54.0561,-0.565158,0
54.5202,-53.9953,-0.57443,0
54.6187,-53.9317,-0.583703,0
54.7155,-53.8653,-0.592956,0
54.8105,-53.7961,-0.602194,0
54.9037,-53.7242,-0.611403,0
54.9948,-53.6496,-0.620568,0
55.0798,-53.5683,-0.630827,0
55.1522,-53.4749,-0.643762,0
55.2222,-53.38,-0.656437,0
55.2939,-53.2875,-0.667804,0
55.3651,-53.1949,-0.678488,0
55.4341,-53.101,-0.688913,0
55.5008,-53.0056,-0.699079,0
55.5653,-52.909,-0.708976,0
55.6277,-52.8111,-0.718605,0
55.6866,-52.7112,-0.728185,0
55.7407,-52.6087,-0.738039,0
55.792,-52.505,-0.747653,0
55.8407,-52.4002,-0.757043,0
55.8867,-52.2945,-0.766178,0
55.9298,-52.1879,-0.77507,0
55.9703,-52.0805,-0.783713,0
56.008,-51.9724,-0.792096,0
56.043,-51.8636,-0.800217,0
56.0752,-51.7542,-0.808078,0
56.1047,-51.6443,-0.815666,0
56.1315,-51.534,-0.823,0
56.1555,-51.4233,-0.830046,0
56.1767,-51.3123,-0.836828,0
56.1953,-51.2011,-0.843332,0
56.211,-51.0898,-0.849557,0
56.2241,-50.9784,-0.855505,0
56.2351,-50.867,-0.861076,0
56.2469,-50.7563,-0.865807,0
56.2559,-50.6455,-0.870265,0
56.2624,-50.5346,-0.874445,0
56.2663,-50.4239,-0.878351,0
56.2675,-50.3132,-0.881974,0
56.2661,-50.2027,-0.885324,0
56.2621,-50.0925,-0.88839,0
56.2555,-49.9826,-0.891178,0
56.2463,-49.873,-0.893688,0
49.5073,-54.1081,-0.119748,0
49.5988,-54.1735,-0.12405,0
49.6922,-54.2372,-0.128464,0
49.7872,-54.2992,-0.132985,0
49.8839,-54.3593,-0.137614,0
49.9823,-54.4177,-0.142346,0
50.0824,-54.4741,-0.147189,0
50.1858,-54.5228,-0.154011,0
50.2914,-54.5661,-0.161955,0
50.3982,-54.6072,-0.170002,0
50.5061,-54.6459,-0.178171,0
50.6151,-54.6821,-0.186442,0
50.7252,-54.716,-0.194816,0
50.8362,-54.7474,-0.203298,0
50.948,-54.7763,-0.211872,0
51.0609,-54.8026,-0.220539,0
51.1748,-54.8231,-0.230251,0
51.2895,-54.8368,-0.241222,0
51.4046,-54.848,-0.252209,0
51.52,-54.8566,-0.263205,0
51.6356,-54.8627,-0.274211,0
51.7515,-54.8661,-0.285226,0
51.8674,-54.867,-0.296237,0
51.9836,-54.8653,-0.307243,0
52.0998,-54.8611,-0.318229,0
52.2159,-54.8542,-0.329196,0
52.3319,-54.8447,-0.340153,0
52.4479,-54.8326,-0.351076,0
52.5637,-54.8179,-0.361974,0
52.6779,-54.7947,-0.374357,0
52.7911,-54.7674,-0.387067,0
52.9036,-54.7377,-0.399689,0
53.0155,-54.7054,-0.412214,0
53.1265,-54.6707,-0.424636,0
53.2366,-54.6335,-0.436955,0
53.346,-54.5939,-0.449152,0
53.4545,-54.5519,-0.461232,0
53.562,-54.5075,-0.473185,0
53.6684,-54.4608,-0.485016,0
53.7738,-54.4117,-0.496706,0
53.8782,-54.3603,-0.508259,0
53.9813,-54.3066,-0.519655,0
54.0834,-54.2506,-0.53091,0
54.1841,-54.1924,-0.542018,0
54.284,-54.1325,-0.5528,0
54.3862,-54.0757,-0.562067,0
54.4869,-54.0159,-0.57134,0
54.586,-53.9533,-0.580612,0
54.6834,-53.8878,-0.58987,0
54.7791,-53.8195,-0.599113,0
54.8728,-53.7485,-0.608342,0
54.9646,-53.6748,-0.617512,0
55.0543,-53.5985,-0.626652,0
55.1283,-53.5062,-0.63947,0
55.1991,-53.4118,-0.652243,0
55.2697,-53.318,-0.664177,0
55.3416,-53.226,-0.674953,0
55.4113,-53.1325,-0.685466,0
55.4787,-53.0376,-0.695715,0
55.5441,-52.9414,-0.70571,0
55.6071,-52.8439,-0.715427,0
55.668,-52.7451,-0.724865,0
55.723,-52.643,-0.734772,0
55.7752,-52.5397,-0.744474,0
55.8248,-52.4353,-0.753947,0
55.8716,-52.3298,-0.763166,0
55.9157,-52.2236,-0.772136,0
55.9571,-52.1164,-0.780861,0
55.9958,-52.0085,-0.789328,0
56.0316,-51.9,-0.797531,0
56.0648,-51.7907,-0.805485,0
56.0952,-51.681,-0.813166,0
56.1229,-51.5709,-0.820583,0
56.1478,-51.4603,-0.827726,0
56.1699,-51.3494,-0.834596,0
56.1894,-51.2383,-0.841193,0
56.2061,-51.127,-0.847512,0
56.2201,-51.0156,-0.853552,0
56.2314,-50.9041,-0.859313,0
56.2432,-50.7932,-0.864264,0
56.2533,-50.6824,-0.86881,0
56.2605,-50.5716,-0.873078,0
56.2653,-50.4608,-0.877077,0
56.2674,-50.3501,-0.880793,0
56.2668,-50.2396,-0.88423,0
56.2637,-50.1293,-0.887394,0
56.258,-50.0192,-0.890275,0
56.2496,-49.9095,-0.892878,0
49.4771,-54.086,-0.118332,0
49.5681,-54.1519,-0.122599,0
50.9317,-54.6349,-0.211921,0
51.0412,-54.6611,-0.220324,0
51.1515,-54.6848,-0.22882,0
51.2627,-54.7045,-0.237834,0
51.3746,-54.7161,-0.248517,0
51.4869,-54.7253,-0.25923,0
51.5994,-54.7319,-0.269938,0
51.712,-54.736,-0.280661,0
51.8249,-54.7376,-0.291384,0
51.938,-54.7367,-0.302096,0
52.0509,-54.7333,-0.3128,0
52.1641,-54.7273,-0.323488,0
52.2771,-54.7188,-0.334147,0
52.3899,-54.7077,-0.344792,0
52.5027,-54.6942,-0.355407,0
52.6148,-54.6763,-0.366442,0
52.7253,-54.6506,-0.378849,0
52.8352,-54.6224,-0.391174,0
52.9443,-54.5919,-0.403405,0
53.0527,-54.5589,-0.415534,0
53.1602,-54.5235,-0.42756,0
53.2671,-54.4858,-0.439479,0
53.373,-54.4457,-0.451281,0
53.478,-54.4032,-0.462966,0
53.582,-54.3585,-0.474528,0
53.685,-54.3115,-0.485949,0
53.787,-54.2621,-0.497248,0
53.8878,-54.2106,-0.508405,0
53.9875,-54.1568,-0.519416,0
54.0861,-54.1008,-0.530275,0
54.1834,-54.0426,-0.540978,0
54.2793,-53.9823,-0.55153,0
54.3739,-53.9199,-0.561906,0
54.4673,-53.8553,-0.572121,0
54.5591,-53.7887,-0.58216,0
54.6496,-53.72,-0.592018,0
54.7384,-53.6493,-0.601696,0
54.8259,-53.5766,-0.611188,0
54.912,-53.5022,-0.620407,0
54.9973,-53.4267,-0.629206,0
55.0773,-53.3458,-0.638801,0
55.1501,-53.258,-0.649709,0
55.2195,-53.1678,-0.660656,0
55.2865,-53.0761,-0.671413,0
55.3509,-52.9828,-0.681984,0
55.413,-52.8881,-0.692355,0
55.4724,-52.792,-0.702507,0
55.5295,-52.6946,-0.712453,0
55.5838,-52.5961,-0.722189,0
55.6357,-52.4963,-0.731691,0
55.6848,-52.3955,-0.740973,0
55.7315,-52.2938,-0.750021,0
55.7755,-52.1911,-0.758835,0
55.8168,-52.0875,-0.767404,0
55.8555,-51.9832,-0.77572,0
55.8915,-51.8782,-0.783796,0
55.9248,-51.7725,-0.791623,0
55.9556,-51.6663,-0.799191,0
55.9836,-51.5596,-0.806511,0
56.009,-51.4525,-0.813561,0
56.0316,-51.3451,-0.820348,0
56.0518,-51.2374,-0.826872,0
56.0692,-51.1294,-0.833127,0
56.084,-51.0213,-0.839113,0
56.0961,-50.9132,-0.844826,0
56.1084,-50.8055,-0.849811,0
56.1192,-50.6979,-0.854338,0
56.1274,-50.5903,-0.8586,0
56.133,-50.4827,-0.862594,0
56.1362,-50.3751,-0.86631,0
56.1367,-50.2677,-0.869767,0
56.1348,-50.1604,-0.872951,0
56.1302,-50.0534,-0.875861,0
56.1232,-49.9467,-0.878503,0
49.5927,-54.0229,-0.125153,0
49.6827,-54.0857,-0.129391,0
49.7744,-54.1468,-0.133737,0
49.8677,-54.2061,-0.13819,0
49.9627,-54.2637,-0.142751,0
50.0591,-54.3194,-0.147414,0
50.1583,-54.37,-0.153288,0
50.2604,-54.4134,-0.160944,0
50.3635,-54.4546,-0.168718,0
50.4679,-54.4935,-0.176589,0
50.5733,-54.5301,-0.184572,0
50.6797,-54.5644,-0.192663,0
50.7871,-54.5962,-0.200851,0
50.8954,-54.6257,-0.209128,0
51.0046,-54.6527,-0.217507,0
51.1146,-54.6772,-0.225973,0
51.2254,-54.6992,-0.234523,0
51.3372,-54.7125,-0.244948,0
51.4493,-54.7225,-0.255656,0
51.5618,-54.7299,-0.266369,0
51.6745,-54.7349,-0.277092,0
51.7873,-54.7374,-0.2878,0
51.9002,-54.7373,-0.298517,0
52.0133,-54.7347,-0.30923,0
52.1263,-54.7296,-0.319919,0
52.2394,-54.7219,-0.330597,0
52.3523,-54.7117,-0.341247,0
52.4652,-54.699,-0.351872,0
52.5777,-54.6837,-0.362458,0
52.6885,-54.6594,-0.374723,0
52.7986,-54.6321,-0.387077,0
52.9079,-54.6023,-0.399328,0
53.0166,-54.5701,-0.411501,0
53.1245,-54.5356,-0.423566,0
53.2315,-54.4986,-0.435514,0
53.3377,-54.4593,-0.44736,0
53.443,-54.4177,-0.459079,0
53.5474,-54.3737,-0.470685,0
53.6508,-54.3274,-0.482155,0
53.7531,-54.2789,-0.493493,0
53.8543,-54.228,-0.504704,0
53.9545,-54.175,-0.515759,0
54.0533,-54.1197,-0.526672,0
54.151,-54.0623,-0.537424,0
54.2474,-54.0027,-0.548029,0
54.3425,-53.9409,-0.558454,0
54.4362,-53.8771,-0.568727,0
54.5287,-53.8111,-0.57883,0
54.6195,-53.7431,-0.588747,0
54.709,-53.6731,-0.598488,0
54.7969,-53.6011,-0.608039,0
54.8833,-53.5271,-0.617399,0
54.9691,-53.4521,-0.626276,0
55.053,-53.375,-0.635041,0
55.1262,-53.2876,-0.646052,0
55.1966,-53.1981,-0.657018,0
55.2644,-53.1069,-0.667844,0
55.3297,-53.0141,-0.678483,0
55.3925,-52.9198,-0.688913,0
55.4529,-52.8242,-0.699138,0
55.5107,-52.7273,-0.709162,0
55.5659,-52.6291,-0.718962,0
55.6187,-52.5297,-0.728542,0
55.6687,-52.4293,-0.737897,0
55.7162,-52.3278,-0.747033,0
55.7611,-52.2254,-0.755915,0
55.8033,-52.1222,-0.764572,0
55.8429,-52.0181,-0.772975,0
55.8798,-51.9133,-0.781135,0
55.9141,-51.8078,-0.789045,0
55.9456,-51.7018,-0.796701,0
55.9745,-51.5953,-0.804094,0
56.0009,-51.4883,-0.811232,0
56.0245,-51.381,-0.818117,0
56.0454,-51.2733,-0.824719,0
56.0637,-51.1655,-0.831071,0
56.0793,-51.0574,-0.837145,0
56.0923,-50.9493,-0.842951,0
56.1043,-50.8414,-0.848239,0
56.1159,-50.7339,-0.852853,0
56.125,-50.6262,-0.857209,0
56.1315,-50.5186,-0.861286,0
56.1354,-50.411,-0.865099,0
56.1369,-50.3035,-0.868649,0
56.1356,-50.1962,-0.871916,0
56.132,-50.0891,-0.874919,0
56.1258,-49.9823,-0.877653,0
56.1171,-49.8758,-0.880114,0
49.5631,-54.0016,-0.123757,0
49.6525,-54.0649,-0.127966,0
49.7436,-54.1266,-0.132277,0
49.8364,-54.1865,-0.136696,0
49.9308,-54.2447,-0.141218,0
50.0268,-54.301,-0.145846,0
50.1245,-54.355,-0.150763,0
50.2262,-54.3992,-0.158381,0
50.329,-54.4411,-0.16611,0
50.433,-54.4808,-0.173947,0
50.538,-54.5182,-0.181901,0
50.6441,-54.5532,-0.189948,0
50.7511,-54.5859,-0.198107,0
50.8591,-54.6161,-0.206364,0
50.968,-54.6439,-0.214704,0
51.0778,-54.6693,-0.223141,0
51.1884,-54.6921,-0.231662,0
51.2998,-54.7087,-0.241379,0
51.4119,-54.7194,-0.252082,0
51.5242,-54.7277,-0.262795,0
51.6368,-54.7335,-0.273508,0
51.7496,-54.7368,-0.284225,0
51.8626,-54.7376,-0.294943,0
51.9755,-54.7358,-0.305661,0
52.0886,-54.7316,-0.316354,0
52.2017,-54.7247,-0.327043,0
52.3146,-54.7154,-0.337697,0
52.4275,-54.7035,-0.348332,0
52.5402,-54.6891,-0.358928,0
52.6517,-54.668,-0.370578,0
52.762,-54.6415,-0.382961,0
52.8715,-54.6125,-0.395251,0
52.9805,-54.5812,-0.407453,0
53.0886,-54.5474,-0.419548,0
53.1959,-54.5112,-0.43154,0
53.3024,-54.4727,-0.443425,0
53.408,-54.4318,-0.455187,0
53.5127,-54.3886,-0.466823,0
53.6164,-54.3431,-0.478342,0
53.7191,-54.2953,-0.489733,0
53.8207,-54.2452,-0.500978,0
53.9211,-54.1929,-0.512082,0
54.0204,-54.1384,-0.523044,0
54.1186,-54.0817,-0.533845,0
54.2154,-54.0228,-0.544504,0
54.3109,-53.9618,-0.554997,0
54.4052,-53.8986,-0.565319,0
54.498,-53.8334,-0.575475,0
54.5894,-53.766,-0.585461,0
54.6793,-53.6967,-0.595261,0
54.7677,-53.6253,-0.604875,0
54.8547,-53.552,-0.614299,0
54.9406,-53.4773,-0.623342,0
55.0252,-53.401,-0.632126,0
55.1019,-53.3168,-0.642433,0
55.1734,-53.2282,-0.653366,0
55.242,-53.1375,-0.664255,0
55.3081,-53.0452,-0.674953,0
55.3719,-52.9514,-0.685456,0
55.433,-52.8563,-0.695754,0
55.4916,-52.7597,-0.705846,0
55.5478,-52.662,-0.71572,0
55.6014,-52.563,-0.725373,0
55.6523,-52.4629,-0.734806,0
55.7007,-52.3618,-0.744006,0
55.7464,-52.2597,-0.75298,0
55.7895,-52.1567,-0.761711,0
55.8299,-52.0529,-0.770197,0
55.8677,-51.9483,-0.778444,0
55.9029,-51.8431,-0.786432,0
55.9354,-51.7373,-0.794172,0
55.9652,-51.6309,-0.801657,0
55.9923,-51.5241,-0.808879,0
56.0168,-51.4168,-0.815851,0
56.0387,-51.3093,-0.822546,0
56.0578,-51.2015,-0.828986,0
56.0745,-51.0935,-0.835148,0
56.0883,-50.9854,-0.841047,0
56.0998,-50.8772,-0.846637,0
56.1123,-50.7697,-0.85134,0
56.1222,-50.6621,-0.855788,0
56.1296,-50.5545,-0.859958,0
56.1345,-50.4469,-0.863864,0
56.1366,-50.3393,-0.867492,0
56.1363,-50.232,-0.870861,0
56.1335,-50.1248,-0.873952,0
56.1282,-50.0179,-0.876769,0
56.1202,-49.9113,-0.879323,0
49.5336,-53.9801,-0.122385,0
49.6225,-54.044,-0.12655,0
50.9516,-54.5095,-0.214684,0
51.0582,-54.5348,-0.222868,0
51.1655,-54.5576,-0.231135,0
51.2736,-54.5779,-0.239489,0
51.3824,-54.5938,-0.248488,0
51.4918,-54.6026,-0.258928,0
51.6014,-54.609,-0.269362,0
51.7113,-54.6129,-0.279806,0
51.8212,-54.6144,-0.290251,0
51.9312,-54.6134,-0.300685,0
52.0414,-54.61,-0.31111,0
52.1516,-54.604,-0.321515,0
52.2616,-54.5956,-0.331911,0
52.3716,-54.5848,-0.342267,0
52.4813,-54.5714,-0.352604,0
52.5909,-54.5554,-0.362946,0
52.6985,-54.5304,-0.375041,0
52.8055,-54.503,-0.387048,0
52.912,-54.4733,-0.398967,0
53.0176,-54.4412,-0.410788,0
53.1224,-54.4067,-0.422502,0
53.2265,-54.37,-0.434123,0
53.3297,-54.3309,-0.445627,0
53.432,-54.2896,-0.457009,0
53.5334,-54.246,-0.468268,0
53.6337,-54.2002,-0.479411,0
53.733,-54.1521,-0.490417,0
53.8313,-54.1019,-0.501281,0
53.9284,-54.0495,-0.512009,0
54.0244,-53.9949,-0.52259,0
54.1191,-53.9382,-0.533019,0
54.2127,-53.8794,-0.543293,0
54.3049,-53.8186,-0.5534,0
54.3958,-53.7556,-0.563356,0
54.4853,-53.6907,-0.573132,0
54.5734,-53.6237,-0.582736,0
54.6601,-53.5548,-0.592165,0
54.7452,-53.4839,-0.601403,0
54.8288,-53.4111,-0.610461,0
54.9087,-53.3344,-0.619948,0
54.979,-53.2485,-0.631486,0
55.047,-53.161,-0.642834,0
55.1142,-53.0733,-0.653566,0
55.1795,-52.9845,-0.66402,0
55.2423,-52.8941,-0.674299,0
55.3027,-52.8024,-0.684372,0
55.3607,-52.7093,-0.694245,0
55.4162,-52.6149,-0.703923,0
55.4693,-52.5194,-0.713386,0
55.5198,-52.4227,-0.722634,0
55.5679,-52.325,-0.731667,0
55.6134,-52.2264,-0.74047,0
55.6563,-52.1268,-0.74905,0
55.6967,-52.0264,-0.757389,0
55.7346,-51.9252,-0.7655,0
55.7699,-51.8233,-0.773361,0
55.8025,-51.7209,-0.780988,0
55.8327,-51.6178,-0.788366,0
55.8602,-51.5143,-0.79549,0
55.8851,-51.4103,-0.80237,0
55.9075,-51.306,-0.808991,0
55.9273,-51.2015,-0.815358,0
55.9445,-51.0967,-0.821462,0
55.9592,-50.9917,-0.827311,0
55.9712,-50.8867,-0.832892,0
55.9844,-50.7822,-0.83759,0
55.995,-50.6777,-0.842023,0
56.0033,-50.5731,-0.846178,0
56.0089,-50.4685,-0.85009,0
56.0121,-50.3639,-0.853722,0
56.0128,-50.2595,-0.857101,0
56.0111,-50.1552,-0.860217,0
56.007,-50.0511,-0.863068,0
56.0003,-49.9474,-0.865656,0
49.6454,-53.9207,-0.128947,0
49.7332,-53.9815,-0.133097,0
49.8227,-54.0407,-0.137341,0
49.9137,-54.0981,-0.141691,0
50.0065,-54.1538,-0.146149,0
50.1007,-54.2078,-0.150705,0
50.1984,-54.2534,-0.15757,0
50.2978,-54.2955,-0.165026,0
50.3984,-54.3353,-0.172595,0
50.5,-54.373,-0.18027,0
50.6026,-54.4083,-0.188054,0
50.7062,-54.4414,-0.195925,0
50.8109,-54.4722,-0.203903,0
50.9162,-54.5006,-0.21197,0
51.0226,-54.5266,-0.220129,0
51.1296,-54.5502,-0.228371,0
51.2375,-54.5714,-0.236691,0
51.346,-54.5901,-0.245095,0
51.4552,-54.6,-0.255446,0
51.5648,-54.6072,-0.265881,0
51.6746,-54.6119,-0.27632,0
51.7845,-54.6142,-0.28676,0
51.8945,-54.614,-0.297199,0
52.0047,-54.6114,-0.307629,0
52.1148,-54.6063,-0.318044,0
52.2248,-54.5987,-0.328439,0
52.3348,-54.5887,-0.33881,0
52.4448,-54.5761,-0.349157,0
52.5544,-54.5611,-0.35947,0
52.6627,-54.539,-0.371012,0
52.7699,-54.5124,-0.383049,0
52.8765,-54.4834,-0.395007,0
52.9823,-54.4521,-0.406852,0
53.0875,-54.4185,-0.418605,0
53.1918,-54.3825,-0.430261,0
53.2953,-54.3442,-0.441799,0
53.3979,-54.3036,-0.453224,0
53.4996,-54.2608,-0.464528,0
53.6003,-54.2157,-0.47571,0
53.7,-54.1684,-0.486755,0
53.7987,-54.1189,-0.497673,0
53.8962,-54.0672,-0.508444,0
53.9925,-54.0134,-0.519079,0
54.0877,-53.9574,-0.529557,0
54.1816,-53.8993,-0.539885,0
54.2742,-53.8391,-0.550051,0
54.3656,-53.7768,-0.560051,0
54.4555,-53.7126,-0.569889,0
54.5441,-53.6463,-0.579553,0
54.6312,-53.578,-0.589035,0
54.7169,-53.5078,-0.598342,0
54.801,-53.4356,-0.607458,0
54.8836,-53.3616,-0.616393,0
54.9558,-53.2773,-0.627668,0
55.0246,-53.1903,-0.639069,0
55.092,-53.1027,-0.650026,0
55.158,-53.0143,-0.660554,0
55.2216,-52.9244,-0.670881,0
55.2828,-52.8331,-0.681027,0
55.3416,-52.7405,-0.690973,0
55.398,-52.6465,-0.70072,0
55.4519,-52.5514,-0.710251,0
55.5033,-52.4551,-0.719577,0
55.5521,-52.3578,-0.728679,0
55.5985,-52.2594,-0.737555,0
55.6423,-52.1601,-0.746213,0
55.6836,-52.06,-0.754636,0
55.7223,-51.9591,-0.762819,0
55.7584,-51.8574,-0.770759,0
55.7919,-51.7551,-0.778473,0
55.8229,-51.6523,-0.785925,0
55.8513,-51.5489,-0.793141,0
55.8771,-51.4451,-0.800109,0
55.9003,-51.3409,-0.806813,0
55.921,-51.2364,-0.813259,0
55.9391,-51.1316,-0.819455,0
55.9546,-51.0267,-0.825387,0
55.9676,-50.9217,-0.831056,0
55.9802,-50.8171,-0.836061,0
55.9918,-50.7126,-0.840573,0
56.0008,-50.608,-0.844826,0
56.0073,-50.5034,-0.848805,0
56.0113,-50.3988,-0.852541,0
56.0129,-50.2943,-0.856003,0
56.012,-50.19,-0.859206,0
56.0086,-50.0858,-0.86215,0
56.0028,-49.982,-0.864826,0
55.9982,-49.8783,-0.866603,0
49.6163,-53.9,-0.127585,0
49.7038,-53.9614,-0.131701,0
49.7927,-54.0211,-0.135915,0
49.8833,-54.0792,-0.140231,0
49.9754,-54.1355,-0.14465,0
50.0691,-54.19,-0.149172,0
50.1655,-54.2388,-0.155104,0
50.2645,-54.2817,-0.162531,0
50.3647,-54.3223,-0.17006,0
50.466,-54.3607,-0.177697,0
50.5683,-54.3968,-0.185451,0
50.6716,-54.4307,-0.193288,0
50.7758,-54.4622,-0.201232,0
50.8809,-54.4914,-0.209264,0
50.987,-54.5182,-0.217399,0
51.0938,-54.5426,-0.225602,0
51.2014,-54.5646,-0.233908,0
51.3098,-54.5841,-0.242282,0
51.4187,-54.597,-0.251965,0
51.5283,-54.605,-0.262394,0
51.638,-54.6106,-0.272839,0
51.7478,-54.6137,-0.283283,0
51.8578,-54.6143,-0.293722,0
51.9679,-54.6125,-0.304157,0
52.078,-54.6083,-0.314567,0
52.1881,-54.6015,-0.324972,0
52.2982,-54.5923,-0.335353,0
52.408,-54.5806,-0.34571,0
52.5178,-54.5664,-0.356027,0
52.6268,-54.5474,-0.366974,0
52.7342,-54.5216,-0.37904,0
52.8409,-54.4934,-0.391022,0
52.9471,-54.4628,-0.402912,0
53.0525,-54.43,-0.414694,0
53.1571,-54.3947,-0.426384,0
53.2609,-54.3572,-0.437961,0
53.3638,-54.3174,-0.449421,0
53.4658,-54.2753,-0.460768,0
53.5668,-54.231,-0.471994,0
53.6669,-54.1844,-0.483083,0
53.7659,-54.1357,-0.494045,0
53.8638,-54.0847,-0.50487,0
53.9605,-54.0316,-0.515539,0
54.0561,-53.9763,-0.526076,0
54.1505,-53.9189,-0.536452,0
54.2435,-53.8594,-0.546672,0
54.3353,-53.7979,-0.55673,0
54.4257,-53.7342,-0.566628,0
54.5148,-53.6686,-0.576349,0
54.6023,-53.601,-0.585895,0
54.6885,-53.5314,-0.595256,0
54.7731,-53.4599,-0.60444,0
54.8562,-53.3865,-0.613434,0
54.9323,-53.306,-0.623815,0
55.0019,-53.2195,-0.635285,0
55.0695,-53.1318,-0.646476,0
55.1362,-53.044,-0.657062,0
55.2006,-52.9546,-0.667458,0
55.2627,-52.8637,-0.677668,0
55.3223,-52.7715,-0.687678,0
55.3795,-52.678,-0.697492,0
55.4341,-52.5833,-0.707092,0
55.4864,-52.4874,-0.716486,0
55.5361,-52.3904,-0.725661,0
55.5833,-52.2923,-0.734611,0
55.628,-52.1933,-0.743346,0
55.6701,-52.0935,-0.751847,0
55.7097,-51.9928,-0.760109,0
55.7466,-51.8914,-0.768137,0
55.781,-51.7893,-0.775929,0
55.8129,-51.6866,-0.783473,0
55.8421,-51.5834,-0.790763,0
55.8687,-51.4797,-0.797809,0
55.8929,-51.3757,-0.804596,0
55.9144,-51.2713,-0.811144,0
55.9333,-51.1666,-0.817419,0
55.9497,-51.0618,-0.823439,0
55.9635,-50.9568,-0.829196,0
55.9758,-50.8519,-0.834504,0
55.9881,-50.7475,-0.839103,0
55.998,-50.6429,-0.843429,0
56.0054,-50.5383,-0.847512,0
56.0102,-50.4337,-0.851325,0
56.0127,-50.3292,-0.854875,0
56.0125,-50.2248,-0.858166,0
56.0099,-50.1205,-0.861193,0
56.005,-50.0166,-0.863962,0
55.9991,-49.9129,-0.866174,0
49.5876,-53.8793,-0.126188,0
49.6744,-53.9411,-0.130314,0
50.9706,-54.3903,-0.217311,0
51.0745,-54.4146,-0.22529,0
51.1789,-54.4365,-0.233342,0
51.2842,-54.4561,-0.241471,0
51.3901,-54.4732,-0.249684,0
51.4965,-54.4857,-0.258635,0
51.6034,-54.4919,-0.268805,0
51.7104,-54.4956,-0.278986,0
51.8176,-54.4969,-0.289167,0
51.9249,-54.4959,-0.299333,0
52.0323,-54.4924,-0.309499,0
52.1395,-54.4865,-0.31964,0
52.2469,-54.4783,-0.329762,0
52.354,-54.4675,-0.33986,0
52.4609,-54.4544,-0.349933,0
52.5677,-54.4389,-0.359963,0
52.673,-54.4158,-0.371403,0
52.7773,-54.3891,-0.383112,0
52.881,-54.3601,-0.394728,0
52.984,-54.3289,-0.406257,0
53.0863,-54.2953,-0.417687,0
53.1877,-54.2595,-0.429015,0
53.2883,-54.2215,-0.440221,0
53.388,-54.1812,-0.45132,0
53.4869,-54.1387,-0.462306,0
53.5848,-54.0941,-0.473166,0
53.6816,-54.0472,-0.483893,0
53.7774,-53.9982,-0.494489,0
53.8721,-53.9471,-0.504943,0
53.9656,-53.8939,-0.515261,0
54.058,-53.8386,-0.525427,0
54.1491,-53.7813,-0.535441,0
54.2391,-53.7219,-0.5453,0
54.3277,-53.6606,-0.554997,0
54.4148,-53.5972,-0.564533,0
54.5008,-53.5319,-0.573884,0
54.5852,-53.4647,-0.583078,0
54.6681,-53.3956,-0.592077,0
54.7462,-53.321,-0.602009,0
54.8169,-53.2393,-0.613415,0
54.8855,-53.156,-0.62465,0
54.9519,-53.0712,-0.63569,0
55.0159,-52.9849,-0.646525,0
55.0783,-52.8978,-0.657023,0
55.1395,-52.8102,-0.667018,0
55.1984,-52.7212,-0.676818,0
55.2549,-52.631,-0.686428,0
55.3091,-52.5395,-0.695842,0
55.3609,-52.4468,-0.705051,0
55.4102,-52.3531,-0.71405,0
55.4571,-52.2583,-0.722844,0
55.5016,-52.1625,-0.731418,0
55.5435,-52.0659,-0.739777,0
55.583,-51.9685,-0.747897,0
55.6201,-51.8703,-0.755803,0
55.6546,-51.7714,-0.763473,0
55.6866,-51.6719,-0.770905,0
55.7162,-51.5718,-0.778097,0
55.7431,-51.4713,-0.785051,0
55.7677,-51.3703,-0.79176,0
55.7897,-51.269,-0.79822,0
55.8092,-51.1674,-0.804435,0
55.8262,-51.0656,-0.810402,0
55.8408,-50.9636,-0.81611,0
55.8536,-50.8616,-0.821437,0
55.8666,-50.7601,-0.826003,0
55.8772,-50.6585,-0.830319,0
55.8853,-50.5567,-0.834391,0
55.891,-50.455,-0.8382,0
55.8943,-50.3533,-0.841764,0
55.8952,-50.2517,-0.84507,0
55.8937,-50.1502,-0.848117,0
55.8899,-50.049,-0.850895,0
55.8893,-49.948,-0.852419,0
49.6955,-53.8231,-0.132575,0
49.7814,-53.8821,-0.136628,0
49.8688,-53.9394,-0.140783,0
49.9578,-53.9951,-0.145036,0
50.0483,-54.0491,-0.149391,0
50.1409,-54.0995,-0.154479,0
50.2367,-54.1424,-0.161642,0
50.3336,-54.1831,-0.168918,0
50.4316,-54.2218,-0.176296,0
50.5305,-54.2582,-0.183776,0
50.6305,-54.2925,-0.191359,0
50.7316,-54.3245,-0.199035,0
50.8334,-54.3542,-0.206808,0
50.9362,-54.3816,-0.214675,0
51.0397,-54.4067,-0.222614,0
