72.7416,-44.0665,-3.09548,0
72.8625,-43.593,-3.10117,0
73.121,-43.0484,-3.11364,0
73.4365,-42.4563,-3.12843,0
73.7485,-41.8393,-3.14228,0
74.0669,-41.1913,-3.15563,0
74.667,-40.3656,-3.18298,0
75.4645,-39.3822,-3.21959,0
76.7598,-38.0451,-3.28083,0
72.0363,-40.3261,-3.02759,174
65.1736,-59.5023,-2.18761,174
65.2044,-59.1102,-2.21659,174
65.3659,-58.8638,-2.24443,174
65.7679,-58.8486,-2.27308,174
70.3,-62.5469,-2.33925,174
72.9432,-62.9983,-2.48462,174
73.1408,-62.5471,-2.52456,174
73.6483,-62.3238,-2.56979,174
68.5121,-57.0789,-2.55282,174
68.5383,-56.7272,-2.57304,174
68.7044,-56.4566,-2.59673,174
80.0088,-61.7211,-2.98122,174
80.7946,-61.4251,-3.04045,174
82.5161,-61.5129,-3.13308,0
81.7866,-60.5052,-3.1393,0
76.8381,-57.913,-2.98366,174
76.8806,-57.396,-3.00856,174
76.9996,-56.9111,-3.03551,0
75.8207,-56.0246,-3.00864,0
75.2511,-55.3782,-3.00389,0
74.9882,-54.8463,-3.01026,0
74.7143,-54.3299,-3.01484,0
74.4201,-53.8272,-3.01721,0
74.2534,-53.3668,-3.02411,0
73.9662,-52.8979,-3.02446,0
73.6806,-52.4458,-3.02377,0
73.4004,-52.0102,-3.02226,0
73.1253,-51.5903,-3.01998,0
72.8551,-51.1851,-3.01698,0
72.6211,-50.7953,-3.01485,0
72.5447,-50.4214,-3.01974,0
72.4937,-50.0515,-3.02527,0
72.4391,-49.684,-3.03003,0
72.381,-49.3189,-3.034,0
72.3083,-48.9567,-3.03665,0
72.2218,-48.5978,-3.03801,0
72.1926,-48.2352,-3.04178,0
72.2044,-47.8666,-3.04718,0
72.2113,-47.496,-3.05181,0
72.2132,-47.1232,-3.05567,0
72.2103,-46.7482,-3.05875,0
72.2023,-46.3711,-3.06104,0
72.1892,-45.9916,-3.06253,0
72.3209,-45.5682,-3.07125,0
72.4516,-45.1337,-3.07942,0
72.5754,-44.6893,-3.08667,0
72.6979,-44.2331,-3.09326,0
72.8193,-43.7642,-3.09922,0
73.0106,-43.2533,-3.1083,0
73.3221,-42.6721,-3.12314,0
73.6372,-42.0634,-3.13744,0
73.9514,-41.4275,-3.15088,0
74.4086,-40.6892,-3.17101,0
75.1669,-39.7482,-3.20599,0
74.4197,-39.6139,-3.16069,174
78.4359,-36.6249,-3.36309,0
65.058,-59.4857,-2.0881,174
65.126,-59.1335,-2.11862,174
65.2853,-58.886,-2.14699,174
65.5716,-58.7638,-2.17403,174
70.2708,-62.6669,-2.19455,174
70.3392,-62.1589,-2.23388,174
72.8598,-63.0884,-2.3227,174
73.0204,-62.609,-2.36339,174
73.3983,-62.2959,-2.40515,174
68.5056,-57.1715,-2.44642,174
68.4658,-56.7808,-2.46661,174
68.6075,-56.4986,-2.48969,174
79.7886,-61.7859,-2.7775,174
80.322,-61.3783,-2.82596,174
80.2124,-60.6669,-2.85694,0
70.9765,-56.1287,-2.6278,174
76.6766,-57.9912,-2.81502,0
75.3931,-56.9878,-2.80024,0
74.4943,-56.1911,-2.79354,0
74.0316,-55.5859,-2.79819,0
73.7819,-55.0726,-2.80814,0
73.5453,-54.581,-2.81712,0
73.4209,-54.1334,-2.82881,0
73.2938,-53.6957,-2.83935,0
73.1395,-53.2628,-2.84784,0
72.8887,-52.8241,-2.85159,0
72.6417,-52.4007,-2.85437,0
72.3983,-51.9918,-2.85622,0
72.0852,-51.5893,-2.85424,0
71.811,-51.2059,-2.85281,0
71.6324,-50.8417,-2.85445,0
71.5791,-50.4909,-2.86059,0
71.521,-50.1429,-2.86591,0
71.4584,-49.7977,-2.87039,0
71.3912,-49.4554,-2.87404,0
71.337,-49.1149,-2.87766,0
71.2827,-48.7759,-2.8807,0
71.2237,-48.4385,-2.88294,0
71.2271,-48.0944,-2.88742,0
71.2315,-47.7479,-2.89142,0
71.2311,-47.3997,-2.89465,0
71.2259,-47.0496,-2.89713,0
71.2157,-46.6978,-2.89882,0
71.2005,-46.344,-2.89973,0
71.1802,-45.9883,-2.89984,0
71.2862,-45.592,-2.90523,0
71.41,-45.1796,-2.91087,0
71.532,-44.7562,-2.91581,0
71.652,-44.3212,-2.92002,0
69.9367,-44.6021,-2.83903,174
71.936,-43.3929,-2.92843,0
72.2048,-42.8484,-2.93733,0
72.4694,-42.2822,-2.94517,0
72.7269,-41.6949,-2.95177,0
72.9917,-41.078,-2.95771,0
73.5584,-40.2627,-2.97594,0
73.3865,-39.8407,-2.96034,174
75.2423,-38.1414,-3.03181,0
79.235,-34.8958,-3.19132,174
65.0874,-59.243,-2.10803,174
65.1994,-58.9449,-2.13717,174
65.4452,-58.7854,-2.16446,174
77.7802,-69.8519,-2.16079,174
70.3102,-62.335,-2.22,174
70.513,-61.952,-2.25853,174
72.9295,-63.3656,-2.30848,174
72.9523,-62.7716,-2.34888,174
73.21,-62.37,-2.38967,174
68.5707,-57.3453,-2.43982,174
68.4319,-56.8919,-2.45854,174
68.5375,-56.5893,-2.48106,174
68.899,-56.4209,-2.50893,174
80.0587,-61.4911,-2.80681,174
80.3744,-60.9759,-2.84931,0
78.4989,-59.5124,-2.83006,0
77.221,-58.4036,-2.8217,0
75.7171,-57.2873,-2.8019,0
74.8402,-56.4788,-2.79704,0
74.1218,-55.7746,-2.79428,0
73.8711,-55.2544,-2.80473,0
73.623,-54.7533,-2.81381,0
73.4658,-54.2927,-2.82476,0
73.3396,-53.8515,-2.8357,0
73.2109,-53.42,-2.84552,0
72.9782,-52.9795,-2.85036,0
72.7298,-52.5508,-2.85348,0
72.4851,-52.1368,-2.85566,0
72.2027,-51.7323,-2.85529,0
71.8809,-51.3392,-2.85227,0
71.6858,-50.9705,-2.85351,0
71.5987,-50.6163,-2.85849,0
71.5423,-50.2673,-2.8641,0
71.4813,-49.9211,-2.86887,0
71.4158,-49.5778,-2.87282,0
71.3554,-49.2368,-2.87639,0
71.3026,-48.8972,-2.8797,0
71.2454,-48.5593,-2.88222,0
71.2244,-48.2182,-2.88581,0
71.2305,-47.8723,-2.89008,0
71.2318,-47.5247,-2.89358,0
71.2284,-47.1753,-2.89633,0
71.2199,-46.8241,-2.8983,0
71.2065,-46.471,-2.8995,0
71.188,-46.116,-2.89988,0
71.2413,-45.7371,-2.90304,0
71.3659,-45.3287,-2.90892,0
71.4885,-44.9093,-2.91412,0
71.6092,-44.4785,-2.9186,0
71.7315,-44.0344,-2.92249,0
71.8684,-43.5707,-2.92637,0
72.1076,-43.0466,-2.93421,0
72.3787,-42.486,-2.94265,0
72.6338,-41.9087,-2.94947,0
72.8959,-41.3026,-2.95566,0
73.3357,-40.5712,-2.9687,0
73.9741,-39.6843,-2.98919,0
71.9268,-40.4002,-2.89121,174
76.9908,-36.6185,-3.09994,0
65.0484,-59.3533,-2.09729,174
65.1563,-59.0477,-2.12688,174
65.3534,-58.8394,-2.15473,174
65.7291,-58.8001,-2.18142,174
70.2811,-62.5131,-2.20589,174
70.3912,-62.0463,-2.24474,174
72.8925,-62.9417,-2.33427,174
73.0955,-62.4972,-2.37495,174
73.5825,-62.2612,-2.41781,174
68.4557,-57.0371,-2.4515,174
68.4925,-56.6934,-2.47291,174
68.6822,-56.4369,-2.49692,174
79.8648,-61.6349,-2.7894,174
80.4848,-61.2656,-2.83997,0
79.9154,-60.3518,-2.85807,0
77.6541,-58.7816,-2.82453,0
76.2248,-57.6651,-2.80863,0
75.145,-56.759,-2.79886,0
74.3093,-55.9986,-2.79332,0
73.9606,-55.4387,-2.80114,0
73.7116,-54.9308,-2.81071,0
73.5104,-54.4533,-2.82055,0
73.3852,-54.0085,-2.83192,0
73.2573,-53.5736,-2.84213,0
73.0681,-53.137,-2.84901,0
72.8184,-52.7027,-2.85247,0
72.5724,-52.2835,-2.85498,0
72.3211,-51.8776,-2.85623,0
71.9932,-51.4779,-2.85335,0
71.7557,-51.1015,-2.85316,0
71.6178,-50.7421,-2.85627,0
71.5631,-50.3921,-2.86218,0
71.5037,-50.0449,-2.86726,0
71.4398,-49.7006,-2.87151,0
71.3732,-49.3589,-2.87502,0
71.322,-49.0187,-2.8786,0
71.2664,-48.6802,-2.88141,0
71.2211,-48.3417,-2.88409,0
71.2288,-47.9965,-2.88863,0
71.2319,-47.6495,-2.89241,0
71.2302,-47.3008,-2.89543,0
71.2234,-46.9502,-2.89769,0
71.2118,-46.5978,-2.89916,0
71.1952,-46.2435,-2.89984,0
71.1963,-45.881,-2.90077,0
71.3215,-45.4763,-2.90689,0
71.4448,-45.0609,-2.91234,0
71.5662,-44.6343,-2.91707,0
71.6856,-44.1959,-2.92109,0
71.8194,-43.7386,-2.92507,0
72.0113,-43.2414,-2.93101,0
72.2823,-42.6893,-2.93976,0
72.5415,-42.1188,-2.9471,0
72.8011,-41.5233,-2.95352,0
73.1195,-40.8697,-2.96155,0
73.7391,-40.0117,-2.98175,0
71.9732,-40.5468,-2.89616,174
75.9734,-37.505,-3.06034,0
64.97,-59.3758,-1.999,174
65.0851,-59.0779,-2.02963,174
65.2782,-58.8666,-2.05769,174
65.5484,-58.7297,-2.08406,174
70.2507,-62.6316,-2.06107,174
70.3202,-62.1263,-2.10233,174
70.6012,-61.8135,-2.1405,174
72.8138,-63.0349,-2.173,174
72.9766,-62.5597,-2.21473,174
73.3436,-62.2407,-2.25547,174
80.5781,-66.6474,-2.3277,0
79.8808,-65.3907,-2.37513,0
79.7127,-64.5324,-2.42168,0
68.4537,-57.1318,-2.34542,174
68.4204,-56.7468,-2.36721,174
68.5824,-56.4771,-2.39056,174
78.0014,-60.8706,-2.56189,0
76.6665,-59.6254,-2.57244,0
75.6584,-58.6133,-2.58355,0
69.2739,-55.4043,-2.47983,174
73.7541,-56.8284,-2.59532,0
70.1325,-55.0417,-2.53368,174
72.8202,-55.6094,-2.616,0
72.6857,-55.1513,-2.63157,0
72.5883,-54.7167,-2.64685,0
72.4875,-54.2913,-2.66091,0
72.3836,-53.8748,-2.67379,0
72.2566,-53.4625,-2.68493,0
71.9912,-53.0329,-2.69081,0
71.6978,-52.6144,-2.69458,0
71.4102,-52.2132,-2.69734,0
71.1756,-51.8345,-2.70069,0
71.0071,-51.4754,-2.70525,0
70.838,-51.1255,-2.7089,0
70.7048,-50.7866,-2.71297,0
70.6586,-50.4575,-2.71934,0
70.6091,-50.1309,-2.72494,0
70.5729,-49.8066,-2.73038,0
70.5322,-49.4838,-2.73505,0
70.487,-49.1627,-2.73894,0
70.4375,-48.8431,-2.74206,0
70.3834,-48.525,-2.74441,0
70.3664,-48.2032,-2.74758,0
70.3677,-47.8775,-2.75089,0
70.3644,-47.5504,-2.75344,0
70.3562,-47.2217,-2.75524,0
70.3433,-46.8915,-2.75629,0
70.3255,-46.5597,-2.75656,0
70.3027,-46.2263,-2.75606,0
70.2946,-45.8855,-2.75552,0
70.3959,-45.5056,-2.75863,0
70.5062,-45.1122,-2.76145,0
70.6191,-44.7067,-2.76369,0
69.9164,-44.6127,-2.73392,174
70.839,-43.861,-2.76579,0
70.9588,-43.4139,-2.76606,0
71.1805,-42.9033,-2.76931,0
71.407,-42.3689,-2.77177,0
71.6386,-41.8087,-2.77339,0
71.8388,-41.2418,-2.77275,0
71.9812,-40.6854,-2.76885,174
69.8281,-41.5476,-2.68377,174
73.2048,-38.8857,-2.78959,0
74.8197,-37.2072,-2.83032,0
64.9852,-59.5478,-1.9862,174
65.0399,-59.1795,-2.01889,174
65.2004,-58.9335,-2.04786,174
65.4456,-58.7738,-2.0747,174
77.8147,-69.8573,-1.9528,174
70.2912,-62.3018,-2.08781,174
70.4636,-61.8945,-2.12713,174
72.8105,-63.2521,-2.15748,174
72.9018,-62.7163,-2.19996,174
73.1562,-62.3147,-2.24083,174
80.9266,-67.1843,-2.30965,0
80.0416,-65.7736,-2.35825,0
79.784,-64.8433,-2.40545,0
68.518,-57.3042,-2.33782,174
68.3992,-56.8645,-2.35915,174
68.5127,-56.5675,-2.38209,174
68.8519,-56.3887,-2.40783,174
77.0226,-60.0021,-2.56725,0
76.0239,-58.9703,-2.58016,0
70.8895,-56.2241,-2.50573,174
74.0519,-57.1131,-2.59343,0
70.0784,-55.1492,-2.52623,174
72.8931,-55.7855,-2.6107,0
72.7198,-55.3094,-2.62578,0
72.6235,-54.8714,-2.64152,0
72.524,-54.4427,-2.656,0
72.4212,-54.0231,-2.66929,0
72.3055,-53.6098,-2.68116,0
72.098,-53.1874,-2.6892,0
71.8023,-52.7623,-2.69336,0
71.5127,-52.3551,-2.69646,0
71.2359,-51.9656,-2.69883,0
71.0676,-51.603,-2.70372,0
70.8986,-51.2499,-2.70769,0
70.729,-50.9057,-2.71078,0
70.6757,-50.5751,-2.71715,0
70.6265,-50.2477,-2.72299,0
70.5864,-49.9226,-2.72852,0
70.5473,-49.5993,-2.73347,0
70.5037,-49.2776,-2.73763,0
70.4558,-48.9575,-2.74103,0
70.4034,-48.6389,-2.74365,0
70.3648,-48.3196,-2.74622,0
70.3678,-47.9945,-2.74979,0
70.3661,-47.6678,-2.75261,0
70.3597,-47.3397,-2.75468,0
70.3484,-47.01,-2.756,0
70.3324,-46.6788,-2.75655,0
70.3114,-46.346,-2.75633,0
70.2855,-46.0115,-2.75532,0
70.3598,-45.6428,-2.7576,0
70.4653,-45.2549,-2.76047,0
70.5788,-44.8533,-2.76298,0
70.6905,-44.4405,-2.76473,0
70.8002,-44.0161,-2.76566,0
70.9079,-43.5794,-2.76576,0
71.1005,-43.089,-2.76824,0
71.3252,-42.5633,-2.77098,0
69.1802,-43.2605,-2.68556,174
71.7717,-41.4451,-2.77328,0
72.0263,-40.8309,-2.77382,0
69.8413,-41.6919,-2.68743,174
73.0181,-39.203,-2.78758,0
73.9645,-38.0115,-2.80687,0
72.1638,-38.7029,-2.73312,174
65.001,-59.2888,-2.00784,174
65.136,-59.0141,-2.03771,174
65.3461,-58.8201,-2.0653,174
65.7051,-58.7655,-2.09044,174
70.2659,-62.4828,-2.073,174
70.3734,-62.0151,-2.1134,174
72.9438,-63.5844,-2.14102,174
72.8456,-62.8882,-2.185,174
73.0506,-62.4476,-2.22629,174
73.5268,-62.206,-2.26716,174
80.3385,-66.2558,-2.3415,0
79.8384,-65.1478,-2.38867,0
79.6489,-64.2851,-2.43413,0
68.4121,-57.0028,-2.35135,174
68.4489,-56.6609,-2.37364,174
68.6601,-56.4172,-2.39755,174
77.4062,-60.4013,-2.56189,0
76.3941,-59.3381,-2.57629,0
75.3795,-58.3418,-2.58601,0
69.3338,-55.3315,-2.4861,174
73.5948,-56.6377,-2.5982,0
73.055,-55.9959,-2.60728,0
72.7627,-55.4719,-2.62006,0
72.6584,-55.0273,-2.63602,0
72.5601,-54.5953,-2.65096,0
72.4584,-54.1725,-2.66467,0
72.3536,-53.7584,-2.67722,0
72.2054,-53.3443,-2.68744,0
71.9076,-52.9126,-2.69198,0
71.6158,-52.4991,-2.69547,0
71.3298,-52.1027,-2.69794,0
71.128,-51.7319,-2.70207,0
70.9593,-51.3754,-2.70637,0
70.7899,-51.0281,-2.70978,0
70.6922,-50.6931,-2.71486,0
70.6447,-50.3648,-2.72099,0
70.5993,-50.0389,-2.72656,0
70.5618,-49.7151,-2.73178,0
70.5199,-49.3927,-2.73623,0
70.4734,-49.0721,-2.73989,0
70.4227,-48.7529,-2.7428,0
70.3673,-48.4353,-2.74494,0
70.3673,-48.1112,-2.74859,0
70.3673,-47.7851,-2.75168,0
70.3626,-47.4575,-2.75403,0
70.353,-47.1283,-2.75562,0
70.3387,-46.7977,-2.75645,0
70.3195,-46.4654,-2.7565,0
70.2954,-46.1316,-2.75577,0
70.3236,-45.7789,-2.75648,0
70.4242,-45.3962,-2.75939,0
70.5383,-44.9986,-2.76216,0
70.6506,-44.5898,-2.76418,0
69.877,-44.5272,-2.73155,174
70.8695,-43.7373,-2.76582,0
71.0211,-43.2717,-2.76706,0
71.2441,-42.7546,-2.77009,0
69.2475,-43.3588,-2.69013,174
71.7047,-41.6455,-2.77367,0
71.892,-41.079,-2.77223,0
69.958,-41.7724,-2.69464,174
72.8359,-39.5111,-2.78549,0
73.3555,-38.6282,-2.79111,0
75.5608,-36.5094,-2.85055,0
64.9232,-59.3113,-1.91039,174
65.0868,-59.067,-1.94026,174
65.271,-58.8473,-1.96864,174
65.5476,-58.7172,-1.9941,174
70.2356,-62.6009,-1.92802,174
70.3013,-62.0938,-1.97127,174
70.5755,-61.7767,-2.00935,174
72.768,-62.9818,-2.02428,174
72.9332,-62.5107,-2.06698,174
77.3763,-65.1375,-2.0807,0
77.3325,-64.3929,-2.13153,0
77.271,-63.6616,-2.1795,0
69.2572,-57.9993,-2.22108,174
68.4022,-57.0924,-2.24535,174
68.3755,-56.7131,-2.26863,174
68.5574,-56.4556,-2.29191,174
74.3984,-59.0438,-2.36029,0
73.7644,-58.2347,-2.38409,0
73.0129,-57.4188,-2.40303,0
69.2502,-55.3874,-2.37978,174
71.9538,-56.1107,-2.43652,0
69.9963,-54.985,-2.42702,174
71.6518,-55.2022,-2.47232,0
71.5575,-54.7869,-2.48911,0
71.4587,-54.3804,-2.50464,0
71.3312,-53.976,-2.51841,0
71.1915,-53.5792,-2.53078,0
71.0041,-53.1828,-2.54094,0
70.7562,-52.7868,-2.54856,0
70.5636,-52.4151,-2.55629,0
70.4201,-52.0623,-2.56417,0
70.275,-51.7181,-2.57109,0
70.1286,-51.3824,-2.57706,0
69.9809,-51.0547,-2.58214,0
69.8908,-50.7382,-2.58797,0
69.8637,-50.4286,-2.59485,0
69.8291,-50.1206,-2.60086,0
69.7891,-49.8144,-2.60607,0
69.7438,-49.51,-2.61049,0
69.6931,-49.2075,-2.61412,0
69.6371,-48.9069,-2.61697,0
69.5948,-48.6063,-2.61961,0
69.5935,-48.301,-2.62292,0
69.5924,-47.9939,-2.62565,0
69.5865,-47.6856,-2.62765,0
69.5759,-47.3761,-2.62891,0
69.5605,-47.0652,-2.62942,0
69.5403,-46.7532,-2.62918,0
69.5151,-46.4398,-2.62818,0
69.4685,-46.1301,-2.62589,0
69.4744,-45.8016,-2.62462,0
69.586,-45.4315,-2.62598,0
69.6952,-45.0514,-2.62657,0
69.8016,-44.6608,-2.62633,0
69.9014,-44.261,-2.6251,0
69.9859,-43.8558,-2.62262,0
70.0748,-43.4362,-2.61939,0
70.2384,-42.9654,-2.61744,0
69.2098,-43.1147,-2.58045,174
70.523,-41.9913,-2.60916,0
70.0522,-41.8409,-2.58663,174
69.787,-41.5792,-2.56927,174
71.2418,-40.188,-2.59536,0
71.6784,-39.3923,-2.59256,0
72.1128,-38.5526,-2.58757,0
73.9679,-36.5815,-2.61233,0
64.8837,-59.4212,-1.89875,174
65.0222,-59.1478,-1.92986,174
65.2019,-58.9227,-1.95864,174
65.446,-58.7622,-1.98504,174
70.2723,-62.2687,-1.95612,174
70.4514,-61.8686,-1.9962,174
72.7645,-63.1978,-2.00788,174
72.8546,-62.6636,-2.05205,174
73.2897,-62.397,-2.09171,174
73.827,-62.1913,-2.1307,174
77.2979,-63.9241,-2.16262,0
69.2007,-58.1098,-2.21128,174
68.4657,-57.2636,-2.23678,174
68.3672,-56.8376,-2.26037,174
68.4879,-56.5458,-2.2836,174
68.8181,-56.3633,-2.30766,174
73.9686,-58.5082,-2.37577,0
73.2427,-57.6873,-2.39625,0
72.6973,-56.9935,-2.41528,0
69.4808,-55.2607,-2.39478,174
69.9586,-55.0973,-2.41998,174
71.6844,-55.3533,-2.46598,0
71.5918,-54.9347,-2.48324,0
71.4947,-54.5251,-2.49922,0
71.3805,-54.1207,-2.51368,0
71.2419,-53.7203,-2.52648,0
71.0938,-53.3286,-2.53794,0
70.8446,-52.9269,-2.54597,0
70.6146,-52.5438,-2.55321,0
70.4717,-52.1878,-2.56146,0
70.3272,-51.8405,-2.56872,0
70.1813,-51.5018,-2.57502,0
70.0339,-51.1712,-2.58042,0
69.8981,-50.8494,-2.58528,0
69.8748,-50.5394,-2.5925,0
69.8422,-50.2308,-2.5988,0
69.8041,-49.9239,-2.6043,0
69.7607,-49.6189,-2.609,0
69.7119,-49.3157,-2.61291,0
69.6577,-49.0144,-2.61604,0
69.5984,-48.7151,-2.61839,0
69.5927,-48.4107,-2.62176,0
69.5933,-48.1041,-2.62475,0
69.5891,-47.7963,-2.62702,0
69.5802,-47.4872,-2.62854,0
69.5666,-47.1768,-2.62932,0
69.548,-46.8652,-2.62936,0
69.5247,-46.5523,-2.62862,0
69.4894,-46.2401,-2.62691,0
69.4339,-45.9319,-2.62393,0
69.5463,-45.5653,-2.62559,0
69.6563,-45.1888,-2.62645,0
69.7637,-44.8021,-2.62652,0
69.8683,-44.4046,-2.62571,0
67.8879,-44.9138,-2.56134,174
70.0386,-43.5901,-2.6205,0
70.1871,-43.1326,-2.61846,0
69.1654,-43.2724,-2.58181,174
70.4723,-42.1712,-2.61097,0
70.6134,-41.6632,-2.60553,0
69.793,-41.7273,-2.57318,174
71.0917,-40.4584,-2.59604,0
71.5188,-39.6848,-2.59372,0
71.9644,-38.8538,-2.58978,0
73.203,-37.3804,-2.60181,0
64.9576,-59.2288,-1.91936,174
65.1376,-59.0032,-1.9484,174
65.345,-58.8069,-1.97596,174
65.7285,-58.7757,-1.99893,174
70.2507,-62.4525,-1.94055,174
70.3563,-61.9846,-1.98251,174
70.9125,-61.8998,-2.01644,174
72.7991,-62.8352,-2.03671,174
73.0254,-62.4129,-2.0784,174
74.1866,-62.6605,-2.11353,174
77.3178,-64.1851,-2.14539,0
77.2476,-63.4552,-2.19257,0
68.6041,-57.4835,-2.22802,174
68.374,-56.9719,-2.25202,174
68.4185,-56.6358,-2.27523,174
68.6381,-56.3977,-2.29861,174
74.1537,-58.7778,-2.36685,0
73.5301,-57.9884,-2.38963,0
72.8722,-57.2287,-2.40856,0
69.2964,-55.3092,-2.38566,174
71.8633,-55.96,-2.44125,0
71.7166,-55.5056,-2.45947,0
71.6256,-55.0837,-2.47721,0
71.53,-54.6709,-2.49364,0
71.4295,-54.2667,-2.50879,0
71.292,-53.8627,-2.52203,0
71.1513,-53.4688,-2.53406,0
70.9336,-53.0691,-2.54323,0
70.6867,-52.6776,-2.5505,0
70.523,-52.3143,-2.55862,0
70.3791,-51.964,-2.56623,0
70.2337,-51.6223,-2.57287,0
70.0869,-51.2888,-2.57859,0
69.9387,-50.9634,-2.58342,0
69.8845,-50.6504,-2.59002,0
69.8545,-50.3412,-2.59663,0
69.8184,-50.0337,-2.60242,0
69.7769,-49.728,-2.6074,0
69.73,-49.4241,-2.61159,0
69.6777,-49.1222,-2.61501,0
69.6203,-48.8221,-2.61763,0
69.5941,-48.52,-2.6206,0
69.5937,-48.2142,-2.62376,0
69.5912,-47.9068,-2.62629,0
69.584,-47.5981,-2.62808,0
69.572,-47.2882,-2.62913,0
69.5553,-46.9771,-2.62944,0
69.5337,-46.6646,-2.62898,0
69.5071,-46.3509,-2.62776,0
69.4515,-46.0432,-2.625,0
69.5062,-45.6978,-2.62507,0
69.6172,-45.325,-2.62623,0
69.7255,-44.9419,-2.62658,0
69.8311,-44.5484,-2.62611,0
67.8291,-45.0511,-2.56109,174
70.0093,-43.7391,-2.62174,0
70.126,-43.3024,-2.61907,0
69.256,-43.3584,-2.58694,174
70.4215,-42.3487,-2.61264,0
70.563,-41.8475,-2.60761,0
69.8855,-41.8217,-2.57931,174
70.9448,-40.7216,-2.59657,0
71.3627,-39.969,-2.5947,0
71.807,-39.1554,-2.5915,0
72.5058,-38.1072,-2.59205,0
75.74,-35.0323,-2.64607,0
75.4266,-72.76,-1.15198,0
64.8021,-59.5951,-1.78722,174
64.9082,-59.2817,-1.82141,174
65.0884,-59.056,-1.85095,174
65.2703,-58.8344,-1.87958,174
65.5554,-58.7128,-1.90396,174
70.2729,-62.618,-1.7938,174
70.2824,-62.0614,-1.84069,174
67.7776,-59.4379,-1.94468,174
72.7113,-62.9201,-1.87675,174
72.8732,-62.4492,-1.92042,174
73.372,-62.2301,-1.95729,174
74.6559,-62.5352,-1.98441,0
74.5098,-61.8377,-2.02999,0
69.255,-57.9878,-2.11313,174
68.3632,-57.0604,-2.14614,174
68.3595,-56.6958,-2.17073,174
68.5399,-56.4382,-2.19371,174
69.0306,-56.3347,-2.21617,174
69.3257,-56.1185,-2.23883,174
71.1395,-56.5723,-2.26664,0
69.2476,-55.3794,-2.28025,174
70.716,-55.6159,-2.30907,0
70.652,-55.2192,-2.32882,0
70.5641,-54.8237,-2.34709,0
70.4614,-54.4336,-2.36396,0
70.3545,-54.0524,-2.37957,0
70.2438,-53.68,-2.39395,0
70.1198,-53.3138,-2.40703,0
69.9709,-52.9518,-2.41863,0
69.8414,-52.6039,-2.42944,0
69.6828,-52.26,-2.43873,0
69.5223,-51.9256,-2.44699,0
69.3602,-51.6004,-2.45424,0
69.2211,-51.2868,-2.46099,0
69.0965,-50.9822,-2.46716,0
69.0409,-50.688,-2.47394,0
69.0162,-50.3982,-2.48067,0
68.9863,-50.1099,-2.48662,0
68.9512,-49.8231,-2.49181,0
68.9108,-49.5379,-2.49626,0
68.8938,-49.2527,-2.5006,0
68.8974,-48.9658,-2.50481,0
68.8966,-48.6782,-2.50831,0
68.8918,-48.3897,-2.51113,0
68.8887,-48.0995,-2.51339,0
68.8809,-47.8083,-2.51493,0
68.8687,-47.516,-2.51575,0
68.8516,-47.2226,-2.51585,0
68.8252,-46.9294,-2.5151,0
68.7752,-46.6404,-2.51317,0
68.7202,-46.3517,-2.51047,0
68.6602,-46.0631,-2.50702,0
68.6853,-45.7439,-2.50494,0
68.7728,-45.3952,-2.50363,0
68.8573,-45.0378,-2.50148,0
67.888,-45.116,-2.47474,174
69.0157,-44.296,-2.49454,0
69.0893,-43.911,-2.48965,0
69.1589,-43.5162,-2.48377,0
69.27,-43.0867,-2.47776,0
69.3845,-42.6397,-2.47075,0
69.4965,-42.1772,-2.46254,0
69.6058,-41.6985,-2.45304,0
69.712,-41.203,-2.4422,0
66.853,-42.7399,-2.38254,174
70.2067,-39.9458,-2.42044,0
70.5072,-39.2281,-2.40742,0
70.884,-38.4103,-2.39304,0
72.0595,-36.8768,-2.38463,0
75.4159,-73.1274,-1.11705,0
75.4413,-72.1146,-1.21266,0
64.8433,-59.363,-1.81063,174
65.024,-59.1367,-1.84045,174
65.2043,-58.9128,-1.86944,174
65.452,-58.7561,-1.89526,174
66.1223,-58.9861,-1.90746,174
68.0136,-60.256,-1.88798,174
70.4425,-61.8455,-1.86554,174
70.936,-61.7068,-1.89811,174
67.1267,-58.2411,-2.01243,174
73.1724,-62.2951,-1.94439,174
66.8445,-57.2928,-2.07372,174
67.4606,-57.3548,-2.09264,174
69.1694,-58.0797,-2.10351,174
68.414,-57.2233,-2.13667,174
68.3353,-56.8108,-2.16218,174
68.4703,-56.5281,-2.18555,174
68.7862,-56.339,-2.20809,174
71.7858,-57.44,-2.23385,0
71.2363,-56.7613,-2.2583,0
69.3342,-55.5404,-2.27352,174
69.4463,-55.24,-2.29387,174
70.6755,-55.3605,-2.32189,0
70.5999,-54.9658,-2.34071,0
70.4987,-54.5724,-2.35806,0
70.3933,-54.188,-2.37412,0
70.2839,-53.8125,-2.38894,0
70.1709,-53.4456,-2.40256,0
70.0134,-53.0779,-2.41444,0
69.8942,-52.7289,-2.42577,0
69.7398,-52.3822,-2.43552,0
69.58,-52.0443,-2.44415,0
69.4184,-51.7159,-2.45175,0
66.4167,-51.0844,-2.40471,174
69.1414,-51.0906,-2.46505,0
69.0484,-50.7923,-2.47134,0
69.0256,-50.5019,-2.47834,0
68.9976,-50.2131,-2.48457,0
68.9643,-49.9257,-2.49004,0
68.9259,-49.6399,-2.49475,0
68.8914,-49.3553,-2.49892,0
68.8967,-49.0687,-2.50338,0
68.8974,-48.7814,-2.50714,0
68.8937,-48.4933,-2.51019,0
68.8903,-48.2037,-2.51266,0
68.8843,-47.9128,-2.51445,0
68.8735,-47.6209,-2.51554,0
68.8583,-47.3279,-2.5159,0
68.8383,-47.0339,-2.51553,0
68.7937,-46.744,-2.51395,0
68.7405,-46.4552,-2.51152,0
68.6823,-46.1665,-2.50835,0
68.6531,-45.8668,-2.50522,0
68.7419,-45.5212,-2.5042,0
68.8273,-45.1669,-2.50236,0
68.9096,-44.8039,-2.49965,0
67.8669,-44.9258,-2.47103,174
69.0634,-44.0501,-2.49152,0
69.1345,-43.6588,-2.486,0
69.2257,-43.2448,-2.47991,174
69.3438,-42.8017,-2.4734,0
69.4566,-42.3448,-2.46561,0
69.5669,-41.872,-2.4566,0
69.6744,-41.3826,-2.44625,0
69.7981,-40.8625,-2.43481,0
67.5401,-42.0209,-2.3855,174
70.3981,-39.4907,-2.41231,0
70.7062,-38.7424,-2.39795,0
71.6147,-37.4585,-2.38798,0
75.4348,-72.4745,-1.17899,0
64.7976,-59.4664,-1.79877,174
64.9593,-59.2176,-1.82986,174
65.1392,-58.9923,-1.85916,174
65.3502,-58.7999,-1.88651,174
65.7591,-58.7926,-1.90682,174
70.2357,-62.4224,-1.80852,174
70.3392,-61.9541,-1.85207,174
67.7713,-59.3097,-1.95476,174
67.0553,-58.3252,-2.00285,174
72.9897,-62.3704,-1.93126,174
73.5418,-62.1856,-1.96735,174
67.3958,-57.4418,-2.08382,174
69.1837,-58.2357,-2.09288,174
68.5217,-57.4236,-2.12653,174
68.3392,-56.9428,-2.15336,174
68.4009,-56.6177,-2.17733,174
68.6175,-56.3789,-2.20008,174
72.0216,-57.7123,-2.2243,0
69.2935,-56.0017,-2.24496,174
71.0637,-56.4253,-2.27303,0
69.2792,-55.2953,-2.28596,174
70.6984,-55.5028,-2.3148,0
70.6329,-55.1082,-2.33417,0
70.5355,-54.7123,-2.352,0
70.4316,-54.3247,-2.3685,0
70.3236,-53.946,-2.38377,0
70.2118,-53.5761,-2.39781,0
70.0604,-53.2062,-2.41018,0
69.9372,-52.853,-2.42184,0
69.7967,-52.5056,-2.43218,0
69.6376,-52.1643,-2.44118,0
69.4766,-51.8326,-2.44914,0
69.3139,-51.51,-2.45611,0
69.1862,-51.1999,-2.46283,0
69.0607,-50.8971,-2.46875,0
69.0345,-50.6059,-2.47592,0
69.0083,-50.3164,-2.48242,0
68.9769,-50.0285,-2.48817,0
68.9402,-49.7422,-2.49315,0
68.8985,-49.4574,-2.49738,0
68.8952,-49.1716,-2.50186,0
68.8977,-48.8845,-2.50587,0
68.8955,-48.5966,-2.50918,0
68.8913,-48.3077,-2.51184,0
68.887,-48.0172,-2.51389,0
68.8779,-47.7257,-2.51524,0
68.8643,-47.433,-2.51585,0
68.8459,-47.1394,-2.51575,0
68.8116,-46.8476,-2.51463,0
68.7602,-46.5587,-2.51248,0
68.7038,-46.27,-2.50957,0
68.6423,-45.9815,-2.50591,0
68.7104,-45.646,-2.50466,0
68.7971,-45.2949,-2.50311,0
68.8805,-44.9351,-2.50072,0
67.8352,-45.051,-2.47216,174
66.9244,-45.1558,-2.4468,174
69.1094,-43.8002,-2.48809,0
69.1865,-43.3981,-2.48209,0
69.3027,-42.9617,-2.4759,0
69.4165,-42.5103,-2.46855,0
69.5277,-42.0433,-2.45998,0
69.6362,-41.56,-2.45011,0
69.7243,-41.0711,-2.43858,0
69.998,-40.4328,-2.42858,0
70.2906,-39.7473,-2.41695,0
70.5943,-39.0163,-2.40335,0
71.1967,-38.0035,-2.39095,0
72.46,-36.3649,-2.38198,0
71.6561,-70.9717,-0.916257,0
66.3267,-63.012,-1.43442,174
71.5428,-68.9441,-1.11619,0
71.7459,-68.3288,-1.18795,0
64.7287,-59.4975,-1.70122,174
64.9116,-59.2722,-1.7318,174
65.0943,-59.0495,-1.76147,174
65.2817,-58.8336,-1.79005,174
65.5833,-58.7275,-1.81287,174
67.4764,-60.0591,-1.77223,174
67.9633,-60.0316,-1.79426,174
67.7603,-59.4113,-1.84005,174
67.0645,-58.4327,-1.89702,174
67.2062,-58.1524,-1.92534,174
70.1563,-59.8981,-1.88539,174
66.8555,-57.1651,-1.99261,174
72.369,-60.4238,-1.91597,0
66.6319,-56.3475,-2.04806,174
68.3253,-57.0292,-2.04761,174
68.4093,-56.7153,-2.07238,174
68.8957,-56.619,-2.09217,174
68.9499,-56.2862,-2.11598,174
70.1249,-56.4895,-2.13195,0
69.9092,-56.0148,-2.15678,0
69.2383,-55.3686,-2.18084,174
69.6502,-55.19,-2.20047,0
69.5519,-54.8088,-2.22003,0
69.4474,-54.4363,-2.23825,0
69.3372,-54.0723,-2.25518,0
66.368,-52.8862,-2.25847,174
69.2391,-53.4069,-2.28607,0
69.1287,-53.0687,-2.2996,0
69.0013,-52.7355,-2.31193,0
68.871,-52.4108,-2.32318,0
68.738,-52.0944,-2.33338,0
68.6339,-51.7907,-2.3429,0
66.5949,-51.2527,-2.3298,174
66.4329,-51.0009,-2.33545,174
68.3187,-50.9183,-2.36625,0
68.2904,-50.6438,-2.37342,0
68.2692,-50.3715,-2.38003,0
68.2431,-50.1004,-2.3859,0
68.2508,-49.8303,-2.39162,0
68.2617,-49.5595,-2.39679,0
68.2684,-49.288,-2.40127,0
68.2708,-49.0157,-2.40509,0
68.2688,-48.7429,-2.40822,0
68.2624,-48.4693,-2.41067,0
68.2563,-48.1945,-2.41251,0
68.2473,-47.9185,-2.41368,0
68.2336,-47.6416,-2.41416,0
68.1984,-47.3677,-2.41362,0
68.1548,-47.0946,-2.41234,0
68.1064,-46.8217,-2.41032,0
68.0532,-46.5492,-2.40758,0
67.9952,-46.2769,-2.40413,0
67.9323,-46.005,-2.39994,0
67.9705,-45.6943,-2.39668,0
68.0376,-45.3651,-2.39312,0
68.1009,-45.0284,-2.38869,0
66.8767,-45.2619,-2.36501,174
68.2157,-44.3318,-2.37711,0
68.2668,-43.9715,-2.36989,0
68.3132,-43.6028,-2.36164,0
68.3839,-43.2093,-2.35266,0
68.4667,-42.7951,-2.34271,0
68.5459,-42.3681,-2.33152,0
68.5567,-41.9701,-2.31847,0
66.8254,-42.7644,-2.29148,174
67.0435,-42.2493,-2.27945,174
68.6958,-40.6153,-2.27235,0
66.3522,-42.0347,-2.24647,174
69.2424,-39.2418,-2.23464,0
69.4218,-38.5787,-2.21197,0
69.9434,-37.5668,-2.18606,0
70.5394,-36.4166,-2.15569,0
66.2654,-63.1524,-1.41674,174
71.5877,-69.3207,-1.08074,0
71.6755,-68.5494,-1.1625,0
64.7263,-59.6523,-1.686,174
64.8458,-59.3523,-1.72096,174
65.0289,-59.1291,-1.75094,174
65.211,-58.9072,-1.78008,174
65.4635,-58.7553,-1.8052,174
66.1548,-59.0041,-1.81196,174
67.845,-60.0935,-1.78412,174
67.8749,-59.6652,-1.82262,174
67.7977,-59.1652,-1.86237,174
67.1156,-58.2219,-1.91641,174
70.1029,-60.0302,-1.87295,174
66.78,-57.2385,-1.98438,174
67.4115,-57.3128,-1.99894,174
69.1941,-58.0853,-1.99538,174
68.3627,-57.1834,-2.03748,174
68.3572,-56.8147,-2.0639,174
68.5027,-56.5375,-2.08731,174
68.8235,-56.3501,-2.10849,174
70.203,-56.6648,-2.12253,0
69.9862,-56.1826,-2.14811,0
69.3625,-55.5454,-2.17297,174
69.6837,-55.3287,-2.19312,0
69.5879,-54.9445,-2.21318,0
69.4855,-54.5688,-2.23187,0
69.3773,-54.2018,-2.24926,0
66.3138,-52.9585,-2.25387,174
69.2528,-53.5232,-2.2808,0
69.1736,-53.1902,-2.2949,0
69.0473,-52.854,-2.30763,0
68.918,-52.5262,-2.31926,0
68.786,-52.2069,-2.32984,0
68.6696,-51.8985,-2.33957,0
68.5689,-51.5996,-2.34857,0
66.3767,-51.0776,-2.33218,174
68.3578,-51.0198,-2.36387,0
68.2967,-50.7417,-2.37088,0
68.2774,-50.4689,-2.37774,0
68.253,-50.1974,-2.38387,0
68.2457,-49.9272,-2.38961,0
68.2583,-49.6566,-2.39501,0
68.2666,-49.3854,-2.39974,0
68.2705,-49.1134,-2.40381,0
68.27,-48.8408,-2.40717,0
68.2652,-48.5675,-2.40988,0
68.2586,-48.2932,-2.41193,0
68.251,-48.0175,-2.41335,0
68.2389,-47.741,-2.41406,0
68.2129,-47.4656,-2.41393,0
68.171,-47.1924,-2.41288,0
68.1244,-46.9195,-2.41113,0
68.0728,-46.6468,-2.40865,0
68.0165,-46.3745,-2.40545,0
67.9554,-46.1024,-2.40153,0
67.9455,-45.8105,-2.39775,0
68.0139,-45.4839,-2.39449,0
68.0787,-45.15,-2.39037,0
67.8945,-44.9163,-2.3818,174
66.843,-45.0921,-2.36062,174
68.249,-44.1016,-2.37259,0
68.2971,-43.7359,-2.36471,0
68.3534,-43.3548,-2.35594,0
68.4375,-42.945,-2.34642,0
68.518,-42.5226,-2.33568,0
68.5559,-42.1121,-2.32332,0
68.5557,-41.7136,-2.30942,0
67.5038,-42.0529,-2.28745,174
68.6013,-40.8435,-2.27814,0
68.8674,-40.1937,-2.26128,0
69.142,-39.5012,-2.24212,0
69.365,-38.8138,-2.22038,0
69.7415,-37.9505,-2.19583,0
70.3199,-36.8431,-2.16714,0
71.7491,-70.8169,-0.937414,0
71.6805,-69.7678,-1.04059,0
71.6024,-68.7699,-1.13674,0
71.7946,-68.1486,-1.20819,0
64.7802,-59.433,-1.70999,174
64.9634,-59.209,-1.74029,174
65.1459,-58.9866,-1.76972,174
65.3617,-58.7992,-1.79675,174
65.8042,-58.8231,-1.81357,174
67.5847,-60.027,-1.7795,174
70.3222,-61.9238,-1.72205,174
67.7373,-59.2698,-1.85125,174
67.0489,-58.3095,-1.90675,174
72.6166,-62.0764,-1.79365,0
66.7699,-57.3579,-1.97459,174
67.3248,-57.3843,-1.99065,174
69.2038,-58.2383,-1.98414,174
68.4406,-57.3646,-2.02646,174
68.3073,-56.9156,-2.05529,174
68.4505,-56.6368,-2.07901,174
68.8611,-56.4982,-2.09949,174
70.2813,-56.843,-2.11284,0
70.0635,-56.3529,-2.13919,0
69.8264,-55.8745,-2.16353,0
69.2698,-55.2846,-2.18656,174
69.623,-55.0812,-2.20614,0
69.5229,-54.7025,-2.22532,0
69.4168,-54.3324,-2.24318,0
69.305,-53.9708,-2.25974,0
69.2658,-53.6399,-2.27542,0
69.2182,-53.3129,-2.29006,0
69.0929,-52.9735,-2.30321,0
68.9646,-52.6427,-2.31522,0
68.8337,-52.3204,-2.32616,0
68.7049,-52.0071,-2.33612,0
68.6054,-51.7061,-2.34545,0
66.3724,-51.1597,-2.32946,174
68.3966,-51.122,-2.36138,0
68.3024,-50.8398,-2.36825,0
68.2848,-50.5666,-2.37537,0
68.2623,-50.2946,-2.38175,0
68.2402,-50.024,-2.38751,0
68.2543,-49.7537,-2.39315,0
68.2641,-49.4826,-2.39813,0
68.2695,-49.211,-2.40242,0
68.2707,-48.9386,-2.40604,0
68.2674,-48.6655,-2.40899,0
68.2602,-48.3917,-2.41125,0
68.2542,-48.1164,-2.41292,0
68.2438,-47.8402,-2.41389,0
68.2266,-47.5635,-2.41412,0
68.1866,-47.2903,-2.41334,0
68.1416,-47.0173,-2.41184,0
68.0919,-46.7445,-2.40962,0
68.0373,-46.4721,-2.40668,0
67.9778,-46.1999,-2.40301,0
67.9202,-45.9258,-2.39873,0
67.9898,-45.6018,-2.39575,0
68.0559,-45.2706,-2.39195,0
67.9119,-45.0206,-2.38422,174
66.8522,-45.1915,-2.36297,174
68.2305,-44.2306,-2.37517,0
68.2803,-43.8679,-2.36765,0
68.3255,-43.4969,-2.35912,0
68.4077,-43.0933,-2.34996,0
68.4895,-42.6755,-2.33967,0
68.5541,-42.2533,-2.32799,0
68.5566,-41.8572,-2.31455,0
66.8669,-42.6354,-2.2881,174
66.9897,-42.1836,-2.27508,174
68.7711,-40.4314,-2.26758,0
66.2977,-41.9732,-2.24186,174
69.3075,-39.0454,-2.22848,0
69.5452,-38.3203,-2.20506,0
70.1071,-37.2535,-2.17795,0
70.7173,-36.0679,-2.14618,0
68.6814,-66.8548,-1.0217,0
66.3205,-62.9836,-1.31909,174
69.1616,-65.94,-1.14413,0
64.5704,-59.7411,-1.57773,174
64.7352,-59.491,-1.61111,174
64.9185,-59.2664,-1.64198,174
65.1011,-59.0438,-1.67191,174
65.2932,-58.8328,-1.70037,174
65.625,-58.7553,-1.72057,174
67.4371,-60.01,-1.66779,174
67.9102,-59.9722,-1.6878,174
67.7978,-59.43,-1.7335,174
67.0855,-58.4384,-1.79942,174
66.8694,-57.8879,-1.84096,174
66.7801,-57.4566,-1.8752,174
66.8372,-57.1436,-1.90283,174
69.9802,-58.8516,-1.84516,0
66.5588,-56.2941,-1.96401,174
68.2862,-56.9973,-1.94978,174
68.3894,-56.6957,-1.97465,174
68.5679,-56.437,-1.99718,174
67.4435,-55.5231,-2.03976,174
68.6282,-55.773,-2.0445,0
68.5768,-55.4133,-2.0674,0
68.5181,-55.0601,-2.08903,0
68.4644,-54.7181,-2.10928,0
68.4623,-54.4034,-2.12792,0
68.4538,-54.0918,-2.14557,0
68.4391,-53.7834,-2.16224,0
66.3162,-52.8671,-2.18447,174
68.3496,-53.1652,-2.19282,0
68.2469,-52.8507,-2.20667,0
68.1472,-52.545,-2.21947,0
68.0702,-52.2512,-2.23128,0
67.9892,-51.9628,-2.24218,0
67.9047,-51.6798,-2.25217,0
66.3533,-51.2201,-2.25538,174
66.5357,-51.0089,-2.26384,174
67.6373,-50.8624,-2.27703,0
67.6336,-50.6051,-2.28424,0
67.6558,-50.3493,-2.29098,0
67.6738,-50.0929,-2.29707,0
67.6876,-49.8359,-2.30251,0
67.6973,-49.5782,-2.3073,0
67.7027,-49.3198,-2.31144,0
67.704,-49.0609,-2.31491,0
67.7011,-48.8013,-2.31773,0
67.6938,-48.5413,-2.31987,0
67.6851,-48.2802,-2.32138,0
67.6661,-48.0195,-2.32215,0
67.633,-47.7604,-2.32215,0
67.5954,-47.5015,-2.32147,0
67.5531,-47.2428,-2.3201,0
67.5063,-46.9844,-2.31804,0
67.4548,-46.7263,-2.31528,0
67.3959,-46.4695,-2.3118,0
67.3224,-46.2167,-2.30755,0
67.2507,-45.9625,-2.30264,0
67.3026,-45.6585,-2.29801,0
67.3607,-45.3438,-2.29261,0
66.801,-45.2985,-2.28236,174
67.4548,-44.6983,-2.27909,0
67.4914,-44.3671,-2.27091,0
67.5233,-44.0291,-2.26176,0
67.5502,-43.6841,-2.25158,0
67.5873,-43.3228,-2.24039,0
67.5904,-42.9713,-2.22801,0
67.5813,-42.6175,-2.21454,0
66.8134,-42.778,-2.20094,174
66.9709,-42.3079,-2.1857,174
67.5088,-41.5254,-2.16715,0
66.3108,-42.0742,-2.15581,174
67.5151,-40.693,-2.12863,0
67.6042,-40.1776,-2.10619,0
67.6858,-39.6441,-2.08172,0
67.7589,-39.0923,-2.05515,0
65.0936,-41.2575,-2.07142,174
68.1909,-37.6028,-1.98916,0
68.6088,-36.5671,-1.94635,0
69.7006,-34.6846,-1.88134,0
66.2715,-63.1399,-1.29978,174
69.0808,-66.1061,-1.12257,0
69.2895,-65.6276,-1.18316,0
64.6721,-59.5753,-1.5996,174
64.8528,-59.3466,-1.63103,174
65.0358,-59.1235,-1.66128,174
65.2177,-58.9017,-1.69065,174
65.48,-58.7592,-1.71472,174
66.1875,-59.0221,-1.7159,174
67.8037,-60.0437,-1.67754,174
67.7646,-59.5596,-1.72067,174
67.7822,-59.1408,-1.7589,174
66.8266,-57.9896,-1.83088,174
70.1355,-60.0413,-1.75095,0
66.7479,-57.2069,-1.89521,174
70.0068,-59.0277,-1.83163,0
69.9304,-58.5405,-1.86868,0
68.3267,-57.1528,-1.93883,174
68.3429,-56.7981,-1.96605,174
68.4974,-56.5264,-1.9893,174
68.7133,-56.2857,-2.01078,174
67.6376,-55.4168,-2.05069,174
68.5961,-55.5415,-2.05935,0
68.54,-55.186,-2.08142,0
68.4768,-54.8369,-2.10223,0
68.4637,-54.5159,-2.12135,0
68.4575,-54.2031,-2.13936,0
68.4451,-53.8936,-2.15638,0
66.3147,-52.9546,-2.17994,174
68.3856,-53.2797,-2.18759,0
68.2841,-52.9626,-2.20184,0
68.1791,-52.6529,-2.215,0
68.0982,-52.3559,-2.22716,0
68.0187,-52.0656,-2.23838,0
67.9355,-51.7806,-2.24869,0
66.3641,-51.3041,-2.25255,174
66.3797,-51.0755,-2.26043,174
67.665,-50.9572,-2.27443,0
67.6294,-50.6968,-2.2817,0
67.6483,-50.4411,-2.28864,0
67.6677,-50.1849,-2.29496,0
67.6831,-49.9281,-2.30064,0
67.6943,-49.6706,-2.30565,0
67.7013,-49.4125,-2.31003,0
67.7041,-49.1538,-2.31374,0
67.7027,-48.8944,-2.31679,0
67.697,-48.6345,-2.31917,0
67.6877,-48.374,-2.32091,0
67.6769,-48.1124,-2.32198,0
67.6454,-47.8533,-2.32223,0
67.6094,-47.5943,-2.3218,0
67.5688,-47.3355,-2.32068,0
67.5236,-47.077,-2.31885,0
67.4737,-46.8188,-2.31635,0
67.4193,-46.561,-2.31315,0
67.3494,-46.3072,-2.30915,0
67.2738,-46.0547,-2.30446,0
67.2806,-45.7696,-2.29973,0
67.3405,-45.4574,-2.29465,0
67.3955,-45.1385,-2.28869,0
66.7343,-45.1457,-2.27752,174
65.1258,-45.6527,-2.26148,174
67.5124,-44.1511,-2.26516,0
67.5412,-43.8086,-2.25535,0
67.5661,-43.4583,-2.2445,0
67.5919,-43.0969,-2.23258,0
67.5855,-42.745,-2.21951,0
66.9271,-42.8257,-2.20585,174
67.0409,-42.3888,-2.19107,174
67.5212,-41.6583,-2.17338,0
67.4838,-41.2861,-2.15558,0
67.4814,-40.8734,-2.13622,0
67.573,-40.3644,-2.11445,0
67.6574,-39.8374,-2.09073,0
67.7337,-39.2922,-2.06493,0
65.1782,-41.315,-2.0779,174
68.0514,-37.9469,-2.00312,0
68.456,-36.9496,-1.96233,0
69.0966,-35.6166,-1.91088,0
68.7537,-66.7271,-1.03934,0
66.4136,-62.9324,-1.32925,174
69.2238,-65.8084,-1.16103,0
64.619,-59.672,-1.58716,174
64.7869,-59.4269,-1.61996,174
64.9703,-59.2033,-1.65054,174
65.1526,-58.981,-1.68022,174
65.3732,-58.7984,-1.70683,174
65.8594,-58.8629,-1.719,174
67.5305,-59.9651,-1.67531,174
67.7552,-59.7107,-1.70657,174
67.724,-59.2468,-1.74759,174
67.0704,-58.3155,-1.80977,174
67.3174,-58.1162,-1.8344,174
66.729,-57.3195,-1.88531,174
67.2953,-57.355,-1.89755,174
69.9587,-58.7137,-1.85565,0
66.6053,-56.2323,-1.96992,174
68.3113,-56.9092,-1.95701,174
68.4342,-56.6195,-1.9812,174
68.6238,-56.3661,-2.00335,174
67.5071,-55.4658,-2.04492,174
68.6144,-55.6705,-2.05112,0
68.5609,-55.3127,-2.07366,0
68.5002,-54.9613,-2.09492,0
68.4644,-54.6287,-2.11466,0
68.4605,-54.3149,-2.13301,0
68.4503,-54.0042,-2.15039,0
66.2898,-53.0353,-2.17541,174
66.3864,-52.8178,-2.18779,174
68.3209,-53.0754,-2.19686,0
68.2173,-52.7631,-2.2104,0
68.1257,-52.4613,-2.22291,0
68.0476,-52.1691,-2.23446,0
67.9657,-51.8822,-2.2451,0
67.8802,-51.6006,-2.25484,0
66.3632,-51.1561,-2.25763,174
67.699,-51.0532,-2.27174,0
67.6341,-50.7893,-2.27912,0
67.6403,-50.5327,-2.28621,0
67.6612,-50.2768,-2.29277,0
67.678,-50.0202,-2.29867,0
67.6907,-49.763,-2.30393,0
67.6992,-49.5051,-2.30853,0
67.7035,-49.2466,-2.31248,0
67.7036,-48.9875,-2.31577,0
67.6995,-48.7278,-2.31841,0
67.691,-48.4675,-2.32035,0
67.6827,-48.206,-2.32169,0
67.6572,-47.9462,-2.32222,0
67.6229,-47.6871,-2.32203,0
67.5839,-47.4283,-2.32115,0
67.5403,-47.1696,-2.31959,0
67.4921,-46.9113,-2.31733,0
67.4394,-46.6533,-2.31438,0
67.3756,-46.3978,-2.31067,0
67.3006,-46.1453,-2.30621,0
67.2581,-45.88,-2.30135,0
67.3195,-45.5701,-2.29656,0
67.3763,-45.2536,-2.29093,0
66.7485,-45.2416,-2.28011,174
67.4656,-44.6052,-2.27688,0
67.5009,-44.2721,-2.26842,0
67.5314,-43.9322,-2.25899,0
67.557,-43.5851,-2.24851,0
67.5925,-43.2217,-2.237,0
67.5886,-42.8717,-2.22432,0
67.5775,-42.5164,-2.21052,0
66.8214,-42.6728,-2.19686,174
66.9564,-42.2141,-2.18128,174
67.4983,-41.42,-2.16211,0
66.2572,-42.0125,-2.15125,174
67.541,-40.5489,-2.12248,0
67.628,-40.0284,-2.09947,0
67.7073,-39.4898,-2.07442,0
67.7779,-38.9327,-2.04723,0
65.0453,-41.1936,-2.06594,174
68.3066,-37.3195,-1.9776,0
68.732,-36.2556,-1.93319,0
66.6652,-64.0648,-1.09417,0
66.2112,-62.8207,-1.21453,174
64.1818,-59.703,-1.47353,174
64.5728,-59.7295,-1.48736,174
64.7487,-59.4926,-1.52036,174
64.9254,-59.2607,-1.55209,174
65.1079,-59.0382,-1.58228,174
65.3047,-58.832,-1.61053,174
65.6767,-58.7925,-1.62688,174
65.4382,-58.1845,-1.68008,174
67.9694,-60.0103,-1.57622,174
68.7868,-60.2357,-1.57737,0
68.7809,-59.7663,-1.62124,0
66.5156,-57.6111,-1.76342,174
65.4774,-56.511,-1.83822,174
66.835,-57.1329,-1.8128,174
68.3677,-57.7892,-1.78729,0
68.1795,-57.291,-1.82521,0
68.0097,-56.8257,-1.85992,0
67.838,-56.3792,-1.8923,0
67.6651,-55.9509,-1.92246,0
67.6054,-55.5972,-1.94781,0
67.6355,-55.2965,-1.96969,0
67.659,-54.9979,-1.9906,0
67.6759,-54.7014,-2.01055,0
67.6866,-54.4072,-2.02957,0
67.6909,-54.1155,-2.04766,0
67.6893,-53.8262,-2.06483,0
67.6819,-53.5396,-2.0811,0
66.2784,-52.8521,-2.1111,174
67.5837,-52.957,-2.11159,0
67.5265,-52.6724,-2.12541,0
67.4652,-52.3926,-2.1383,0
67.3981,-52.1172,-2.1503,0
67.3191,-51.8452,-2.16146,0
67.2361,-51.5782,-2.17174,0
66.3685,-51.2194,-2.18362,174
67.0718,-51.0607,-2.18974,0
67.0331,-50.8128,-2.19745,0
67.063,-50.5713,-2.20438,0
67.0881,-50.3289,-2.2107,0
67.1082,-50.0857,-2.21639,0
67.1235,-49.8417,-2.22146,0
67.1339,-49.597,-2.22589,0
67.1393,-49.3517,-2.22969,0
67.1398,-49.1059,-2.23287,0
67.1352,-48.8597,-2.23539,0
67.1213,-48.6137,-2.23727,0
67.0934,-48.369,-2.23847,0
67.0602,-48.1249,-2.23901,0
67.0219,-47.8813,-2.23889,0
66.9783,-47.6384,-2.23813,0
66.9295,-47.3964,-2.2367,0
66.8754,-47.1553,-2.2346,0
66.8162,-46.9152,-2.23185,0
66.7516,-46.6763,-2.22843,0
66.6931,-46.4348,-2.22437,0
66.633,-46.1928,-2.21964,0
66.5677,-45.9515,-2.21423,0
66.6068,-45.6648,-2.20806,0
66.646,-45.3706,-2.20105,0
65.2399,-45.7583,-2.19625,174
65.0656,-45.5966,-2.1893,174
66.7331,-44.455,-2.1747,0
66.7511,-44.1388,-2.16403,0
66.7364,-43.833,-2.15253,0
66.7141,-43.5243,-2.14007,0
66.0499,-43.6299,-2.13209,174
66.6639,-42.8865,-2.11205,0
66.6281,-42.5621,-2.09645,0
66.5841,-42.2347,-2.07978,0
66.2846,-42.1015,-2.06572,174
66.4816,-41.5629,-2.04295,0
66.4235,-41.2174,-2.02266,0
66.3946,-40.8339,-2.00034,0
64.2611,-42.4495,-2.02674,174
65.0817,-41.2777,-1.98396,174
66.4449,-39.4447,-1.91885,0
66.4255,-38.9752,-1.88832,0
66.4125,-38.4756,-1.85519,0
66.6312,-37.6712,-1.81027,0
66.8535,-36.8071,-1.76048,0
66.9341,-36.069,-1.71217,0
67.5351,-34.5615,-1.6321,0
69.0171,-31.649,-1.49123,0
69.4552,-24.0746,-0.919802,0
68.2523,-25.0706,-0.923893,0
66.1677,-62.9814,-1.19429,174
66.5483,-62.8686,-1.22443,174
64.5303,-59.8405,-1.47335,174
64.6856,-59.5769,-1.50868,174
64.8611,-59.3423,-1.54093,174
65.0426,-59.1178,-1.57157,174
65.2245,-58.8961,-1.60117,174
65.5013,-58.7678,-1.62366,174
65.3582,-58.2458,-1.67154,174
67.841,-60.0632,-1.56737,174
68.7862,-60.4061,-1.56114,0
68.7843,-59.9335,-1.60575,0
66.479,-57.7129,-1.75328,174
65.4388,-56.5956,-1.82984,174
66.5606,-57.0673,-1.81278,174
68.439,-57.9761,-1.77287,0
68.2398,-57.4625,-1.81217,0
68.0707,-56.9902,-1.84776,0
67.8998,-56.5371,-1.88096,0
67.7273,-56.1024,-1.9119,0
67.6061,-55.7121,-1.93942,0
67.6255,-55.4041,-1.96196,0
67.6513,-55.1047,-1.98321,0
67.6706,-54.8074,-2.00351,0
67.6835,-54.5124,-2.02286,0
67.6901,-54.2198,-2.04129,0
65.4322,-53.1406,-2.09004,174
67.6852,-53.642,-2.07537,0
66.2474,-52.9304,-2.10675,174
67.6032,-53.0602,-2.10641,0
67.5476,-52.7739,-2.12057,0
67.4877,-52.4924,-2.13379,0
67.4237,-52.2156,-2.1461,0
67.3479,-51.9421,-2.15756,0
67.2663,-51.6733,-2.16816,0
66.3692,-51.3022,-2.18068,174
66.4169,-51.0772,-2.18856,174
67.0284,-50.8997,-2.19481,0
67.0529,-50.658,-2.20197,0
67.0796,-50.4159,-2.20851,0
67.1016,-50.173,-2.21441,0
67.1186,-49.9292,-2.21971,0
67.1308,-49.6848,-2.22437,0
67.1379,-49.4397,-2.2284,0
67.1402,-49.194,-2.2318,0
67.1375,-48.948,-2.23456,0
67.1297,-48.7016,-2.23668,0
67.1041,-48.4567,-2.23811,0
67.0728,-48.2123,-2.23889,0
67.0363,-47.9685,-2.23902,0
66.9945,-47.7254,-2.23847,0
66.9476,-47.4831,-2.23728,0
66.8954,-47.2416,-2.23543,0
66.838,-47.0012,-2.23291,0
66.7754,-46.7618,-2.22973,0
66.7134,-46.5217,-2.22591,0
66.6552,-46.2795,-2.22141,0
66.5917,-46.0379,-2.21625,0
66.5916,-45.7689,-2.21037,0
66.6325,-45.4767,-2.20367,0
66.6686,-45.179,-2.1961,0
65.057,-45.6893,-2.19203,174
66.7253,-44.567,-2.17829,0
66.7453,-44.2528,-2.16797,0
66.7428,-43.9428,-2.15676,0
66.723,-43.6353,-2.14465,0
66.1182,-43.6979,-2.13625,174
66.6748,-43.002,-2.11737,0
64.3369,-44.3207,-2.12757,174
66.6008,-42.3524,-2.08589,0
66.5516,-42.0232,-2.06851,0
66.277,-41.8693,-2.05354,174
66.4454,-41.3416,-2.03007,0
66.3832,-40.9925,-2.00897,0
66.4123,-40.546,-1.98432,0
64.0671,-42.4179,-2.01846,174
66.4449,-39.6149,-1.92945,0
66.4338,-39.1446,-1.89949,0
66.4073,-38.6687,-1.86771,0
66.5524,-37.9662,-1.8269,0
66.7735,-37.1241,-1.77891,0
66.9263,-36.3116,-1.72901,0
67.3091,-35.1298,-1.66246,0
68.1937,-33.1391,-1.56023,0
69.8739,-23.7761,-0.92194,0
68.6751,-24.7138,-0.922096,0
66.7284,-63.9619,-1.10897,0
66.3358,-62.8122,-1.22119,174
67.2145,-63.3104,-1.20446,0
64.6233,-59.6627,-1.49677,174
64.7983,-59.4262,-1.52949,174
64.9771,-59.1976,-1.56073,174
65.1594,-58.9755,-1.59066,174
65.3847,-58.7976,-1.61676,174
65.9151,-58.9031,-1.62338,174
67.4791,-59.9058,-1.57207,174
68.7841,-60.5775,-1.54465,0
68.7862,-60.102,-1.58999,0
66.7017,-58.0175,-1.73078,174
66.5416,-57.529,-1.77145,174
66.4526,-57.1142,-1.80635,174
67.2744,-57.3315,-1.80467,174
68.3112,-57.6438,-1.79841,0
68.1316,-57.1573,-1.83528,0
67.9613,-56.6974,-1.86932,0
67.7892,-56.2562,-1.90105,0
67.6159,-55.8329,-1.93061,0
67.6147,-55.5119,-1.95411,0
67.6429,-55.2117,-1.97571,0
67.6645,-54.9137,-1.99634,0
67.6796,-54.6179,-2.01604,0
67.6884,-54.3244,-2.03478,0
65.4065,-53.2142,-2.08548,174
67.6878,-53.7448,-2.06953,0
66.2496,-53.0187,-2.10195,174
66.3233,-52.796,-2.11428,174
67.568,-52.876,-2.1156,0
67.5095,-52.5927,-2.12915,0
67.447,-52.3142,-2.14179,0
67.3762,-52.0397,-2.15355,0
67.296,-51.7691,-2.16445,0
67.2119,-51.5035,-2.17449,0
66.3807,-51.1557,-2.18585,174
67.0529,-50.9895,-2.19201,0
67.0421,-50.7445,-2.19947,0
67.0706,-50.5028,-2.20623,0
67.0943,-50.2601,-2.21237,0
67.113,-50.0167,-2.21788,0
67.127,-49.7725,-2.22278,0
67.1359,-49.5276,-2.22703,0
67.14,-49.2822,-2.23066,0
67.139,-49.0362,-2.23365,0
67.133,-48.7899,-2.23599,0
67.1141,-48.5444,-2.23767,0
67.0846,-48.2999,-2.23869,0
67.0499,-48.0558,-2.23905,0
67.0101,-47.8125,-2.23874,0
66.965,-47.5699,-2.23778,0
66.9147,-47.3281,-2.23617,0
66.8591,-47.0872,-2.23389,0
66.7984,-46.8475,-2.23095,0
66.733,-46.6087,-2.22735,0
66.6766,-46.3663,-2.22309,0
66.6151,-46.1244,-2.21817,0
66.5757,-45.8723,-2.21257,0
66.6184,-45.582,-2.20616,0
66.6562,-45.2863,-2.19892,0
65.1597,-45.7271,-2.1944,174
66.7167,-44.6783,-2.18175,0
66.7387,-44.366,-2.17179,0
66.7481,-44.0523,-2.16087,0
66.7309,-43.7459,-2.14912,0
66.7074,-43.4357,-2.13637,0
66.0117,-43.5659,-2.12861,174
66.6545,-42.795,-2.10773,0
66.6165,-42.4697,-2.09184,0
66.5702,-42.1415,-2.07487,0
66.2257,-42.0445,-2.06129,174
66.4661,-41.4654,-2.03732,0
66.4055,-41.119,-2.0167,0
66.4028,-40.7075,-1.99336,0
64.1593,-42.4506,-2.02348,174
65.0306,-41.2169,-1.97849,174
66.4406,-39.3128,-1.9104,0
66.4181,-38.8405,-1.87932,0
66.474,-38.2537,-1.84295,0
66.6938,-37.4329,-1.79669,0
66.9163,-36.5519,-1.74545,0
67.0918,-35.6709,-1.69109,0
67.7196,-34.0922,-1.60684,0
69.4709,-30.7268,-1.44558,0
69.1071,-24.3568,-0.920661,0
67.9252,-25.3517,-0.925554,0
65.7491,-62.7886,-1.08195,0
66.0077,-62.5353,-1.12336,0
63.9976,-59.4587,-1.40501,174
64.5816,-59.7255,-1.39638,174
64.7622,-59.4942,-1.4294,174
64.9372,-59.2603,-1.46169,174
65.1147,-59.0326,-1.49258,174
65.3162,-58.8312,-1.52051,174
65.7534,-58.8531,-1.53041,174
65.4041,-58.1426,-1.59571,174
67.4416,-59.5407,-1.50151,0
67.4206,-59.0938,-1.54595,0
67.387,-58.6544,-1.58846,0
67.3498,-58.2291,-1.62863,0
65.3925,-56.4418,-1.76289,174
67.1659,-57.3501,-1.70716,0
67.0662,-56.9322,-1.74309,0
66.9623,-56.5281,-1.77693,0
66.8766,-56.1506,-1.80791,0
66.8185,-55.8022,-1.83597,0
66.8652,-55.5204,-1.85879,0
66.9052,-55.24,-1.88071,0
66.939,-54.961,-1.90174,0
66.9664,-54.6836,-1.92188,0
66.9877,-54.4079,-1.94113,0
67.003,-54.134,-1.95952,0
65.3605,-53.2587,-2.01407,174
67.0077,-53.5894,-1.9939,0
66.9885,-53.3166,-2.01006,0
66.9445,-53.0412,-2.02568,0
66.8957,-52.7701,-2.04038,0
66.842,-52.5033,-2.05419,0
66.7837,-52.2408,-2.06711,0
66.7211,-51.9826,-2.07916,0
66.6541,-51.7287,-2.09038,0
66.5999,-51.4817,-2.1006,0
66.548,-51.2391,-2.10997,0
66.492,-50.9997,-2.1186,0
66.4784,-50.7673,-2.1261,0
66.5059,-50.5386,-2.13258,0
66.529,-50.309,-2.13846,0
66.5473,-50.0786,-2.14375,0
66.561,-49.8476,-2.14845,0
66.5701,-49.6159,-2.15255,0
66.5744,-49.3838,-2.15604,0
66.5691,-49.1516,-2.15895,0
66.5524,-48.9199,-2.16129,0
66.5307,-48.6885,-2.16299,0
66.504,-48.4576,-2.1641,0
66.4724,-48.2271,-2.16457,0
66.4359,-47.9972,-2.16441,0
66.3943,-47.768,-2.16364,0
66.3478,-47.5396,-2.16224,0
66.2963,-47.3121,-2.16022,0
66.2412,-47.0853,-2.15756,0
66.193,-46.8557,-2.1542,0
66.1398,-46.6267,-2.15021,0
66.0818,-46.3983,-2.14558,0
66.0189,-46.1707,-2.14029,0
65.9511,-45.9439,-2.13438,0
65.978,-45.6732,-2.1269,0
65.0888,-45.8328,-2.12773,174
65.0729,-45.5955,-2.1198,174
66.031,-44.8333,-2.0994,0
66.0153,-44.5572,-2.08878,0
65.9931,-44.2785,-2.0773,0
65.9642,-43.9974,-2.06495,0
65.9285,-43.7141,-2.05169,0
65.8869,-43.428,-2.03751,0
64.2808,-44.2676,-2.05415,174
65.7951,-42.84,-2.00602,0
65.7412,-42.5402,-1.98872,0
65.6858,-42.2334,-1.97023,0
