47.964,-43.7969,-0.0217205,0
48.1363,-43.685,-0.0358904,0
48.3052,-43.5701,-0.0497771,0
48.471,-43.4536,-0.0631902,0
48.6364,-43.3414,-0.075368,0
48.7987,-43.2265,-0.0872527,0
48.9577,-43.1089,-0.0988396,0
49.1136,-42.9887,-0.110143,0
49.2663,-42.866,-0.121139,0
49.4156,-42.7409,-0.131843,0
49.5618,-42.6134,-0.142243,0
49.7047,-42.4836,-0.15235,0
49.8444,-42.3517,-0.162165,0
49.9807,-42.2176,-0.171686,0
50.1138,-42.0815,-0.180895,0
50.2381,-41.9364,-0.190817,0
50.3589,-41.7898,-0.200407,0
50.4762,-41.6418,-0.209675,0
50.5902,-41.4925,-0.2186,0
50.7009,-41.3419,-0.227184,0
50.808,-41.1902,-0.235446,0
50.912,-41.0374,-0.243376,0
51.0154,-40.8861,-0.250544,0
51.1166,-40.7344,-0.257272,0
51.2147,-40.5817,-0.263669,0
51.3096,-40.4278,-0.269762,0
51.4014,-40.2728,-0.275534,0
51.4902,-40.1168,-0.280993,0
51.5759,-39.9598,-0.286139,0
51.6584,-39.8018,-0.290973,0
51.738,-39.6429,-0.295505,0
51.8145,-39.4832,-0.299733,0
51.8879,-39.3225,-0.303649,0
51.9583,-39.1611,-0.307253,0
52.0228,-38.9974,-0.310895,0
52.0842,-38.833,-0.314255,0
52.1424,-38.668,-0.317311,0
52.1991,-38.5031,-0.319909,0
52.2609,-38.3409,-0.321286,0
52.3198,-38.1776,-0.32238,0
52.3759,-38.0135,-0.32318,0
52.4288,-37.8484,-0.323698,0
52.4789,-37.6825,-0.323923,0
52.5259,-37.5156,-0.323884,0
52.5701,-37.348,-0.323542,0
52.6108,-37.1794,-0.322956,0
52.6483,-37.0101,-0.322106,0
52.6828,-36.84,-0.320973,0
52.7143,-36.6693,-0.319548,0
52.7429,-36.4979,-0.317819,0
52.7684,-36.3259,-0.315807,0
52.7909,-36.1533,-0.313522,0
40.503,-42.9942,0.36222,0
40.6637,-43.1232,0.356619,0
40.828,-43.2487,0.350897,0
40.9958,-43.3706,0.345081,0
41.1671,-43.4877,0.338953,0
41.3444,-43.5957,0.331761,0
41.5243,-43.6997,0.32452,0
41.9703,-43.1874,0.211884,174
41.8939,-43.8913,0.309113,174
42.0795,-43.9878,0.302474,0
42.2673,-44.0824,0.296136,0
42.4561,-44.1773,0.290462,0
42.6477,-44.268,0.284725,0
42.8476,-44.3338,0.275692,0
43.0514,-44.3858,0.265208,0
43.3279,-44.1149,0.206179,174
43.5785,-43.8967,0.157026,174
43.7603,-43.9969,0.156962,174
43.8771,-44.5423,0.222938,0
44.0854,-44.5685,0.212318,0
44.2942,-44.5895,0.201683,0
44.5034,-44.6053,0.191063,0
44.7127,-44.6158,0.180428,0
44.9221,-44.6212,0.169822,0
45.1315,-44.6213,0.159227,0
45.3405,-44.6017,0.146639,0
45.5484,-44.5729,0.133587,0
45.7549,-44.5392,0.120628,0
45.9601,-44.5006,0.107772,0
46.1636,-44.4571,0.0950422,0
46.3655,-44.4089,0.082425,0
46.5655,-44.356,0.0699348,0
46.7638,-44.2984,0.0575764,0
46.9604,-44.2381,0.0455891,0
47.1552,-44.1743,0.0338898,0
47.3479,-44.1059,0.0223176,0
47.5384,-44.0331,0.0108723,0
47.7231,-43.9445,-0.00191582,0
47.9002,-43.8369,-0.0164812,0
48.0739,-43.7262,-0.0307586,0
48.2441,-43.6123,-0.044743,0
48.4107,-43.4956,-0.058449,0
48.5765,-43.3826,-0.0709686,0
48.7399,-43.2687,-0.0829607,0
48.9002,-43.152,-0.0946551,0
49.0572,-43.0328,-0.106061,0
49.211,-42.911,-0.117165,0
49.3616,-42.7867,-0.127975,0
49.5089,-42.6601,-0.138483,0
49.653,-42.5312,-0.148708,0
49.7938,-42.4,-0.15862,0
49.9314,-42.2667,-0.168249,0
50.0657,-42.1313,-0.177575,0
50.1933,-41.9896,-0.187233,0
50.3152,-41.8434,-0.19695,0
50.4338,-41.6959,-0.206335,0
50.5491,-41.547,-0.215378,0
50.6609,-41.3969,-0.224098,0
50.7694,-41.2456,-0.232477,0
50.8745,-41.0932,-0.240524,0
50.9777,-40.941,-0.248014,0
51.0801,-40.7899,-0.25485,0
51.1793,-40.6375,-0.261374,0
51.2754,-40.484,-0.267575,0
51.3684,-40.3294,-0.273464,0
51.4582,-40.1738,-0.27903,0
51.545,-40.0171,-0.284304,0
51.6287,-39.8595,-0.289245,0
51.7094,-39.701,-0.293893,0
51.787,-39.5415,-0.298229,0
51.8615,-39.3812,-0.302253,0
51.933,-39.22,-0.305983,0
51.9997,-39.0571,-0.309606,0
52.0622,-38.893,-0.313063,0
52.1216,-38.7282,-0.316237,0
52.1777,-38.5628,-0.319118,0
52.2387,-38.4001,-0.320817,0
52.2987,-38.2372,-0.322009,0
52.3558,-38.0734,-0.322917,0
52.4098,-37.9087,-0.323542,0
52.4609,-37.743,-0.323874,0
52.5091,-37.5765,-0.323932,0
52.5543,-37.4092,-0.323688,0
52.5964,-37.241,-0.32319,0
52.6349,-37.0719,-0.322448,0
52.6705,-36.9021,-0.321423,0
52.7031,-36.7316,-0.320095,0
52.7328,-36.5605,-0.318483,0
52.7594,-36.3887,-0.316579,0
52.783,-36.2162,-0.314382,0
41.9348,-40.6853,-0.0414786,174
42.0074,-40.8375,-0.0326446,174
40.9994,-42.8505,0.344954,0
41.1587,-42.9666,0.339407,0
41.321,-43.0791,0.333763,0
41.4864,-43.188,0.328006,0
41.6548,-43.2931,0.322152,0
41.9181,-43.1841,0.278183,174
42.0865,-43.2812,0.272706,174
42.1791,-43.5788,0.302889,0
42.3602,-43.663,0.295794,0
42.5419,-43.7474,0.289378,0
42.7249,-43.8311,0.283485,0
42.917,-43.8867,0.273592,0
43.1105,-43.9376,0.263646,0
43.305,-43.9836,0.253655,0
43.5278,-43.8933,0.222769,174
43.7123,-43.9775,0.220486,174
43.8942,-44.0924,0.223499,0
44.0921,-44.1189,0.213406,0
44.2904,-44.1404,0.203294,0
44.4891,-44.1569,0.193196,0
44.6881,-44.1686,0.183084,0
44.8873,-44.1753,0.172991,0
45.0864,-44.1771,0.162918,0
45.2852,-44.1647,0.151512,0
45.4833,-44.1398,0.139066,0
45.6801,-44.1102,0.126717,0
45.8756,-44.076,0.114461,0
46.0698,-44.0371,0.102298,0
46.2625,-43.9936,0.090257,0
46.4535,-43.9457,0.0783186,0
46.6429,-43.8933,0.0665119,0
46.8304,-43.8365,0.0548322,0
47.0159,-43.7755,0.0432941,0
47.1995,-43.7103,0.0318879,0
47.381,-43.6409,0.0206281,0
47.5604,-43.5676,0.00953926,0
47.7341,-43.48,-0.00282402,0
47.9036,-43.3839,-0.0156561,0
48.0703,-43.2855,-0.0281219,0
48.2341,-43.1842,-0.0403045,0
48.395,-43.0801,-0.0522185,0
48.553,-42.9732,-0.0638543,0
48.7079,-42.8636,-0.075202,0
48.8598,-42.7514,-0.0862762,0
49.0087,-42.6367,-0.0970672,0
49.1545,-42.5195,-0.107575,0
49.2973,-42.4,-0.117809,0
49.437,-42.2782,-0.127741,0
49.5737,-42.1541,-0.137409,0
49.7071,-42.0279,-0.146794,0
49.8376,-41.8997,-0.155886,0
49.9648,-41.7694,-0.164694,0
50.0888,-41.6372,-0.173229,0
50.2059,-41.4983,-0.182214,0
50.3184,-41.3566,-0.1911,0
50.4277,-41.2136,-0.199665,0
50.5338,-41.0694,-0.207897,0
50.6384,-40.9256,-0.215534,0
50.7416,-40.7823,-0.222595,0
50.8417,-40.6376,-0.229343,0
50.9387,-40.4918,-0.235788,0
51.0327,-40.3448,-0.241921,0
51.1238,-40.1966,-0.247751,0
51.2119,-40.0475,-0.253268,0
51.297,-39.8972,-0.258483,0
51.3791,-39.746,-0.263395,0
51.4563,-39.5926,-0.268259,0
51.5303,-39.4382,-0.272858,0
51.6012,-39.283,-0.277175,0
51.669,-39.1269,-0.281208,0
51.7336,-38.9701,-0.284948,0
51.7952,-38.8126,-0.288405,0
51.8537,-38.6543,-0.291579,0
51.9112,-38.4963,-0.294245,0
51.9728,-38.3406,-0.295768,0
52.0315,-38.184,-0.296999,0
52.0873,-38.0263,-0.297966,0
52.1404,-37.8678,-0.298649,0
52.1905,-37.7084,-0.29905,0
52.2377,-37.5481,-0.299177,0
52.282,-37.387,-0.29902,0
52.3234,-37.2251,-0.298591,0
52.3619,-37.0624,-0.297878,0
52.3974,-36.899,-0.296901,0
52.4301,-36.7349,-0.295632,0
52.4597,-36.5701,-0.294089,0
52.4864,-36.4046,-0.292262,0
52.5101,-36.2385,-0.290173,0
52.5294,-36.0718,-0.287946,0
41.9533,-40.8252,-0.027053,174
40.942,-42.8073,0.346937,0
41.1002,-42.9247,0.341439,0
41.2615,-43.0385,0.335823,0
41.4258,-43.1487,0.330111,0
41.5931,-43.2552,0.324295,0
41.7633,-43.3579,0.318367,0
42.0394,-43.2113,0.268461,174
42.1138,-43.5471,0.305462,0
42.2939,-43.6327,0.298387,0
42.4761,-43.7149,0.291351,0
42.6574,-43.8027,0.285916,0
42.8469,-43.867,0.277205,0
43.0398,-43.9196,0.267269,0
43.234,-43.9674,0.257303,0
43.4413,-43.9544,0.238388,174
43.6527,-43.9055,0.21475,174
43.8266,-44.0562,0.223244,174
44.0199,-44.1098,0.217083,0
44.2181,-44.1331,0.206986,0
44.4167,-44.1515,0.196873,0
44.6156,-44.1649,0.186766,0
44.8147,-44.1734,0.176668,0
45.0137,-44.177,0.16659,0
45.2128,-44.1726,0.156072,0
45.4112,-44.1495,0.143597,0
45.6085,-44.1216,0.131209,0
45.8045,-44.089,0.118909,0
45.9992,-44.0518,0.106717,0
46.1924,-44.01,0.0946369,0
46.3841,-43.9636,0.0826594,0
46.574,-43.9129,0.0708039,0
46.7622,-43.8577,0.0590754,0
46.9485,-43.7982,0.0474787,0
47.1329,-43.7345,0.0360285,0
47.3151,-43.6666,0.024715,0
47.4952,-43.5947,0.0135529,0
47.6724,-43.5166,0.0022541,0
47.8421,-43.419,-0.0110516,0
48.0098,-43.3217,-0.0236102,0
48.1748,-43.2215,-0.0359002,0
48.3367,-43.1184,-0.0479119,0
48.4957,-43.0124,-0.0596453,0
48.6518,-42.9038,-0.0710906,0
48.8048,-42.7926,-0.0822723,0
48.9548,-42.6788,-0.0931707,0
49.1018,-42.5625,-0.103776,0
49.2457,-42.4438,-0.114108,0
49.3865,-42.3228,-0.124157,0
49.5242,-42.1996,-0.133923,0
49.6588,-42.0742,-0.143395,0
49.7904,-41.9467,-0.152604,0
49.9188,-41.8171,-0.16152,0
50.044,-41.6856,-0.170153,0
50.164,-41.5496,-0.178884,0
50.2778,-41.4084,-0.187897,0
50.3883,-41.2659,-0.196569,0
50.4955,-41.1221,-0.204929,0
50.6001,-40.9776,-0.212878,0
50.7043,-40.8347,-0.220055,0
50.8055,-40.6905,-0.226921,0
50.9037,-40.5451,-0.233473,0
50.9988,-40.3985,-0.239723,0
51.0909,-40.2508,-0.245661,0
51.1802,-40.102,-0.251286,0
51.2663,-39.9521,-0.256618,0
51.3494,-39.8012,-0.261647,0
51.4286,-39.6487,-0.26652,0
51.5037,-39.4946,-0.271218,0
51.5757,-39.3396,-0.275641,0
51.6447,-39.1839,-0.279772,0
51.7105,-39.0273,-0.28361,0
51.7731,-38.8701,-0.287175,0
51.8327,-38.7121,-0.290456,0
51.8894,-38.5535,-0.293454,0
51.9506,-38.3975,-0.295251,0
52.0104,-38.2412,-0.296579,0
52.0673,-38.0839,-0.297643,0
52.1214,-37.9257,-0.298434,0
52.1726,-37.7666,-0.298932,0
52.2209,-37.6066,-0.299167,0
52.2663,-37.4458,-0.299108,0
52.3087,-37.2842,-0.298776,0
52.3482,-37.1218,-0.298171,0
52.3848,-36.9586,-0.297292,0
52.4184,-36.7948,-0.29613,0
52.4492,-36.6302,-0.294684,0
52.477,-36.465,-0.292966,0
52.5018,-36.2992,-0.290964,0
52.5236,-36.1327,-0.288678,0
40.7315,-42.6417,0.354261,0
40.8852,-42.7637,0.348919,0
41.0422,-42.8823,0.34346,0
41.2023,-42.9974,0.337884,0
41.3655,-43.109,0.332215,0
41.5318,-43.2168,0.326424,0
41.7009,-43.3209,0.32054,0
41.9791,-43.1743,0.270144,174
42.0487,-43.5149,0.30803,0
42.228,-43.602,0.300965,0
42.4096,-43.6851,0.293856,0
42.5911,-43.7711,0.287904,0
42.7768,-43.8466,0.280804,0
42.9693,-43.901,0.270902,0
43.1631,-43.9505,0.260941,0
43.3579,-43.9952,0.250946,0
43.583,-43.8891,0.217832,174
43.7622,-44.0035,0.220457,174
43.9478,-44.1,0.22076,0
44.1458,-44.1252,0.210662,0
44.3443,-44.1453,0.200565,0
44.543,-44.1606,0.190452,0
44.7421,-44.1709,0.180345,0
44.9412,-44.1763,0.170257,0
45.1403,-44.1767,0.160189,0
45.333,-43.5554,0.0605989,174
45.5367,-44.1323,0.135716,0
45.7332,-44.1014,0.123382,0
45.9284,-44.0659,0.111151,0
46.1222,-44.0257,0.0990266,0
46.3145,-43.981,0.0870051,0
46.5049,-43.9319,0.0751154,0
46.6938,-43.8783,0.0633381,0
46.8808,-43.8204,0.0516926,0
47.0659,-43.7582,0.0401838,0
47.249,-43.6919,0.0288117,0
47.4298,-43.6214,0.0175959,0
47.6087,-43.5476,0.00663887,0
47.7802,-43.4538,-0.00639824,0
47.9491,-43.3575,-0.0190691,0
48.115,-43.2584,-0.0314471,0
48.278,-43.1563,-0.0435711,0
48.4381,-43.0514,-0.0553973,0
48.5952,-42.9437,-0.06695,0
48.7494,-42.8334,-0.0782293,0
48.9005,-42.7205,-0.0892254,0
49.0485,-42.6051,-0.099948,0
49.1936,-42.4874,-0.110378,0
49.3355,-42.3672,-0.120524,0
49.4744,-42.2448,-0.130387,0
49.6102,-42.1201,-0.139987,0
49.7428,-41.9934,-0.149284,0
49.8723,-41.8645,-0.158298,0
49.9987,-41.7337,-0.167038,0
50.1218,-41.6008,-0.175524,0
50.2367,-41.46,-0.184645,0
50.3484,-41.318,-0.193444,0
50.4568,-41.1746,-0.201921,0
50.562,-41.0301,-0.210075,0
50.6667,-40.8869,-0.217477,0
50.769,-40.7432,-0.22445,0
50.8682,-40.5982,-0.23112,0
50.9645,-40.452,-0.237477,0
51.0577,-40.3047,-0.243522,0
51.148,-40.1563,-0.249274,0
51.2352,-40.0068,-0.254714,0
51.3195,-39.8563,-0.25985,0
51.4005,-39.7046,-0.264723,0
51.4766,-39.5508,-0.269548,0
51.5498,-39.3962,-0.274059,0
51.6198,-39.2408,-0.278298,0
51.6868,-39.0845,-0.282243,0
51.7506,-38.9275,-0.285915,0
51.8114,-38.7697,-0.289294,0
51.8691,-38.6113,-0.292399,0
51.9281,-38.4542,-0.294684,0
51.989,-38.2983,-0.29613,0
52.047,-38.1413,-0.297292,0
52.102,-37.9835,-0.29818,0
52.1543,-37.8247,-0.298786,0
52.2036,-37.665,-0.299118,0
52.25,-37.5045,-0.299167,0
52.2935,-37.3432,-0.298942,0
52.3341,-37.1811,-0.298425,0
52.3718,-37.0182,-0.297643,0
52.4066,-36.8546,-0.296589,0
52.4384,-36.6903,-0.295241,0
52.4673,-36.5253,-0.29362,0
52.4931,-36.3597,-0.291716,0
52.516,-36.1934,-0.289548,0
41.9939,-40.5977,-0.0156358,174
42.0731,-40.7344,-0.00901585,174
42.1899,-40.8136,-0.0142917,174
41.3487,-42.6284,0.332796,0
41.5041,-42.735,0.327386,0
41.6623,-42.8381,0.321888,0
41.8233,-42.9375,0.316292,0
41.987,-43.0333,0.310589,0
42.1534,-43.1254,0.304803,0
42.3222,-43.2136,0.298934,0
42.4935,-43.2979,0.292977,0
42.6671,-43.3782,0.286932,0
42.847,-43.4414,0.278543,0
43.03,-43.4945,0.26911,0
43.2143,-43.5431,0.259637,0
43.3996,-43.587,0.25012,0
43.5859,-43.6264,0.24057,0
43.7731,-43.6611,0.230994,0
43.961,-43.6911,0.221385,0
44.1495,-43.7165,0.211771,0
44.3385,-43.7372,0.202147,0
44.5278,-43.7532,0.192508,0
44.7175,-43.7646,0.182884,0
44.9072,-43.7712,0.173265,0
45.0969,-43.7732,0.16366,0
45.2856,-43.5464,0.119862,174
45.4752,-43.7389,0.140853,0
45.6629,-43.7117,0.129061,0
45.8493,-43.6801,0.117376,0
46.0345,-43.644,0.10577,0
46.2184,-43.6036,0.0942756,0
46.4007,-43.5589,0.0828742,0
46.5814,-43.51,0.0716047,0
46.7605,-43.4571,0.0604816,0
46.938,-43.4011,0.0496223,0
47.1138,-43.341,0.038885,0
47.2876,-43.277,0.0282941,0
47.4595,-43.2091,0.0178547,0
47.6293,-43.1375,0.0075666,0
47.7934,-43.0516,-0.0041082,0
47.9543,-42.9611,-0.0157586,0
48.1127,-42.8676,-0.0271844,0
48.2682,-42.7711,-0.0383758,0
48.4209,-42.6715,-0.0493426,0
48.5705,-42.5685,-0.0601727,0
48.7169,-42.4621,-0.070866,0
48.8604,-42.3531,-0.0812859,0
49.001,-42.2418,-0.0914422,0
49.1387,-42.1282,-0.101315,0
49.2735,-42.0122,-0.110934,0
49.4053,-41.8941,-0.12028,0
49.5341,-41.7739,-0.129352,0
49.6601,-41.6516,-0.138161,0
49.783,-41.5273,-0.146696,0
49.9029,-41.4011,-0.154958,0
50.0198,-41.273,-0.162946,0
50.133,-41.1424,-0.170798,0
50.2391,-41.0055,-0.179137,0
50.345,-40.8704,-0.186637,0
50.448,-40.7341,-0.193825,0
50.548,-40.5965,-0.20071,0
50.6448,-40.4573,-0.20735,0
50.738,-40.3162,-0.213815,0
50.828,-40.174,-0.219987,0
50.9151,-40.0306,-0.225876,0
50.9991,-39.8861,-0.231491,0
51.08,-39.7405,-0.236823,0
51.158,-39.594,-0.241862,0
51.2328,-39.4465,-0.246628,0
51.3048,-39.2981,-0.25112,0
51.3737,-39.1488,-0.255329,0
51.4396,-38.9987,-0.259264,0
51.5024,-38.8479,-0.262927,0
51.5623,-38.6963,-0.266315,0
51.6192,-38.544,-0.26943,0
51.6809,-38.3944,-0.271276,0
51.7405,-38.2442,-0.272761,0
51.7973,-38.0931,-0.273962,0
51.8513,-37.941,-0.274899,0
51.9025,-37.788,-0.275563,0
51.9509,-37.6341,-0.275954,0
51.9965,-37.4794,-0.276081,0
52.0392,-37.324,-0.275925,0
52.0791,-37.1677,-0.275514,0
52.1162,-37.0106,-0.274821,0
52.1504,-36.8529,-0.273864,0
52.1818,-36.6945,-0.272624,0
52.2102,-36.5354,-0.27112,0
52.2347,-36.3756,-0.269479,0
52.253,-36.215,-0.267946,0
52.2685,-36.0539,-0.266139,0
42.0276,-40.7104,-0.0059462,174
42.1709,-40.7451,-0.020686,174
42.2208,-40.9412,-0.00160236,174
41.447,-42.6965,0.329378,0
41.6044,-42.8009,0.3239,0
41.7644,-42.9017,0.318333,0
41.927,-42.9989,0.312679,0
42.0925,-43.0923,0.306927,0
42.2604,-43.1819,0.301077,0
42.4308,-43.2676,0.295154,0
42.6036,-43.3494,0.289149,0
42.7806,-43.4208,0.281961,0
42.9631,-43.4756,0.272557,0
43.147,-43.5259,0.263094,0
43.3319,-43.5715,0.253592,0
43.5179,-43.6126,0.244056,0
43.7048,-43.649,0.234486,0
43.8924,-43.6807,0.224886,0
44.0807,-43.7078,0.215272,0
44.2695,-43.7302,0.205653,0
44.4587,-43.7479,0.196024,0
44.6484,-43.761,0.186395,0
44.838,-43.7693,0.176771,0
45.0278,-43.773,0.167152,0
45.2174,-43.7686,0.157059,0
45.4025,-43.5309,0.112207,174
45.5945,-43.7221,0.133353,0
45.7816,-43.6921,0.121624,0
45.9672,-43.6576,0.109993,0
46.1515,-43.6188,0.0984504,0
46.3344,-43.5757,0.0870295,0
46.5157,-43.5283,0.0757111,0
46.6954,-43.4767,0.0645002,0
46.8736,-43.422,0.0535627,0
47.0499,-43.3633,0.0427863,0
47.2245,-43.3007,0.0321369,0
47.397,-43.2343,0.0216438,0
47.5676,-43.164,0.011302,0
47.734,-43.0837,0.000188675,0
47.8959,-42.9945,-0.0115398,0
48.0552,-42.9021,-0.0230437,0
48.2118,-42.8066,-0.034323,0
48.3656,-42.7081,-0.0453777,0
48.5165,-42.6067,-0.0562078,0
48.6638,-42.5011,-0.0669988,0
48.8084,-42.3931,-0.0775164,0
48.9502,-42.2827,-0.0877703,0
49.0889,-42.1698,-0.0977508,0
49.2248,-42.0547,-0.107468,0
49.3576,-41.9374,-0.116911,0
49.4876,-41.8179,-0.126081,0
49.6145,-41.6964,-0.134977,0
49.7386,-41.5728,-0.14361,0
49.8595,-41.4473,-0.151979,0
49.9776,-41.3199,-0.160065,0
50.0926,-41.1907,-0.167887,0
50.2008,-41.0556,-0.17613,0
50.3066,-40.9198,-0.183952,0
50.4107,-40.784,-0.191237,0
50.5119,-40.6468,-0.198239,0
50.6102,-40.5084,-0.204929,0
50.7044,-40.3678,-0.211491,0
50.7955,-40.226,-0.21777,0
50.8837,-40.083,-0.223766,0
50.9688,-39.9389,-0.229479,0
51.0509,-39.7937,-0.234909,0
51.1299,-39.6475,-0.240055,0
51.2059,-39.5004,-0.244929,0
51.2789,-39.3523,-0.249518,0
51.3489,-39.2033,-0.253825,0
51.4159,-39.0535,-0.257858,0
51.4798,-38.9029,-0.261628,0
51.5409,-38.7516,-0.265114,0
51.5989,-38.5996,-0.268327,0
51.6584,-38.4489,-0.270671,0
51.7191,-38.2991,-0.272253,0
51.7769,-38.1482,-0.273561,0
51.832,-37.9965,-0.274587,0
51.8842,-37.8438,-0.275358,0
51.9336,-37.6903,-0.275846,0
51.9802,-37.5359,-0.276061,0
52.024,-37.3807,-0.276022,0
52.0649,-37.2247,-0.2757,0
52.103,-37.068,-0.275104,0
52.1383,-36.9105,-0.274245,0
52.1707,-36.7523,-0.273112,0
52.2002,-36.5935,-0.271706,0
52.2268,-36.434,-0.270026,0
52.2467,-36.2736,-0.268532,0
52.2631,-36.1127,-0.266833,0
42.0206,-40.6259,-0.0157423,174
42.1421,-40.6941,-0.0234457,174
42.2029,-40.8677,-0.00892666,174
41.3905,-42.6576,0.331341,0
41.5466,-42.7633,0.325902,0
41.7057,-42.8654,0.320374,0
41.8674,-42.9639,0.314759,0
42.0319,-43.0587,0.309036,0
42.1988,-43.1497,0.303231,0
42.3684,-43.2368,0.297322,0
42.5403,-43.32,0.291351,0
42.7148,-43.3985,0.285169,0
42.8965,-43.4562,0.275985,0
43.0798,-43.5081,0.266551,0
43.2645,-43.5554,0.257059,0
43.45,-43.5981,0.247532,0
43.6366,-43.6362,0.237972,0
43.8239,-43.6697,0.228392,0
44.012,-43.6985,0.218782,0
44.2007,-43.7226,0.209158,0
44.3898,-43.742,0.199529,0
44.5792,-43.7568,0.189901,0
44.7689,-43.7668,0.180272,0
44.9586,-43.7722,0.170662,0
45.1483,-43.7729,0.161053,0
45.3351,-43.5031,0.11097,174
45.5262,-43.7319,0.137645,0
45.7135,-43.7036,0.125887,0
45.8997,-43.6707,0.114217,0
46.0845,-43.6335,0.102645,0
46.2679,-43.5919,0.0911701,0
46.4498,-43.5461,0.0798127,0
46.6301,-43.496,0.0685676,0
46.8088,-43.4423,0.0575324,0
46.9859,-43.3851,0.0466926,0
47.1612,-43.324,0.0359943,0
47.3344,-43.2589,0.0254475,0
47.5057,-43.1901,0.0150471,0
47.6743,-43.1155,0.00451973,0
47.8372,-43.0274,-0.00729179,0
47.9975,-42.9361,-0.0188738,0
48.1551,-42.8418,-0.0302312,0
48.3098,-42.7444,-0.0413738,0
48.4619,-42.6441,-0.0522723,0
48.6105,-42.5399,-0.0630926,0
48.7561,-42.4328,-0.0737078,0
48.8988,-42.3232,-0.0840594,0
49.0387,-42.2112,-0.0941473,0
49.1755,-42.0969,-0.103962,0
49.3095,-41.9804,-0.113493,0
49.4405,-41.8617,-0.12277,0
49.5686,-41.7409,-0.131774,0
49.6937,-41.6181,-0.140505,0
49.8158,-41.4933,-0.148962,0
49.9349,-41.3665,-0.157155,0
50.051,-41.238,-0.165065,0
50.162,-41.1054,-0.173083,0
50.268,-40.969,-0.181218,0
50.3732,-40.8336,-0.18862,0
50.4754,-40.6969,-0.19572,0
50.5746,-40.559,-0.202526,0
50.6704,-40.4192,-0.209137,0
50.7627,-40.2778,-0.215514,0
50.852,-40.1352,-0.221608,0
50.9381,-39.9915,-0.227429,0
51.0212,-39.8467,-0.232966,0
51.1014,-39.7009,-0.23821,0
51.1785,-39.5541,-0.24318,0
51.2527,-39.4064,-0.247878,0
51.3237,-39.2577,-0.252292,0
51.3919,-39.1082,-0.256432,0
51.457,-38.9579,-0.26029,0
51.519,-38.8069,-0.263874,0
51.578,-38.655,-0.267194,0
51.6357,-38.5033,-0.270026,0
51.6973,-38.3538,-0.271706,0
51.7562,-38.2033,-0.273112,0
51.8122,-38.0519,-0.274245,0
51.8654,-37.8996,-0.275104,0
51.9159,-37.7464,-0.2757,0
51.9635,-37.5923,-0.276022,0
52.0084,-37.4374,-0.276061,0
52.0504,-37.2817,-0.275846,0
52.0895,-37.1252,-0.275358,0
52.1258,-36.968,-0.274587,0
52.1591,-36.81,-0.273561,0
52.1898,-36.6515,-0.272253,0
52.2174,-36.4922,-0.270671,0
52.24,-36.3321,-0.269089,0
52.2576,-36.1713,-0.267487,0
42.0508,-40.5134,0.00951408,174
42.0866,-40.7164,0.0316067,174
42.235,-40.7403,0.0145562,174
42.3176,-40.8782,0.0225487,174
42.3835,-41.0561,0.0388282,174
41.823,-42.5182,0.316292,0
41.9773,-42.6126,0.310931,0
42.1341,-42.7034,0.305482,0
42.2934,-42.7907,0.299935,0
42.4551,-42.8742,0.29432,0
42.619,-42.9541,0.288616,0
42.7871,-43.0241,0.281732,0
42.9591,-43.0835,0.273572,0
43.133,-43.1368,0.265028,0
43.309,-43.1833,0.25598,0
43.4859,-43.2253,0.246898,0
43.6638,-43.2631,0.237781,0
43.8425,-43.2963,0.228636,0
44.0219,-43.3252,0.219466,0
44.2018,-43.3496,0.210281,0
44.3823,-43.3695,0.201087,0
44.5631,-43.385,0.191883,0
44.7441,-43.396,0.182694,0
44.9253,-43.4025,0.173504,0
45.1065,-43.4046,0.164334,0
45.2875,-43.3951,0.154046,0
45.4679,-43.3748,0.142762,0
45.6473,-43.3502,0.13158,0
45.8255,-43.3214,0.120482,0
46.0027,-43.2885,0.109486,0
46.1786,-43.2515,0.0985969,0
46.3532,-43.2104,0.0878205,0
46.5263,-43.1654,0.0771564,0
46.6979,-43.1164,0.0666047,0
46.8679,-43.0636,0.0561848,0
47.0362,-43.0069,0.0459016,0
47.2028,-42.9465,0.0357453,0
47.3676,-42.8824,0.0257355,0
47.5303,-42.8146,0.0158723,0
47.6901,-42.7403,0.00568672,0
47.8448,-42.6549,-0.00550468,0
47.997,-42.5664,-0.0165008,0
48.1466,-42.475,-0.027282,0
48.2936,-42.3808,-0.0378289,0
48.4378,-42.2837,-0.0481707,0
48.5795,-42.1839,-0.0582879,0
48.7182,-42.0815,-0.0681707,0
48.8543,-41.9766,-0.0778289,0
48.9875,-41.8691,-0.0872625,0
49.1179,-41.7593,-0.0964617,0
49.2454,-41.6471,-0.105427,0
49.37,-41.5327,-0.114167,0
49.4916,-41.4162,-0.122663,0
49.6104,-41.2975,-0.130925,0
49.7262,-41.1767,-0.138952,0
49.839,-41.0541,-0.146725,0
49.9502,-40.9313,-0.153971,0
50.0599,-40.8079,-0.160729,0
50.1645,-40.6805,-0.167643,0
50.2637,-40.549,-0.174772,0
50.3601,-40.4161,-0.181618,0
50.4534,-40.282,-0.18818,0
50.5438,-40.1465,-0.19447,0
50.6312,-40.0099,-0.200485,0
50.7158,-39.8721,-0.206237,0
50.7974,-39.7332,-0.211696,0
50.8761,-39.5932,-0.216891,0
50.9519,-39.4523,-0.221823,0
51.0247,-39.3103,-0.226471,0
51.0945,-39.1675,-0.230856,0
51.1616,-39.0238,-0.234968,0
51.2257,-38.8792,-0.238825,0
51.2868,-38.7339,-0.242399,0
51.3451,-38.5878,-0.24571,0
51.4052,-38.4432,-0.248112,0
51.4656,-38.2991,-0.249811,0
51.5234,-38.1541,-0.251257,0
51.5783,-38.0081,-0.252429,0
51.6306,-37.8612,-0.253337,0
51.6802,-37.7134,-0.253991,0
51.7269,-37.5647,-0.254372,0
51.771,-37.4152,-0.254499,0
51.8123,-37.265,-0.254352,0
51.8508,-37.114,-0.253932,0
51.8866,-36.9623,-0.253268,0
51.9195,-36.8099,-0.252331,0
51.9485,-36.6566,-0.251286,0
51.972,-36.5024,-0.2503,0
51.9927,-36.3477,-0.24905,0
52.0104,-36.1927,-0.247565,0
52.0254,-36.0373,-0.245788,0
42.1132,-40.5775,0.00926682,174
42.2056,-40.6907,0.0117949,174
42.2872,-40.8276,0.0195636,174
42.3696,-40.9709,0.0286768,174
41.7675,-42.4829,0.318226,0
41.9208,-42.5786,0.312894,0
42.0767,-42.6707,0.307474,0
42.235,-42.7593,0.301966,0
42.3959,-42.8442,0.29637,0
42.5589,-42.9254,0.290696,0
42.7248,-43.0014,0.284691,0
42.8962,-43.0624,0.276566,0
43.0692,-43.1188,0.268314,0
43.2448,-43.1668,0.25929,0
43.4213,-43.2105,0.250218,0
43.5989,-43.2498,0.241102,0
43.7773,-43.2847,0.231966,0
43.9564,-43.3152,0.222806,0
44.1362,-43.3412,0.213636,0
44.3165,-43.3628,0.204446,0
44.4972,-43.3799,0.195242,0
44.6782,-43.3925,0.186043,0
44.8593,-43.4007,0.176854,0
45.0405,-43.4044,0.167674,0
45.2216,-43.401,0.158089,0
45.4022,-43.3827,0.146868,0
45.582,-43.3596,0.135643,0
45.7606,-43.3324,0.12452,0
45.9383,-43.301,0.11348,0
46.1146,-43.2654,0.102557,0
46.2897,-43.2258,0.0917316,0
46.4634,-43.1823,0.0810236,0
46.6355,-43.1347,0.0704328,0
46.8062,-43.0833,0.0599689,0
46.9752,-43.028,0.049632,0
47.1423,-42.9689,0.0394367,0
47.3077,-42.9062,0.0293684,0
47.4712,-42.8397,0.0194465,0
47.6327,-42.7697,0.00968086,0
47.7887,-42.6864,-0.00145195,0
47.9419,-42.599,-0.0125164,0
48.0923,-42.5087,-0.023366,0
48.2403,-42.4154,-0.0340105,0
48.3855,-42.3194,-0.0444207,0
48.5281,-42.2206,-0.0546258,0
48.668,-42.1191,-0.0645965,0
48.805,-42.0151,-0.0743426,0
48.9393,-41.9086,-0.0838543,0
49.0707,-41.7996,-0.0931414,0
49.1992,-41.6883,-0.102194,0
49.3249,-41.5747,-0.111003,0
49.4477,-41.4589,-0.119596,0
49.5675,-41.341,-0.127946,0
49.6844,-41.221,-0.136052,0
49.7982,-41.099,-0.143923,0
49.9096,-40.9758,-0.151442,0
50.0203,-40.8531,-0.158288,0
50.1276,-40.7281,-0.164977,0
50.228,-40.5971,-0.172204,0
50.3253,-40.4647,-0.179147,0
50.4197,-40.331,-0.185817,0
50.5112,-40.196,-0.192214,0
50.5998,-40.0598,-0.198327,0
50.6853,-39.9224,-0.204167,0
50.768,-39.7839,-0.209743,0
50.8477,-39.6444,-0.215026,0
50.9245,-39.5037,-0.220055,0
50.9984,-39.3622,-0.224811,0
51.0695,-39.2197,-0.229284,0
51.1375,-39.0762,-0.233503,0
51.2026,-38.932,-0.237448,0
51.2648,-38.7869,-0.24112,0
51.3242,-38.6411,-0.244528,0
51.3825,-38.4955,-0.247419,0
51.4439,-38.3518,-0.249225,0
51.5026,-38.2071,-0.250759,0
51.5586,-38.0614,-0.252028,0
51.6119,-37.9148,-0.253044,0
51.6623,-37.7673,-0.253786,0
51.7102,-37.619,-0.254264,0
51.7552,-37.4698,-0.254479,0
51.7976,-37.3199,-0.25443,0
51.837,-37.1691,-0.254118,0
51.8738,-37.0177,-0.253542,0
51.9079,-36.8655,-0.252702,0
51.939,-36.7126,-0.251598,0
51.9638,-36.5586,-0.25068,0
51.9855,-36.4041,-0.249538,0
52.0043,-36.2492,-0.248141,0
52.0201,-36.094,-0.246491,0
42.0773,-40.5407,0.00938614,174
42.1616,-40.666,0.0144663,174
42.2571,-40.7774,0.0166613,174
42.3399,-40.9171,0.0250348,174
41.7123,-42.4472,0.32015,0
41.8646,-42.5441,0.314847,0
42.0195,-42.6375,0.309456,0
42.177,-42.7274,0.303978,0
42.337,-42.8137,0.298421,0
42.4992,-42.8962,0.292777,0
42.6638,-42.975,0.287044,0
42.8335,-43.0406,0.279534,0
43.0059,-43.0989,0.271351,0
43.1806,-43.1498,0.262591,0
43.3568,-43.1951,0.253519,0
43.5341,-43.236,0.244432,0
43.7121,-43.2725,0.235301,0
43.891,-43.3046,0.226151,0
44.0706,-43.3322,0.216976,0
44.2508,-43.3554,0.207786,0
44.4313,-43.3741,0.198592,0
44.6121,-43.3884,0.189407,0
44.7932,-43.3982,0.180203,0
44.9744,-43.4035,0.171014,0
45.1556,-43.4044,0.161854,0
45.3366,-43.39,0.15097,0
45.5166,-43.3685,0.139725,0
45.6956,-43.3428,0.128558,0
45.8737,-43.3129,0.117488,0
46.0505,-43.2789,0.106527,0
46.2261,-43.2408,0.0956672,0
46.4002,-43.1986,0.0849055,0
46.573,-43.1525,0.0742902,0
46.7442,-43.1025,0.0637678,0
46.9137,-43.0486,0.053382,0
47.0816,-42.9909,0.0431281,0
47.2477,-42.9295,0.0330207,0
47.4118,-42.8644,0.02305,0
47.5741,-42.7956,0.013216,0
47.7323,-42.7175,0.00263008,0
47.8863,-42.6312,-0.0085125,0
48.0378,-42.542,-0.0194402,0
48.1866,-42.4498,-0.0301629,0
48.333,-42.3547,-0.0406512,0
48.4765,-42.2569,-0.0509344,0
48.6173,-42.1564,-0.0609832,0
48.7554,-42.0533,-0.0708172,0
48.8906,-41.9477,-0.080407,0
49.0231,-41.8396,-0.089782,0
49.1527,-41.7291,-0.0989129,0
49.2795,-41.6163,-0.107829,0
49.4033,-41.5013,-0.116491,0
49.5241,-41.3842,-0.124929,0
49.642,-41.2649,-0.133122,0
49.757,-41.1437,-0.141081,0
49.869,-41.0205,-0.148805,0
49.9803,-40.898,-0.155827,0
50.0891,-40.7742,-0.162516,0
50.1917,-40.645,-0.169606,0
50.2902,-40.5131,-0.176647,0
50.3856,-40.3799,-0.183425,0
50.4782,-40.2454,-0.189919,0
50.5677,-40.1096,-0.19613,0
50.6545,-39.9726,-0.202077,0
50.7382,-39.8345,-0.207741,0
50.819,-39.6953,-0.213141,0
50.8969,-39.5551,-0.218259,0
50.9718,-39.4139,-0.223112,0
51.0439,-39.2717,-0.227692,0
51.113,-39.1286,-0.231999,0
51.1792,-38.9847,-0.236032,0
51.2425,-38.8399,-0.239811,0
51.3029,-38.6944,-0.243317,0
51.3604,-38.5481,-0.246559,0
51.4219,-38.4043,-0.2486,0
51.4815,-38.2599,-0.250231,0
51.5385,-38.1146,-0.251598,0
51.5928,-37.9683,-0.252712,0
51.6443,-37.8212,-0.253542,0
51.693,-37.6732,-0.254118,0
51.7391,-37.5243,-0.25443,0
51.7825,-37.3746,-0.254479,0
51.823,-37.2242,-0.254255,0
51.8608,-37.0729,-0.253786,0
51.8958,-36.921,-0.253034,0
51.928,-36.7684,-0.252028,0
51.9552,-36.6148,-0.251042,0
51.9779,-36.4605,-0.249987,0
51.9977,-36.3057,-0.248679,0
52.0146,-36.1506,-0.247126,0
42.1004,-40.4402,0.0358727,174
42.1864,-40.5576,0.0398993,174
42.2684,-40.6871,0.0467566,174
42.3505,-40.8229,0.05508,174
42.4283,-40.9748,0.0669203,174
41.9706,-42.2246,0.311165,0
42.1186,-42.3143,0.306009,0
42.2691,-42.4007,0.300775,0
42.4219,-42.4837,0.295472,0
42.5769,-42.563,0.290071,0
42.7348,-42.6368,0.284222,0
42.8977,-42.6975,0.276487,0
43.0622,-42.7542,0.268695,0
43.228,-42.8067,0.260823,0
43.3957,-42.8538,0.25264,0
43.5649,-42.8941,0.243948,0
43.7351,-42.9303,0.235228,0
43.906,-42.9623,0.226478,0
44.0777,-42.99,0.217708,0
44.2498,-43.0135,0.208909,0
44.4224,-43.0327,0.20013,0
44.5954,-43.0477,0.191321,0
44.7687,-43.0584,0.182523,0
44.942,-43.0648,0.173734,0
45.1153,-43.067,0.164954,0
45.2886,-43.0587,0.155159,0
45.4612,-43.0429,0.144837,0
45.633,-43.0226,0.134544,0
45.8039,-42.9958,0.1239,0
45.9737,-42.9651,0.113372,0
46.1423,-42.9304,0.102913,0
46.3097,-42.8918,0.0925715,0
46.4757,-42.8494,0.0823469,0
46.6404,-42.8032,0.0722297,0
46.8034,-42.7533,0.0622297,0
46.9649,-42.6997,0.0523469,0
47.1248,-42.6425,0.0426008,0
47.283,-42.5817,0.0329914,0
47.4393,-42.5175,0.023509,0
47.5937,-42.4498,0.014173,0
47.7438,-42.3724,0.00394844,0
47.8903,-42.2885,-0.00664726,0
48.0344,-42.2017,-0.0170379,0
48.1759,-42.1122,-0.0272137,0
48.315,-42.02,-0.0371746,0
48.4515,-41.9251,-0.0469305,0
48.5854,-41.8276,-0.0564812,0
48.7166,-41.7277,-0.0657976,0
48.8451,-41.6253,-0.074909,0
48.9709,-41.5206,-0.0837957,0
49.0941,-41.4135,-0.0924676,0
49.2144,-41.3043,-0.100915,0
49.332,-41.193,-0.109137,0
49.4467,-41.0796,-0.117126,0
49.5594,-40.9651,-0.124723,0
49.6709,-40.8506,-0.131735,0
49.7796,-40.7341,-0.138512,0
49.8856,-40.6158,-0.145075,0
49.989,-40.4957,-0.151384,0
50.0895,-40.3738,-0.157477,0
50.1841,-40.2474,-0.163903,0
50.2748,-40.1184,-0.170309,0
50.3626,-39.9882,-0.176432,0
50.4477,-39.8567,-0.182292,0
50.5298,-39.7241,-0.187887,0
50.6091,-39.5904,-0.193229,0
50.6856,-39.4557,-0.198288,0
50.7593,-39.3199,-0.203093,0
50.8302,-39.1831,-0.207643,0
50.8981,-39.0454,-0.211921,0
50.9633,-38.9069,-0.215934,0
51.0257,-38.7675,-0.219704,0
51.0853,-38.6273,-0.2232,0
51.1441,-38.4875,-0.22612,0
51.2054,-38.3492,-0.228044,0
51.264,-38.2099,-0.229704,0
51.3199,-38.0696,-0.23111,0
51.3732,-37.9285,-0.232253,0
51.4238,-37.7864,-0.233141,0
51.4719,-37.6435,-0.233776,0
51.5171,-37.4997,-0.234147,0
51.5598,-37.3551,-0.234274,0
51.5996,-37.2098,-0.234128,0
51.6369,-37.0637,-0.233727,0
51.6698,-36.9166,-0.233298,0
51.6982,-36.7686,-0.232839,0
51.7238,-36.62,-0.232126,0
51.7466,-36.4711,-0.231159,0
51.7665,-36.3217,-0.229968,0
51.7835,-36.1719,-0.228522,0
51.7982,-36.0218,-0.226774,0
42.1549,-40.5146,0.0383755,174
42.239,-40.6382,0.0438783,174
42.3203,-40.773,0.0519727,174
42.4019,-40.9146,0.0615575,174
41.9173,-42.191,0.313021,0
42.0645,-42.282,0.307903,0
42.214,-42.3696,0.302698,0
42.3659,-42.4538,0.297415,0
42.5201,-42.5345,0.292044,0
42.6765,-42.6116,0.286605,0
42.8381,-42.6759,0.27932,0
43.0021,-42.734,0.271546,0
43.1675,-42.788,0.263685,0
43.3342,-42.8379,0.255784,0
43.5031,-42.8799,0.247122,0
43.673,-42.9176,0.238411,0
43.8436,-42.9511,0.229661,0
44.015,-42.9804,0.220911,0
44.187,-43.0054,0.212122,0
44.3595,-43.0262,0.203333,0
44.5323,-43.0427,0.194534,0
44.7055,-43.055,0.185736,0
44.8788,-43.063,0.176937,0
45.0521,-43.0667,0.168157,0
45.2255,-43.0635,0.158929,0
45.3984,-43.0491,0.148597,0
45.5705,-43.0306,0.138304,0
45.7418,-43.0061,0.127777,0
45.912,-42.9767,0.1172,0
46.081,-42.9435,0.106712,0
46.2488,-42.9063,0.0963313,0
46.4154,-42.8653,0.0860578,0
46.5805,-42.8205,0.0759016,0
46.7442,-42.7719,0.0658625,0
46.9063,-42.7196,0.0559406,0
47.0667,-42.6637,0.0461457,0
47.2255,-42.6043,0.0364777,0
47.3825,-42.5413,0.0269465,0
47.5376,-42.4749,0.0175617,0
47.6898,-42.4022,0.00785469,0
47.8371,-42.3194,-0.00280937,0
47.9821,-42.2337,-0.0132684,0
48.1246,-42.1452,-0.0235223,0
48.2646,-42.0539,-0.0335711,0
48.402,-41.96,-0.0434051,0
48.5368,-41.8634,-0.0530242,0
48.6691,-41.7644,-0.0624383,0
48.7986,-41.6629,-0.071618,0
48.9254,-41.559,-0.0805926,0
49.0495,-41.4528,-0.0893426,0
49.1709,-41.3444,-0.0978582,0
49.2895,-41.2338,-0.106159,0
49.4052,-41.1212,-0.114225,0
49.5182,-41.0064,-0.122087,0
49.6305,-40.8925,-0.129216,0
49.7403,-40.7768,-0.136071,0
49.8473,-40.6592,-0.142712,0
49.9516,-40.5397,-0.149108,0
50.0531,-40.4184,-0.15529,0
50.1504,-40.294,-0.161501,0
50.242,-40.1655,-0.168005,0
50.3309,-40.0358,-0.174225,0
50.417,-39.9048,-0.180192,0
50.5002,-39.7726,-0.185886,0
50.5805,-39.6393,-0.191305,0
50.6581,-39.5049,-0.196471,0
50.7327,-39.3695,-0.201384,0
50.8047,-39.2331,-0.206012,0
50.8737,-39.0957,-0.210387,0
50.9399,-38.9575,-0.214499,0
51.0034,-38.8184,-0.218356,0
51.0639,-38.6785,-0.22196,0
51.1216,-38.5378,-0.22529,0
51.1834,-38.3997,-0.22737,0
51.243,-38.2608,-0.229118,0
51.2998,-38.1209,-0.230622,0
51.3541,-37.98,-0.231862,0
51.4057,-37.8383,-0.232858,0
51.4547,-37.6956,-0.233581,0
51.5009,-37.5522,-0.23404,0
51.5445,-37.4079,-0.234255,0
51.5854,-37.2629,-0.234206,0
51.6236,-37.117,-0.233903,0
51.6587,-36.9704,-0.233405,0
51.6881,-36.8226,-0.233024,0
51.7148,-36.6742,-0.232409,0
51.7387,-36.5254,-0.23154,0
51.7596,-36.3762,-0.230427,0
51.7777,-36.2265,-0.229079,0
51.7929,-36.0765,-0.227477,0
42.1236,-40.4719,0.0369166,174
42.1766,-40.6451,0.0536474,174
42.2904,-40.7236,0.0489504,174
42.3728,-40.8609,0.0576147,174
42.4262,-41.0629,0.0801707,174
42.0105,-42.2492,0.309779,0
42.1592,-42.3381,0.304603,0
42.3103,-42.4236,0.299349,0
42.4637,-42.5055,0.294007,0
42.6192,-42.5839,0.288607,0
42.7788,-42.6537,0.282142,0
42.9422,-42.7133,0.274378,0
43.1071,-42.7688,0.266566,0
43.2733,-42.8202,0.258675,0
43.4415,-42.8651,0.250286,0
43.6109,-42.9044,0.241585,0
43.7813,-42.9394,0.232855,0
43.9525,-42.9702,0.224105,0
44.1242,-42.9968,0.215325,0
44.2966,-43.0191,0.206536,0
44.4693,-43.0372,0.197738,0
44.6423,-43.051,0.188939,0
44.8156,-43.0606,0.18014,0
44.989,-43.0658,0.171361,0
45.1623,-43.0669,0.162581,0
45.3354,-43.0548,0.152357,0
45.5078,-43.0378,0.142044,0
45.6795,-43.0158,0.131654,0
45.8501,-42.9879,0.121038,0
46.0195,-42.956,0.110521,0
46.1878,-42.9203,0.100111,0
46.3548,-42.8807,0.0897883,0
46.5205,-42.8372,0.079593,0
46.6847,-42.79,0.0695051,0
46.8474,-42.7391,0.0595344,0
47.0084,-42.6845,0.0496906,0
47.1678,-42.6264,0.0399836,0
47.3255,-42.5647,0.0304035,0
47.4813,-42.4995,0.0209699,0
47.6352,-42.4309,0.0116633,0
47.7837,-42.3499,0.00104805,0
47.9296,-42.2653,-0.00947929,0
48.073,-42.1778,-0.0198113,0
48.2139,-42.0875,-0.0299285,0
48.3523,-41.9945,-0.0398504,0
48.488,-41.8989,-0.0495379,0
48.6212,-41.8008,-0.0590301,0
48.7517,-41.7002,-0.0682977,0
48.8795,-41.5971,-0.0773406,0
49.0046,-41.4918,-0.0861785,0
49.127,-41.3841,-0.094782,0
49.2465,-41.2744,-0.103161,0
49.3634,-41.1624,-0.111325,0
49.4773,-41.0485,-0.119245,0
49.5898,-40.9342,-0.126647,0
49.7005,-40.8192,-0.133591,0
49.8086,-40.7023,-0.140319,0
49.9139,-40.5835,-0.146804,0
50.0165,-40.4629,-0.153063,0
50.1162,-40.3405,-0.159079,0
50.2091,-40.2125,-0.165661,0
50.2989,-40.0832,-0.171989,0
50.3859,-39.9527,-0.178044,0
50.4702,-39.8209,-0.183845,0
50.5516,-39.688,-0.189362,0
50.6302,-39.554,-0.194626,0
50.7059,-39.4189,-0.199616,0
50.7788,-39.2829,-0.204352,0
50.8488,-39.1459,-0.208825,0
50.9161,-39.008,-0.213034,0
50.9805,-38.8692,-0.216979,0
51.0422,-38.7296,-0.220671,0
51.1009,-38.5892,-0.224108,0
51.1611,-38.4501,-0.226667,0
51.2216,-38.3115,-0.228522,0
51.2795,-38.172,-0.230114,0
51.3346,-38.0315,-0.231442,0
51.3872,-37.89,-0.232516,0
51.4371,-37.7477,-0.233346,0
51.4844,-37.6046,-0.233903,0
51.5289,-37.4606,-0.234206,0
51.5709,-37.3158,-0.234255,0
51.6101,-37.1703,-0.23404,0
51.6466,-37.024,-0.233571,0
51.6777,-36.8765,-0.23319,0
51.7054,-36.7284,-0.232653,0
51.7303,-36.5797,-0.231882,0
51.7523,-36.4306,-0.230866,0
51.7714,-36.2811,-0.229596,0
51.7877,-36.1312,-0.228083,0
42.1281,-40.4009,0.0692412,174
42.2198,-40.507,0.0711673,174
42.3008,-40.6354,0.0785064,174
42.378,-40.7772,0.0889999,174
42.4546,-40.9289,0.101671,174
42.4193,-41.3185,0.166603,174
42.5351,-41.4221,0.167896,174
42.6157,-41.6116,0.18783,174
42.5401,-42.201,0.291351,0
42.7627,-42.0836,0.246358,174
42.8432,-42.3396,0.279075,0
42.9993,-42.3976,0.271673,0
43.1569,-42.4518,0.264193,0
43.3159,-42.502,0.256654,0
43.4761,-42.5483,0.249056,0
43.6376,-42.5897,0.241234,0
43.8006,-42.6244,0.232874,0
43.9645,-42.6551,0.224486,0
44.1289,-42.6818,0.216087,0
44.2939,-42.7045,0.207669,0
44.4594,-42.723,0.199241,0
44.6251,-42.7375,0.190804,0
44.7911,-42.7479,0.182366,0
44.9573,-42.7543,0.173939,0
45.1234,-42.7566,0.16553,0
45.2895,-42.7487,0.156087,0
45.455,-42.7341,0.146185,0
45.6198,-42.7154,0.136341,0
45.7838,-42.6929,0.126556,0
45.947,-42.6664,0.116839,0
46.1089,-42.6343,0.106907,0
46.2696,-42.5979,0.0969758,0
46.4291,-42.5579,0.0871418,0
46.5872,-42.5142,0.0774055,0
46.744,-42.467,0.0677961,0
46.8992,-42.4162,0.0583039,0
47.0529,-42.3619,0.0489387,0
47.2048,-42.3042,0.0396809,0
47.3552,-42.2431,0.0305695,0
47.5037,-42.1787,0.0215754,0
47.6502,-42.1109,0.0126887,0
47.7915,-42.0312,0.0024836,0
47.9304,-41.9487,-0.0075457,0
48.067,-41.8635,-0.0173602,0
48.2012,-41.7756,-0.0269891,0
48.3329,-41.6852,-0.0364129,0
48.4621,-41.5922,-0.0456414,0
48.5888,-41.4968,-0.0546551,0
48.713,-41.3991,-0.0634539,0
48.8346,-41.299,-0.0720477,0
48.9536,-41.1967,-0.0804363,0
49.0699,-41.0923,-0.0886101,0
49.1839,-40.9861,-0.0965008,0
49.297,-40.8802,-0.103737,0
49.4074,-40.7722,-0.110759,0
49.5154,-40.6623,-0.117555,0
49.6206,-40.5505,-0.124137,0
49.7234,-40.4369,-0.130485,0
49.8234,-40.3215,-0.136618,0
49.9207,-40.2043,-0.142526,0
50.0154,-40.0855,-0.14821,0
50.1074,-39.965,-0.153669,0
50.1932,-39.84,-0.159557,0
50.2759,-39.7134,-0.16527,0
50.3558,-39.5857,-0.170729,0
50.4329,-39.4568,-0.175934,0
50.5073,-39.3269,-0.180876,0
50.579,-39.1959,-0.185563,0
50.648,-39.064,-0.190007,0
50.7142,-38.9312,-0.194186,0
50.7777,-38.7974,-0.198112,0
50.8384,-38.6628,-0.201794,0
50.8965,-38.5275,-0.205192,0
50.9584,-38.3947,-0.207331,0
51.0178,-38.2609,-0.209206,0
51.0747,-38.1261,-0.210827,0
51.1289,-37.9904,-0.212194,0
51.1806,-37.8537,-0.213317,0
51.2298,-37.7162,-0.214177,0
51.2762,-37.5778,-0.214802,0
51.3201,-37.4386,-0.215163,0
51.3614,-37.2987,-0.21527,0
51.3976,-37.1573,-0.215485,0
51.4307,-37.0153,-0.215514,0
51.4611,-36.8726,-0.2153,0
51.4886,-36.7295,-0.21485,0
51.5134,-36.5858,-0.214167,0
51.5354,-36.4417,-0.213239,0
51.5546,-36.2972,-0.212077,0
51.5711,-36.1523,-0.21069,0
51.5854,-36.0072,-0.208942,0
42.1868,-40.4672,0.0701682,174
42.2719,-40.5867,0.0753863,174
42.3495,-40.7251,0.0850868,174
42.4284,-40.8692,0.0960718,174
42.4635,-41.1097,0.128362,174
42.5035,-41.3614,0.162389,174
42.5858,-41.5419,0.180446,174
42.4864,-42.1726,0.293226,0
42.6345,-42.2494,0.28807,0
42.859,-42.1194,0.241254,174
42.9423,-42.3769,0.274378,0
43.0993,-42.4325,0.266927,0
43.2578,-42.4842,0.259407,0
43.4176,-42.5319,0.251829,0
43.5784,-42.5756,0.244202,0
43.7411,-42.6122,0.235921,0
43.9047,-42.6444,0.227542,0
44.0689,-42.6726,0.219154,0
44.2337,-42.6967,0.210736,0
44.399,-42.7167,0.202308,0
44.5647,-42.7327,0.19388,0
44.7305,-42.7446,0.185443,0
44.8967,-42.7524,0.177015,0
45.0629,-42.7562,0.168597,0
45.2291,-42.7531,0.1597,0
45.3948,-42.7399,0.149788,0
45.5598,-42.7227,0.139925,0
45.7241,-42.7015,0.130111,0
45.8876,-42.6765,0.120374,0
46.05,-42.6466,0.11055,0
46.2113,-42.6116,0.100579,0
46.3711,-42.5729,0.0907063,0
46.5298,-42.5306,0.0809504,0
46.687,-42.4846,0.0712922,0
46.8428,-42.4351,0.0617512,0
46.997,-42.3821,0.0523273,0
47.1497,-42.3256,0.0430305,0
47.3005,-42.2658,0.0338703,0
47.4498,-42.2026,0.0248371,0
47.5971,-42.1361,0.0159406,0
47.7402,-42.0606,0.00618477,0
47.88,-41.9791,-0.00391289,0
48.0175,-41.8948,-0.0138152,0
48.1525,-41.8079,-0.0235125,0
48.2852,-41.7184,-0.0330047,0
48.4153,-41.6264,-0.0423016,0
48.5429,-41.5319,-0.0513934,0
48.668,-41.435,-0.0602801,0
48.7906,-41.3357,-0.0689422,0
48.9105,-41.2343,-0.077409,0
49.0279,-41.1306,-0.0856609,0
49.1426,-41.0248,-0.0936883,0
49.256,-40.919,-0.10113,0
49.3674,-40.8118,-0.108229,0
49.4763,-40.7026,-0.115104,0
49.5826,-40.5915,-0.121764,0
49.6862,-40.4785,-0.1282,0
49.7872,-40.3638,-0.134411,0
49.8855,-40.2472,-0.140397,0
49.9812,-40.129,-0.146169,0
50.0741,-40.0091,-0.151706,0
50.1623,-39.8859,-0.157399,0
50.246,-39.7597,-0.16322,0
50.327,-39.6324,-0.168766,0
50.4051,-39.5039,-0.174059,0
50.4805,-39.3744,-0.179098,0
50.5532,-39.2438,-0.183884,0
50.6232,-39.1122,-0.188415,0
50.6904,-38.9797,-0.192692,0
50.7548,-38.8463,-0.196706,0
50.8166,-38.712,-0.200485,0
50.8755,-38.5769,-0.203991,0
50.9362,-38.4433,-0.206579,0
50.9965,-38.3098,-0.208552,0
51.0542,-38.1754,-0.210261,0
51.1095,-38.04,-0.211725,0
51.1621,-37.9036,-0.212936,0
51.2121,-37.7664,-0.213893,0
51.2596,-37.6283,-0.214596,0
51.3044,-37.4895,-0.215055,0
51.3466,-37.3498,-0.215261,0
51.3848,-37.2089,-0.215417,0
51.4189,-37.0671,-0.215534,0
51.4503,-36.9247,-0.215417,0
51.4788,-36.7817,-0.215046,0
51.5047,-36.6382,-0.21444,0
51.5277,-36.4943,-0.21361,0
51.5479,-36.3499,-0.212526,0
51.5654,-36.2052,-0.211218,0
51.5801,-36.0601,-0.209675,0
42.1531,-40.4291,0.0696113,174
42.2433,-40.5387,0.0724094,174
42.3214,-40.6735,0.0812761,174
42.3994,-40.8163,0.091977,174
42.4707,-40.9809,0.107502,174
42.4607,-41.3254,0.162283,174
42.5565,-41.4729,0.173199,174
42.6384,-41.664,0.193412,174
42.5803,-42.2218,0.289954,0
42.8131,-42.0739,0.239016,174
42.8853,-42.3557,0.277083,0
43.042,-42.4127,0.269642,0
43.1999,-42.4658,0.262152,0
43.3592,-42.5149,0.254603,0
43.5196,-42.5601,0.246986,0
43.6816,-42.5995,0.238968,0
43.845,-42.6332,0.230609,0
44.009,-42.6628,0.22222,0
44.1735,-42.6884,0.213802,0
44.3387,-42.7099,0.205384,0
44.5042,-42.7274,0.196946,0
44.6701,-42.7407,0.188519,0
44.8362,-42.7501,0.180091,0
45.0023,-42.7553,0.171663,0
45.1685,-42.7565,0.163255,0
45.3345,-42.7452,0.153392,0
45.4997,-42.7294,0.143509,0
45.6644,-42.7097,0.133685,0
45.8281,-42.6861,0.123919,0
45.991,-42.6585,0.114212,0
46.1526,-42.6248,0.104212,0
46.313,-42.5875,0.0943,0
46.4721,-42.5464,0.0844953,0
46.6298,-42.5018,0.074798,0
46.7862,-42.4535,0.065218,0
46.9409,-42.4018,0.0557551,0
47.0942,-42.3466,0.0464094,0
47.2457,-42.288,0.0371906,0
47.3956,-42.226,0.0281086,0
47.5436,-42.1607,0.0191633,0
47.6887,-42.0896,0.00990547,0
47.8294,-42.0091,-0.000250778,0
47.9677,-41.9259,-0.0102215,0
48.1036,-41.8399,-0.0199969,0
48.2371,-41.7513,-0.0295672,0
48.3681,-41.6602,-0.0389324,0
48.4967,-41.5666,-0.0481023,0
48.6227,-41.4705,-0.0570672,0
48.7462,-41.3722,-0.0658172,0
48.8671,-41.2715,-0.0743523,0
48.9854,-41.1686,-0.0826726,0
49.1011,-41.0636,-0.0907879,0
49.2148,-40.9576,-0.0984832,0
49.3272,-40.8511,-0.105661,0
49.437,-40.7426,-0.112624,0
49.5441,-40.6322,-0.119362,0
49.6488,-40.5199,-0.125876,0
49.7507,-40.4058,-0.132175,0
49.85,-40.2899,-0.138239,0
49.9466,-40.1723,-0.144098,0
50.0406,-40.053,-0.149714,0
50.1312,-39.9316,-0.155221,0
50.2158,-39.8058,-0.16113,0
50.2978,-39.6789,-0.166774,0
50.377,-39.5509,-0.172165,0
50.4533,-39.4217,-0.177302,0
50.527,-39.2915,-0.182175,0
50.598,-39.1603,-0.186794,0
50.6662,-39.0281,-0.191169,0
50.7316,-38.895,-0.19527,0
50.7944,-38.761,-0.199137,0
50.8544,-38.6262,-0.202751,0
50.9135,-38.4916,-0.205798,0
50.9748,-38.3586,-0.207858,0
51.0335,-38.2245,-0.209665,0
51.0897,-38.0894,-0.211218,0
51.1432,-37.9534,-0.212526,0
51.1941,-37.8165,-0.213571,0
51.2426,-37.6788,-0.214372,0
51.2884,-37.5402,-0.214919,0
51.3316,-37.4008,-0.215212,0
51.3717,-37.2605,-0.215319,0
51.4069,-37.1189,-0.215514,0
51.4392,-36.9766,-0.215475,0
51.4688,-36.8339,-0.215202,0
51.4956,-36.6906,-0.214694,0
51.5196,-36.5468,-0.213942,0
51.5409,-36.4026,-0.212946,0
51.5594,-36.258,-0.211725,0
51.5751,-36.113,-0.21027,0
42.1478,-40.374,0.105147,174
42.24,-40.4778,0.106926,174
42.3273,-40.5937,0.111884,174
42.4043,-40.7337,0.122764,174
42.4805,-40.8837,0.13592,174
42.5014,-41.1564,0.177049,174
42.588,-41.3132,0.191209,174
42.6771,-41.4764,0.206736,174
42.6494,-41.9399,0.287552,0
42.7947,-42.0064,0.28137,0
42.943,-42.0657,0.274339,0
43.093,-42.1213,0.26723,0
43.2442,-42.1731,0.260052,0
43.3967,-42.2212,0.252825,0
43.5504,-42.2655,0.24553,0
43.7052,-42.3061,0.238187,0
43.8611,-42.3422,0.230706,0
44.0183,-42.3718,0.222659,0
44.1762,-42.3975,0.214593,0
44.3346,-42.4194,0.206507,0
44.4934,-42.4373,0.198411,0
44.6526,-42.4513,0.190316,0
44.812,-42.4615,0.18223,0
44.9714,-42.4677,0.174134,0
45.1309,-42.47,0.166048,0
45.2903,-42.4627,0.156927,0
45.4493,-42.4491,0.147435,0
45.6075,-42.4317,0.137972,0
45.7651,-42.4105,0.128577,0
45.9218,-42.3856,0.119241,0
46.0775,-42.357,0.109974,0
46.2323,-42.3246,0.100775,0
46.3859,-42.2882,0.0915754,0
46.538,-42.2468,0.0822199,0
46.6888,-42.2019,0.0729621,0
46.8383,-42.1537,0.0638215,0
46.9862,-42.1021,0.0547883,0
47.1326,-42.0471,0.045882,0
47.2773,-41.989,0.0371027,0
47.4202,-41.9276,0.0284309,0
47.5616,-41.863,0.0199152,0
47.6998,-41.7922,0.0109602,0
47.8339,-41.7136,0.00127266,0
47.9658,-41.6324,-0.00821953,0
48.0954,-41.5485,-0.0175262,0
48.2227,-41.4621,-0.0266375,0
48.3475,-41.3733,-0.0355633,0
48.47,-41.2821,-0.044284,0
48.5902,-41.1886,-0.0528094,0
48.7077,-41.0928,-0.0611199,0
48.823,-40.995,-0.0692156,0
48.9373,-40.8974,-0.0766668,0
49.0492,-40.7977,-0.0838934,0
49.1587,-40.696,-0.0909148,0
49.2657,-40.5923,-0.0977215,0
49.3702,-40.4866,-0.104323,0
49.4723,-40.3791,-0.1107,0
49.5717,-40.2698,-0.116872,0
49.6687,-40.1587,-0.122829,0
49.763,-40.046,-0.128561,0
49.8549,-39.9316,-0.134079,0
49.9441,-39.8155,-0.139382,0
50.0306,-39.698,-0.14447,0
50.1146,-39.579,-0.149333,0
50.1925,-39.4558,-0.154636,0
50.2676,-39.3315,-0.159714,0
50.3401,-39.2061,-0.164538,0
50.4099,-39.0796,-0.169118,0
50.477,-38.9522,-0.173454,0
50.5416,-38.8239,-0.177546,0
50.6034,-38.6947,-0.181374,0
50.6626,-38.5646,-0.184977,0
50.7235,-38.4361,-0.187575,0
50.7837,-38.3075,-0.189645,0
50.8414,-38.1779,-0.191481,0
50.8966,-38.0473,-0.193054,0
50.9493,-37.9158,-0.194401,0
50.9994,-37.7834,-0.195485,0
51.047,-37.6501,-0.196335,0
51.0912,-37.5157,-0.197096,0
51.1312,-37.3801,-0.197819,0
51.1688,-37.2438,-0.198317,0
51.2036,-37.1069,-0.198581,0
51.2357,-36.9694,-0.19861,0
51.2651,-36.8313,-0.198405,0
51.2918,-36.6928,-0.197975,0
51.3159,-36.5537,-0.197311,0
51.3371,-36.4142,-0.196423,0
51.3557,-36.2743,-0.1953,0
51.3716,-36.134,-0.193942,0
51.3856,-35.9935,-0.192214,0
42.2062,-40.4399,0.106216,174
42.2972,-40.548,0.109234,174
42.3759,-40.6823,0.118708,174
42.4545,-40.8246,0.13009,174
42.5152,-41.0117,0.151767,174
42.5492,-41.2701,0.189212,174
42.6442,-41.4164,0.200976,174
42.7254,-41.6072,0.222528,174
42.741,-41.9839,0.283919,0
42.8935,-42.0319,0.274242,174
43.0381,-42.1014,0.269827,0
43.189,-42.1546,0.262679,0
43.3409,-42.2041,0.255462,0
43.4943,-42.2498,0.248196,0
43.6488,-42.2917,0.240872,0
43.8041,-42.3298,0.233499,0
43.9609,-42.3615,0.225589,0
44.1186,-42.3886,0.217532,0
44.2768,-42.4119,0.209456,0
44.4355,-42.4312,0.20137,0
44.5945,-42.4467,0.193265,0
44.7538,-42.4583,0.185179,0
44.9133,-42.4659,0.177083,0
45.0728,-42.4697,0.168997,0
45.2323,-42.4667,0.160404,0
45.3914,-42.4545,0.150892,0
45.5499,-42.4385,0.141419,0
45.7077,-42.4187,0.131995,0
45.8648,-42.3951,0.12264,0
46.0209,-42.3678,0.113333,0
46.176,-42.3368,0.104114,0
46.3301,-42.3022,0.0949738,0
