26.005,-6.10754,0.400238,0
25.9992,-5.98811,0.399954,0
25.9902,-5.86893,0.39973,0
25.978,-5.75009,0.399534,0
25.9627,-5.63169,0.399407,0
25.9442,-5.5138,0.399329,0
25.9227,-5.39654,0.39929,0
25.8979,-5.27999,0.39931,0
25.8702,-5.16426,0.399398,0
25.8394,-5.04939,0.399525,0
25.8055,-4.9355,0.399691,0
25.7688,-4.82265,0.399905,0
25.7292,-4.71097,0.400189,0
25.6866,-4.60048,0.400521,0
25.6412,-4.49131,0.400892,0
25.593,-4.38348,0.401292,0
25.5421,-4.27713,0.401771,0
25.4885,-4.1723,0.402279,0
25.4323,-4.06907,0.402845,0
25.3769,-3.96591,0.404232,0
25.3208,-3.86332,0.406116,0
25.2573,-3.76487,0.406898,0
20.8464,-11.0386,0.575902,0
20.9574,-11.0355,0.569905,0
21.0685,-11.0299,0.563909,0
21.1792,-11.0216,0.557894,0
21.2898,-11.0107,0.551878,0
21.4001,-10.9972,0.545862,0
21.5099,-10.9811,0.539857,0
21.6194,-10.9624,0.533851,0
21.7284,-10.9412,0.527864,0
21.8368,-10.9174,0.521888,0
21.9445,-10.891,0.515921,0
22.0516,-10.8622,0.509984,0
22.158,-10.8308,0.504075,0
22.2636,-10.797,0.498187,0
22.3683,-10.7606,0.492318,0
22.472,-10.7218,0.486497,0
22.5749,-10.6807,0.480706,0
22.6767,-10.6371,0.474964,0
22.7774,-10.5911,0.469261,0
22.877,-10.5429,0.463597,0
22.9769,-10.4951,0.458714,0
23.0784,-10.4501,0.455228,0
23.1789,-10.4025,0.451751,0
23.2784,-10.3525,0.448284,0
23.3766,-10.3,0.444837,0
23.4738,-10.245,0.441419,0
23.5698,-10.1876,0.438021,0
23.6643,-10.1278,0.434652,0
23.7575,-10.0656,0.431312,0
23.8491,-10.001,0.428001,0
23.9395,-9.93413,0.42473,0
24.028,-9.86499,0.421487,0
24.1149,-9.7936,0.418284,0
24.2002,-9.72002,0.41513,0
24.2836,-9.64428,0.412015,0
24.3652,-9.56641,0.408939,0
24.445,-9.48646,0.405911,0
24.5227,-9.40452,0.402943,0
24.5986,-9.32058,0.400003,0
24.6723,-9.23472,0.397132,0
24.7439,-9.14698,0.39431,0
24.8134,-9.05746,0.391556,0
24.8805,-8.96614,0.388841,0
24.9462,-8.87358,0.38638,0
25.0162,-8.7834,0.385609,0
25.0841,-8.69135,0.384896,0
25.1502,-8.59753,0.3843,0
25.214,-8.50197,0.383792,0
25.2756,-8.40472,0.383382,0
25.3351,-8.30581,0.38306,0
25.3923,-8.20531,0.382835,0
25.4495,-8.1042,0.383226,0
25.5055,-8.00193,0.383958,0
25.559,-7.89802,0.384759,0
25.6099,-7.79249,0.385609,0
25.6583,-7.68547,0.386546,0
25.704,-7.57701,0.387542,0
25.7469,-7.46714,0.388587,0
25.7872,-7.35598,0.38971,0
25.8245,-7.24357,0.390902,0
25.859,-7.13002,0.392161,0
25.8906,-7.01537,0.39347,0
25.9192,-6.89972,0.394837,0
25.9448,-6.78317,0.396292,0
25.9673,-6.66577,0.397786,0
25.9869,-6.54763,0.399339,0
26.0033,-6.42883,0.40096,0
26.0076,-6.30927,0.400843,0
26.0072,-6.18963,0.400472,0
26.0036,-6.07007,0.40014,0
25.9967,-5.95069,0.399876,0
25.9867,-5.83163,0.399661,0
25.9735,-5.7129,0.399486,0
25.9573,-5.59465,0.399368,0
25.9378,-5.47696,0.39932,0
25.9152,-5.35992,0.3993,0
25.8895,-5.2436,0.399329,0
25.8609,-5.12813,0.399427,0
25.8291,-5.01355,0.399554,0
25.7944,-4.89999,0.399759,0
25.7567,-4.78749,0.399984,0
25.7162,-4.67617,0.400277,0
25.6727,-4.5661,0.400628,0
25.6264,-4.45734,0.401009,0
25.5773,-4.34998,0.401448,0
25.5256,-4.24408,0.401917,0
25.4712,-4.13978,0.402464,0
25.4141,-4.03705,0.40304,0
25.3632,-3.93176,0.405667,0
25.301,-3.83229,0.406341,0
25.237,-3.73432,0.407181,0
20.7701,-11.0406,0.580384,0
20.8812,-11.0379,0.574017,0
20.9923,-11.034,0.568021,0
21.1033,-11.0275,0.562015,0
21.2139,-11.0185,0.556009,0
21.3245,-11.0067,0.549993,0
21.4346,-10.9924,0.543978,0
21.5443,-10.9755,0.537972,0
21.6537,-10.956,0.531976,0
21.7624,-10.934,0.525989,0
21.8706,-10.9094,0.520013,0
21.9782,-10.8823,0.514056,0
22.0851,-10.8526,0.508128,0
22.1912,-10.8205,0.50223,0
22.2965,-10.7858,0.496341,0
22.4009,-10.7487,0.490491,0
22.5044,-10.7092,0.484671,0
22.607,-10.6672,0.4789,0
22.7084,-10.6229,0.473167,0
22.8088,-10.5763,0.467474,0
22.908,-10.5272,0.461839,0
23.0087,-10.4812,0.45762,0
23.11,-10.4354,0.454134,0
23.2102,-10.3871,0.450657,0
23.3094,-10.3363,0.4472,0
23.4073,-10.283,0.443763,0
23.5041,-10.2273,0.440355,0
23.5995,-10.1691,0.436966,0
23.6938,-10.1085,0.433607,0
23.7865,-10.0456,0.430277,0
23.8777,-9.98028,0.426976,0
23.9673,-9.9127,0.423704,0
24.0555,-9.84284,0.420482,0
24.1419,-9.77077,0.417298,0
24.2266,-9.69649,0.414144,0
24.3095,-9.62009,0.411048,0
24.3905,-9.54156,0.407991,0
24.4696,-9.46099,0.404974,0
24.5468,-9.37841,0.402015,0
24.622,-9.29387,0.399105,0
24.695,-9.2074,0.396243,0
24.7659,-9.11911,0.393441,0
24.8347,-9.02899,0.390696,0
24.9012,-8.93716,0.388011,0
24.9684,-8.84551,0.386126,0
25.0377,-8.75472,0.385374,0
25.1052,-8.66211,0.3847,0
25.1703,-8.56774,0.384124,0
25.2335,-8.47166,0.383655,0
25.2945,-8.37387,0.383265,0
25.3533,-8.27445,0.382972,0
25.4098,-8.17348,0.382796,0
25.4673,-8.0723,0.383441,0
25.5225,-7.96952,0.384202,0
25.5752,-7.86509,0.385013,0
25.6254,-7.7591,0.385902,0
25.673,-7.65162,0.386859,0
25.7177,-7.54271,0.387864,0
25.7598,-7.43242,0.388939,0
25.7991,-7.32087,0.390091,0
25.8356,-7.20809,0.391282,0
25.8692,-7.09419,0.392562,0
25.8999,-6.97922,0.3939,0
25.9276,-6.86326,0.395286,0
25.9522,-6.74643,0.396741,0
25.9738,-6.62879,0.398265,0
25.9923,-6.51045,0.399837,0
26.0059,-6.3914,0.401126,0
26.0078,-6.27174,0.400716,0
26.0063,-6.15211,0.400355,0
26.0017,-6.03262,0.400052,0
25.9939,-5.91332,0.399798,0
25.983,-5.79435,0.399603,0
25.9688,-5.67575,0.399446,0
25.9515,-5.55769,0.399359,0
25.931,-5.44019,0.3993,0
25.9075,-5.32335,0.39929,0
25.8809,-5.20729,0.399349,0
25.8512,-5.0921,0.399466,0
25.8185,-4.97784,0.399612,0
25.7829,-4.8646,0.399827,0
25.7443,-4.75245,0.400071,0
25.7028,-4.64152,0.400394,0
25.6584,-4.53185,0.400736,0
25.6113,-4.42352,0.401136,0
25.5614,-4.31661,0.401585,0
25.5088,-4.21121,0.402093,0
25.4535,-4.10739,0.40265,0
25.3965,-4.00481,0.403402,0
25.3439,-3.9004,0.405853,0
25.2812,-3.80139,0.406575,0
25.2165,-3.70392,0.407484,0
20.8113,-10.9066,0.579945,0
20.919,-10.8939,0.57138,0
21.0266,-10.8881,0.565247,0
21.1342,-10.8809,0.559427,0
21.2416,-10.8711,0.553587,0
21.3487,-10.8589,0.547757,0
21.4554,-10.8441,0.541927,0
21.5617,-10.8267,0.536097,0
21.6677,-10.807,0.530277,0
21.773,-10.7847,0.524476,0
21.8778,-10.7599,0.518685,0
21.9819,-10.7327,0.512913,0
22.0855,-10.7031,0.507171,0
22.1881,-10.671,0.501439,0
22.29,-10.6365,0.495745,0
22.391,-10.5997,0.490081,0
22.4912,-10.5605,0.484456,0
22.5902,-10.519,0.478861,0
22.6883,-10.4752,0.473314,0
22.7853,-10.4291,0.467806,0
22.8812,-10.3807,0.462357,0
22.9773,-10.3329,0.457679,0
23.0749,-10.2874,0.4543,0
23.1716,-10.2395,0.45095,0
23.2672,-10.1892,0.447601,0
23.3616,-10.1365,0.44429,0
23.4548,-10.0814,0.440989,0
23.5468,-10.0241,0.437718,0
23.6373,-9.96435,0.434476,0
23.7265,-9.90237,0.431263,0
23.8143,-9.83815,0.428079,0
23.9005,-9.77172,0.424935,0
23.9852,-9.70312,0.42182,0
24.0681,-9.63239,0.418753,0
24.1495,-9.55955,0.415726,0
24.2291,-9.48466,0.412728,0
24.3068,-9.40775,0.409788,0
24.3826,-9.32889,0.406888,0
24.4565,-9.2481,0.404036,0
24.5285,-9.16545,0.401243,0
24.5984,-9.08097,0.398489,0
24.6663,-8.99472,0.395804,0
24.732,-8.90676,0.393167,0
24.8002,-8.82026,0.391849,0
24.8684,-8.73313,0.391048,0
24.9348,-8.64426,0.390364,0
24.9991,-8.55365,0.389769,0
25.0613,-8.46134,0.389251,0
25.1216,-8.36738,0.388841,0
25.1795,-8.27184,0.388509,0
25.2354,-8.17474,0.388275,0
25.2891,-8.07616,0.388157,0
25.3405,-7.97609,0.388099,0
25.3895,-7.87464,0.388148,0
25.4377,-7.77239,0.388655,0
25.4849,-7.6692,0.389544,0
25.5295,-7.56457,0.390482,0
25.5715,-7.45865,0.391517,0
25.6108,-7.35142,0.392571,0
25.6474,-7.243,0.393714,0
25.6813,-7.13347,0.394915,0
25.7123,-7.02287,0.396175,0
25.7405,-6.9113,0.397493,0
25.7659,-6.79883,0.398861,0
25.7883,-6.68557,0.400306,0
25.8077,-6.57155,0.40179,0
25.8243,-6.45689,0.403343,0
25.8318,-6.3415,0.403714,0
25.8324,-6.22588,0.403343,0
25.8299,-6.1103,0.403011,0
25.8244,-5.99488,0.402737,0
25.8158,-5.8797,0.402523,0
25.8041,-5.76485,0.402347,0
25.7895,-5.65037,0.402191,0
25.7718,-5.53645,0.402122,0
25.751,-5.42308,0.402083,0
25.7273,-5.31041,0.402112,0
25.7007,-5.19851,0.402191,0
25.6711,-5.08743,0.402298,0
25.6387,-4.97728,0.402454,0
25.6033,-4.86813,0.402669,0
25.5652,-4.7601,0.402933,0
25.5243,-4.65323,0.403255,0
25.4806,-4.54755,0.403587,0
25.4343,-4.44325,0.404007,0
25.3866,-4.33978,0.404739,0
25.3375,-4.23722,0.405823,0
25.286,-4.136,0.406966,0
25.2432,-4.03086,0.410843,0
25.2029,-3.92408,0.416038,0
25.1413,-3.82811,0.4168,0
20.8451,-10.9029,0.577259,0
20.9527,-10.8916,0.569251,0
21.0604,-10.8861,0.563421,0
21.168,-10.8781,0.557591,0
21.2752,-10.8676,0.551761,0
21.3822,-10.8545,0.545931,0
21.4888,-10.8389,0.540101,0
21.5951,-10.8208,0.534271,0
21.7008,-10.8002,0.52846,0
21.8059,-10.7772,0.522659,0
21.9105,-10.7516,0.516878,0
22.0145,-10.7237,0.511116,0
22.1177,-10.6933,0.505364,0
22.2202,-10.6604,0.499661,0
22.3218,-10.6253,0.493968,0
22.4225,-10.5877,0.488314,0
22.5223,-10.5478,0.482698,0
22.6211,-10.5055,0.477113,0
22.7188,-10.461,0.471585,0
22.8155,-10.4142,0.466087,0
22.9109,-10.3651,0.460648,0
23.008,-10.3189,0.456614,0
23.1054,-10.2727,0.453245,0
23.2016,-10.224,0.449896,0
23.2969,-10.1729,0.446566,0
23.3909,-10.1195,0.443245,0
23.4837,-10.0637,0.439954,0
23.5752,-10.0056,0.436702,0
23.6655,-9.94517,0.43347,0
23.7542,-9.88248,0.430257,0
23.8415,-9.81757,0.427093,0
23.9272,-9.75046,0.423958,0
24.0113,-9.68118,0.420862,0
24.0938,-9.60977,0.417796,0
24.1746,-9.53629,0.414779,0
24.2536,-9.46075,0.4118,0
24.3307,-9.38323,0.40887,0
24.406,-9.30376,0.405989,0
24.4793,-9.22238,0.403157,0
24.5506,-9.13915,0.400374,0
24.6198,-9.05412,0.39765,0
24.687,-8.96733,0.394984,0
24.7523,-8.879,0.392425,0
24.8219,-8.79313,0.391575,0
24.8895,-8.70545,0.390833,0
24.9552,-8.61602,0.390169,0
25.0188,-8.52488,0.389593,0
25.0805,-8.43206,0.389124,0
25.14,-8.33762,0.388743,0
25.1973,-8.24156,0.388431,0
25.2525,-8.144,0.388245,0
25.3055,-8.04493,0.388128,0
25.356,-7.94444,0.388109,0
25.4044,-7.84257,0.388196,0
25.4528,-7.7402,0.388929,0
25.4991,-7.63654,0.389837,0
25.543,-7.53148,0.390794,0
25.5841,-7.42516,0.391839,0
25.6226,-7.31756,0.392933,0
25.6583,-7.20878,0.394085,0
25.6913,-7.09888,0.395296,0
25.7215,-6.98799,0.396585,0
25.7488,-6.87614,0.397923,0
25.7732,-6.76342,0.39931,0
25.7947,-6.64989,0.400765,0
25.8133,-6.53568,0.402288,0
25.8287,-6.42082,0.403841,0
25.8323,-6.30523,0.403587,0
25.832,-6.18963,0.403236,0
25.8286,-6.07409,0.402923,0
25.8221,-5.95874,0.402669,0
25.8125,-5.84363,0.402445,0
25.7999,-5.72889,0.402288,0
25.7842,-5.61459,0.402171,0
25.7656,-5.50083,0.402103,0
25.7439,-5.38767,0.402083,0
25.7193,-5.27523,0.402132,0
25.6917,-5.16356,0.40221,0
25.6612,-5.05277,0.402337,0
25.6279,-4.94293,0.402513,0
25.5916,-4.83413,0.402747,0
25.5526,-4.72645,0.40303,0
25.5109,-4.61995,0.403353,0
25.4663,-4.51472,0.403724,0
25.4192,-4.4108,0.404134,0
25.3715,-4.30747,0.405071,0
25.3216,-4.20535,0.406185,0
25.2694,-4.10456,0.407337,0
25.2322,-3.99667,0.412767,0
25.1838,-3.89383,0.416263,0
25.1216,-3.7983,0.417073,0
20.7709,-10.9108,0.583177,0
20.8788,-10.8989,0.574564,0
20.9866,-10.8901,0.567425,0
21.0941,-10.8839,0.561595,0
21.2016,-10.8751,0.555765,0
21.3088,-10.8637,0.549935,0
21.4157,-10.8499,0.544095,0
21.5221,-10.8335,0.538265,0
21.6282,-10.8146,0.532454,0
21.7337,-10.7933,0.526634,0
21.8388,-10.7694,0.520843,0
21.9432,-10.7431,0.515062,0
22.0469,-10.7144,0.50931,0
22.1499,-10.6832,0.503577,0
22.2521,-10.6497,0.497864,0
22.3534,-10.6137,0.492191,0
22.4539,-10.5754,0.486546,0
22.5534,-10.5347,0.480941,0
22.6519,-10.4918,0.475374,0
22.7493,-10.4465,0.469857,0
22.8455,-10.399,0.464378,0
22.9406,-10.3493,0.458948,0
23.0387,-10.3047,0.45555,0
23.1357,-10.2577,0.452191,0
23.2317,-10.2082,0.448841,0
23.3266,-10.1564,0.445521,0
23.4202,-10.1023,0.44222,0
23.5126,-10.0457,0.438939,0
23.6037,-9.98688,0.435687,0
23.6935,-9.92574,0.432464,0
23.7818,-9.86235,0.429261,0
23.8686,-9.79676,0.426107,0
23.9537,-9.72896,0.422972,0
24.0374,-9.659,0.419886,0
24.1193,-9.58695,0.416849,0
24.1995,-9.51281,0.413841,0
24.278,-9.43666,0.410872,0
24.3545,-9.35852,0.407962,0
24.4292,-9.27845,0.405091,0
24.5019,-9.19647,0.402279,0
24.5725,-9.11268,0.399515,0
24.6412,-9.02709,0.3968,0
24.7077,-8.93976,0.394154,0
24.7744,-8.85227,0.392152,0
24.8433,-8.76586,0.391351,0
24.9103,-8.67761,0.390609,0
24.9754,-8.58762,0.389974,0
25.0384,-8.49595,0.389437,0
25.0993,-8.40263,0.388987,0
25.1582,-8.30766,0.388626,0
25.2149,-8.21113,0.388362,0
25.2694,-8.11308,0.388187,0
25.3215,-8.01358,0.388118,0
25.3714,-7.91265,0.388128,0
25.4195,-7.81051,0.388343,0
25.4676,-7.70784,0.389202,0
25.5132,-7.60374,0.39013,0
25.5562,-7.49829,0.391116,0
25.5964,-7.39153,0.392171,0
25.6341,-7.28355,0.393284,0
25.669,-7.17442,0.394456,0
25.7011,-7.06423,0.395696,0
25.7304,-6.95302,0.396995,0
25.7568,-6.84086,0.398343,0
25.7803,-6.72787,0.399759,0
25.8009,-6.61415,0.401234,0
25.8184,-6.49975,0.402777,0
25.8308,-6.38461,0.40387,0
25.8326,-6.26898,0.40348,0
25.8312,-6.15339,0.403138,0
25.8268,-6.03789,0.402835,0
25.8194,-5.9226,0.402591,0
25.8089,-5.80762,0.402396,0
25.7953,-5.69298,0.40223,0
25.7787,-5.57886,0.402152,0
25.7591,-5.46528,0.402103,0
25.7365,-5.35233,0.402093,0
25.7109,-5.24012,0.402142,0
25.6824,-5.12873,0.402239,0
25.6511,-5.01824,0.402396,0
25.6169,-4.90872,0.402591,0
25.5798,-4.80024,0.402835,0
25.5398,-4.69293,0.403128,0
25.4972,-4.5868,0.40345,0
25.4519,-4.48198,0.403851,0
25.4043,-4.37835,0.404359,0
25.3561,-4.2753,0.405413,0
25.3055,-4.17358,0.406536,0
25.256,-4.07157,0.408587,0
25.2209,-3.96254,0.41471,0
25.1645,-3.86372,0.416497,0
25.1017,-3.76863,0.417347,0
20.8111,-10.7833,0.582698,0
20.9159,-10.7712,0.574339,0
21.0203,-10.757,0.566077,0
21.1245,-10.7451,0.559085,0
21.2287,-10.7357,0.553431,0
21.3327,-10.7238,0.547757,0
21.4364,-10.7094,0.542103,0
21.5396,-10.6926,0.536439,0
21.6425,-10.6734,0.530794,0
21.7448,-10.6518,0.52515,0
21.8466,-10.6278,0.519534,0
21.9477,-10.6014,0.513919,0
22.0482,-10.5727,0.508343,0
22.148,-10.5416,0.502786,0
22.247,-10.5081,0.497249,0
22.345,-10.4724,0.491741,0
22.4422,-10.4344,0.486282,0
22.5385,-10.3941,0.480853,0
22.6338,-10.3516,0.475462,0
22.728,-10.3069,0.470111,0
22.8212,-10.26,0.464818,0
22.913,-10.2109,0.459564,0
23.0066,-10.1645,0.455687,0
23.1002,-10.1178,0.452425,0
23.1928,-10.0689,0.449202,0
23.2842,-10.0176,0.44598,0
23.3745,-9.96408,0.442786,0
23.4637,-9.90828,0.439613,0
23.5514,-9.85025,0.436468,0
23.6378,-9.79002,0.433353,0
23.7228,-9.72763,0.430277,0
23.8063,-9.66311,0.42722,0
23.8883,-9.59646,0.424212,0
23.9687,-9.52777,0.421234,0
24.0475,-9.45706,0.418294,0
24.1245,-9.38437,0.415404,0
24.1998,-9.30973,0.412552,0
24.2732,-9.23318,0.409739,0
24.3448,-9.15479,0.406986,0
24.4145,-9.0746,0.40428,0
24.4821,-8.99264,0.401624,0
24.5479,-8.90895,0.399007,0
24.6155,-8.82646,0.397591,0
24.6834,-8.74348,0.396741,0
24.7494,-8.65876,0.396009,0
24.8135,-8.5723,0.395335,0
24.8757,-8.4842,0.394769,0
24.9359,-8.39448,0.39429,0
24.994,-8.30316,0.39389,0
25.0501,-8.2103,0.393577,0
25.104,-8.11597,0.393372,0
25.1558,-8.02019,0.393255,0
25.2053,-7.923,0.393226,0
25.2527,-7.82447,0.393284,0
25.2977,-7.72464,0.393421,0
25.3404,-7.62359,0.393675,0
25.3806,-7.52137,0.394017,0
25.4189,-7.41813,0.394564,0
25.4567,-7.31423,0.395589,0
25.4918,-7.20922,0.396702,0
25.5242,-7.10313,0.397874,0
25.554,-6.99602,0.399085,0
25.5809,-6.88802,0.400374,0
25.6052,-6.77914,0.401712,0
25.6265,-6.66951,0.403118,0
25.6451,-6.55916,0.404564,0
25.6607,-6.44821,0.406058,0
25.6673,-6.33654,0.406292,0
25.668,-6.2247,0.405941,0
25.6657,-6.1129,0.405618,0
25.6604,-6.00123,0.405345,0
25.6522,-5.88979,0.40512,0
25.6409,-5.77868,0.404964,0
25.6269,-5.66794,0.404827,0
25.6098,-5.5577,0.404749,0
25.5899,-5.448,0.40471,0
25.5672,-5.33897,0.404749,0
25.5416,-5.23064,0.404788,0
25.5131,-5.12314,0.404915,0
25.4819,-5.0165,0.405062,0
25.4479,-4.91085,0.405267,0
25.4112,-4.80623,0.405521,0
25.3737,-4.70211,0.406253,0
25.3337,-4.59905,0.407073,0
25.2913,-4.49711,0.407962,0
25.2463,-4.39636,0.408919,0
25.1988,-4.29686,0.409964,0
25.1497,-4.19836,0.411234,0
25.1166,-4.09235,0.417103,0
25.0812,-3.98681,0.423138,0
25.0309,-3.88832,0.426224,0
20.8441,-10.7797,0.580071,0
20.9487,-10.767,0.571741,0
21.053,-10.7521,0.563499,0
21.1573,-10.7424,0.557318,0
21.2613,-10.7322,0.551644,0
21.3652,-10.7195,0.54598,0
21.4688,-10.7044,0.540325,0
21.572,-10.6869,0.534661,0
21.6746,-10.6669,0.529017,0
21.7768,-10.6446,0.523392,0
21.8784,-10.6198,0.517767,0
21.9793,-10.5927,0.512171,0
22.0795,-10.5632,0.506595,0
22.1791,-10.5313,0.501048,0
22.2777,-10.4972,0.495521,0
22.3756,-10.4607,0.490032,0
22.4725,-10.422,0.484573,0
22.5685,-10.381,0.479154,0
22.6634,-10.3378,0.473782,0
22.7573,-10.2924,0.46845,0
22.8501,-10.2448,0.463157,0
22.9417,-10.1951,0.457933,0
23.036,-10.1501,0.454671,0
23.1294,-10.1027,0.451409,0
23.2216,-10.0531,0.448177,0
23.3127,-10.0011,0.444964,0
23.4026,-9.94683,0.44179,0
23.4913,-9.89032,0.438626,0
23.5787,-9.8316,0.435491,0
23.6646,-9.77068,0.432386,0
23.7492,-9.70764,0.42932,0
23.8322,-9.64243,0.426282,0
23.9137,-9.57515,0.423275,0
23.9936,-9.50582,0.420316,0
24.0717,-9.43447,0.417386,0
24.1483,-9.36116,0.414495,0
24.223,-9.28591,0.411663,0
24.2959,-9.2088,0.40888,0
24.3669,-9.12982,0.406126,0
24.4359,-9.04907,0.403431,0
24.503,-8.96657,0.400784,0
24.568,-8.88237,0.398187,0
24.6371,-8.80062,0.397308,0
24.7043,-8.71709,0.396507,0
24.7697,-8.63182,0.395784,0
24.8332,-8.54486,0.39515,0
24.8948,-8.45624,0.394603,0
24.9544,-8.36601,0.394154,0
25.0118,-8.27422,0.393792,0
25.0672,-8.18089,0.393509,0
25.1205,-8.08607,0.393314,0
25.1716,-7.98984,0.393226,0
25.2204,-7.89224,0.393226,0
25.267,-7.7933,0.393314,0
25.3113,-7.69309,0.393499,0
25.3533,-7.59166,0.393773,0
25.3927,-7.48908,0.394154,0
25.4311,-7.38567,0.394876,0
25.468,-7.28144,0.395941,0
25.5023,-7.17606,0.397064,0
25.5338,-7.06965,0.398245,0
25.5627,-6.96228,0.399495,0
25.5888,-6.85395,0.400784,0
25.6122,-6.74484,0.402142,0
25.6327,-6.63498,0.403568,0
25.6503,-6.52443,0.405023,0
25.665,-6.41331,0.406546,0
25.6679,-6.30148,0.406195,0
25.6676,-6.18963,0.405833,0
25.6644,-6.07785,0.405521,0
25.6582,-5.96627,0.405277,0
25.649,-5.85491,0.405071,0
25.6369,-5.74391,0.404905,0
25.6219,-5.6333,0.404788,0
25.604,-5.52324,0.404739,0
25.5831,-5.41373,0.40471,0
25.5595,-5.30492,0.404759,0
25.533,-5.19684,0.404818,0
25.5036,-5.0896,0.404945,0
25.4715,-4.98327,0.40512,0
25.4366,-4.87793,0.405335,0
25.3998,-4.77347,0.405745,0
25.3615,-4.66969,0.406507,0
25.3207,-4.56695,0.407337,0
25.2774,-4.46538,0.408245,0
25.2316,-4.36503,0.409241,0
25.1834,-4.26592,0.410286,0
25.1397,-4.16509,0.41306,0
25.1058,-4.05919,0.418968,0
25.0695,-3.95381,0.425052,0
25.0118,-3.85924,0.426468,0
20.7719,-10.7872,0.585833,0
20.8769,-10.776,0.577444,0
20.9815,-10.7626,0.569144,0
21.0855,-10.748,0.561204,0
21.1898,-10.7395,0.55553,0
21.294,-10.7285,0.549866,0
21.3978,-10.715,0.544212,0
21.5012,-10.6992,0.538538,0
21.6041,-10.6809,0.532894,0
21.7067,-10.6602,0.527249,0
21.8088,-10.637,0.521614,0
21.9101,-10.6116,0.516019,0
22.0108,-10.5837,0.510423,0
22.1109,-10.5535,0.504857,0
22.2101,-10.5209,0.49931,0
22.3085,-10.486,0.493802,0
22.4061,-10.4488,0.488314,0
22.5027,-10.4094,0.482874,0
22.5984,-10.3677,0.477474,0
22.693,-10.3238,0.472103,0
22.7866,-10.2777,0.46678,0
22.8789,-10.2295,0.461507,0
22.9713,-10.1813,0.456907,0
23.0655,-10.1355,0.453646,0
23.1584,-10.0874,0.450394,0
23.2503,-10.037,0.447171,0
23.341,-9.98431,0.443968,0
23.4305,-9.92936,0.440794,0
23.5189,-9.87214,0.43763,0
23.6058,-9.81272,0.434515,0
23.6913,-9.75114,0.431419,0
23.7754,-9.68741,0.428362,0
23.8579,-9.62156,0.425335,0
23.9389,-9.55363,0.422347,0
24.0183,-9.48366,0.419388,0
24.0959,-9.4117,0.416478,0
24.1719,-9.33777,0.413607,0
24.2461,-9.26193,0.410794,0
24.3183,-9.18423,0.408011,0
24.3888,-9.10469,0.405277,0
24.4572,-9.0234,0.402601,0
24.5236,-8.94036,0.399984,0
24.5898,-8.85695,0.397923,0
24.6584,-8.77462,0.397054,0
24.7251,-8.69055,0.396273,0
24.7898,-8.60475,0.395579,0
24.8527,-8.51725,0.394974,0
24.9136,-8.42812,0.394456,0
24.9726,-8.3374,0.394027,0
25.0295,-8.24512,0.393695,0
25.0841,-8.15131,0.393441,0
25.1367,-8.05604,0.393275,0
25.1872,-7.95937,0.393216,0
25.2353,-7.86137,0.393245,0
25.2812,-7.76201,0.393362,0
25.3248,-7.66143,0.393587,0
25.3659,-7.55963,0.39389,0
25.4047,-7.45668,0.39429,0
25.4429,-7.35312,0.395218,0
25.479,-7.24852,0.396292,0
25.5124,-7.14282,0.397435,0
25.5432,-7.03609,0.398636,0
25.5712,-6.9284,0.399896,0
25.5964,-6.81982,0.401204,0
25.6189,-6.71046,0.402581,0
25.6385,-6.60039,0.404027,0
25.6552,-6.48965,0.405501,0
25.6663,-6.37826,0.406458,0
25.6681,-6.26639,0.406068,0
25.6669,-6.15458,0.405745,0
25.6627,-6.04285,0.405443,0
25.6556,-5.93132,0.405208,0
25.6455,-5.82006,0.405013,0
25.6324,-5.70917,0.404876,0
25.6166,-5.59872,0.404759,0
25.5977,-5.48884,0.40473,0
25.576,-5.37954,0.40473,0
25.5514,-5.27094,0.404769,0
25.5241,-5.16313,0.404866,0
25.4939,-5.05617,0.405013,0
25.4609,-4.95014,0.405189,0
25.4252,-4.84512,0.405413,0
25.388,-4.7408,0.40596,0
25.349,-4.63735,0.406761,0
25.3074,-4.53499,0.40762,0
25.2633,-4.43378,0.408548,0
25.2168,-4.3338,0.409564,0
25.168,-4.23512,0.410638,0
25.1293,-4.13184,0.414896,0
25.0948,-4.02611,0.420872,0
25.0534,-3.92307,0.425931,0
24.9925,-3.8303,0.426751,0
20.8109,-10.6658,0.585306,0
20.9132,-10.6543,0.577161,0
21.0148,-10.6408,0.569105,0
21.116,-10.6251,0.561136,0
21.2166,-10.6073,0.553275,0
21.3176,-10.5958,0.547767,0
21.4184,-10.5819,0.542259,0
21.5187,-10.5656,0.536761,0
21.6187,-10.5469,0.531263,0
21.7181,-10.526,0.525794,0
21.817,-10.5027,0.520335,0
21.9152,-10.4771,0.514886,0
22.013,-10.4492,0.509456,0
22.1098,-10.419,0.504056,0
22.2061,-10.3865,0.498675,0
22.3014,-10.3518,0.493323,0
22.3959,-10.3149,0.488021,0
22.4895,-10.2758,0.482737,0
22.5821,-10.2345,0.477503,0
22.6737,-10.1911,0.472298,0
22.7642,-10.1455,0.467142,0
22.8537,-10.0979,0.462034,0
22.9419,-10.0482,0.456995,0
23.0327,-10.0028,0.453841,0
23.1225,-9.95517,0.450696,0
23.2112,-9.90527,0.447571,0
23.2987,-9.85317,0.444486,0
23.3851,-9.79888,0.4414,0
23.4702,-9.74244,0.438353,0
23.554,-9.68388,0.435335,0
23.6364,-9.6232,0.432347,0
23.7174,-9.56048,0.429388,0
23.7969,-9.49572,0.426468,0
23.8748,-9.42896,0.423577,0
23.9511,-9.36026,0.420726,0
24.0258,-9.28964,0.417923,0
24.0987,-9.21713,0.415159,0
24.1699,-9.14279,0.412435,0
24.2393,-9.06666,0.409759,0
24.3068,-8.98877,0.407122,0
24.3724,-8.90922,0.404564,0
24.4398,-8.83059,0.40306,0
24.5072,-8.75154,0.402191,0
24.5728,-8.67076,0.40139,0
24.6367,-8.58831,0.400677,0
24.6987,-8.50419,0.400042,0
24.7588,-8.41849,0.399505,0
24.8171,-8.33118,0.399036,0
24.8734,-8.24237,0.398655,0
24.9276,-8.15209,0.398382,0
24.9797,-8.06034,0.398177,0
25.0298,-7.96722,0.39807,0
25.0776,-7.87274,0.39804,0
25.1233,-7.77699,0.398118,0
25.1668,-7.68,0.398275,0
25.208,-7.58181,0.398519,0
25.2469,-7.4825,0.39887,0
25.2834,-7.38208,0.39929,0
25.3175,-7.28066,0.399818,0
25.3493,-7.17829,0.400443,0
25.3785,-7.07499,0.401146,0
25.4053,-6.97085,0.401946,0
25.4307,-6.8661,0.403099,0
25.4539,-6.76061,0.404398,0
25.4744,-6.6544,0.405765,0
25.492,-6.54751,0.407161,0
25.507,-6.44005,0.408626,0
25.5127,-6.3319,0.408734,0
25.5134,-6.22359,0.408382,0
25.5112,-6.11532,0.40806,0
25.5062,-6.00722,0.407806,0
25.4983,-5.89931,0.407591,0
25.4876,-5.7917,0.407425,0
25.474,-5.68444,0.407288,0
25.4576,-5.57769,0.40723,0
25.4384,-5.47144,0.407191,0
25.4165,-5.3658,0.407191,0
25.3928,-5.26069,0.407484,0
25.3667,-5.15621,0.407884,0
25.3381,-5.05251,0.408382,0
25.307,-4.9496,0.408939,0
25.2733,-4.84761,0.409583,0
25.237,-4.74657,0.410296,0
25.1984,-4.64653,0.411077,0
25.1573,-4.54759,0.411937,0
25.1138,-4.44978,0.412855,0
25.0679,-4.35316,0.413851,0
25.0292,-4.25355,0.417308,0
24.9968,-4.15066,0.42304,0
24.9619,-4.04824,0.428919,0
24.9245,-3.94632,0.434945,0
20.843,-10.6624,0.582747,0
20.9451,-10.6503,0.574622,0
21.0466,-10.6361,0.566595,0
21.1476,-10.6197,0.558655,0
21.2483,-10.6039,0.551536,0
21.3493,-10.5917,0.546038,0
21.4498,-10.577,0.54054,0
21.5502,-10.56,0.535042,0
21.6498,-10.5406,0.529544,0
21.7491,-10.5189,0.524075,0
21.8479,-10.4949,0.518616,0
21.946,-10.4686,0.513177,0
22.0434,-10.4399,0.507757,0
22.1402,-10.409,0.502366,0
22.2361,-10.3759,0.496995,0
22.3312,-10.3405,0.491654,0
22.4254,-10.3029,0.486361,0
22.5187,-10.2631,0.481097,0
22.6109,-10.2211,0.475863,0
22.7023,-10.177,0.470687,0
22.7924,-10.1308,0.46554,0
22.8814,-10.0825,0.460443,0
22.9705,-10.0342,0.455999,0
23.061,-9.98812,0.452845,0
23.1504,-9.93976,0.44972,0
23.2387,-9.88918,0.446605,0
23.326,-9.83639,0.443519,0
23.412,-9.78142,0.440452,0
23.4966,-9.72431,0.437405,0
23.58,-9.66508,0.434398,0
23.662,-9.60376,0.431419,0
23.7424,-9.54038,0.42847,0
23.8214,-9.47502,0.42556,0
23.8988,-9.40763,0.422679,0
23.9746,-9.33831,0.419847,0
24.0488,-9.2671,0.417054,0
24.1212,-9.19401,0.4143,0
24.1919,-9.1191,0.411585,0
24.2607,-9.04243,0.408939,0
24.3276,-8.964,0.406312,0
24.3927,-8.88392,0.403763,0
24.4611,-8.806,0.402786,0
24.5279,-8.72642,0.401946,0
24.593,-8.64509,0.401155,0
24.6563,-8.56211,0.400472,0
24.7178,-8.47748,0.399866,0
24.7773,-8.39129,0.399349,0
24.8349,-8.3035,0.398909,0
24.8905,-8.21423,0.398568,0
24.9441,-8.12346,0.398304,0
24.9956,-8.03131,0.398138,0
25.045,-7.93774,0.39805,0
25.0922,-7.84286,0.39806,0
25.1372,-7.74671,0.398157,0
25.1799,-7.64933,0.398343,0
25.2204,-7.5508,0.398626,0
25.2586,-7.45111,0.398988,0
25.2943,-7.35038,0.399446,0
25.3277,-7.24866,0.400013,0
25.3587,-7.146,0.400657,0
25.3872,-7.04242,0.40139,0
25.4133,-6.93806,0.402239,0
25.4383,-6.83311,0.403499,0
25.4605,-6.72739,0.404827,0
25.4802,-6.62093,0.406185,0
25.497,-6.51387,0.40762,0
25.5106,-6.40623,0.409007,0
25.5133,-6.29795,0.408626,0
25.513,-6.18964,0.408275,0
25.5099,-6.08143,0.407991,0
25.504,-5.97335,0.407737,0
25.4952,-5.86553,0.407532,0
25.4836,-5.75802,0.407376,0
25.4691,-5.6509,0.407259,0
25.4519,-5.54431,0.40721,0
25.4319,-5.43825,0.407191,0
25.4092,-5.3328,0.407239,0
25.3849,-5.22785,0.407601,0
25.3581,-5.12362,0.40805,0
25.3286,-5.02015,0.408548,0
25.2966,-4.91751,0.409124,0
25.2622,-4.81582,0.409798,0
25.2252,-4.71507,0.410521,0
25.1857,-4.61539,0.411341,0
25.1439,-4.51679,0.41222,0
25.0996,-4.41936,0.413167,0
25.053,-4.32313,0.414183,0
25.0193,-4.22125,0.419085,0
24.9861,-4.11851,0.424876,0
24.9504,-4.01622,0.430794,0
24.907,-3.9174,0.435472,0
20.7727,-10.6695,0.588363,0
20.8751,-10.6588,0.580189,0
20.977,-10.6461,0.572103,0
21.0784,-10.6312,0.564095,0
21.1791,-10.6141,0.556175,0
21.28,-10.6003,0.549818,0
21.3809,-10.5873,0.54431,0
21.4813,-10.5719,0.538812,0
21.5815,-10.5542,0.533323,0
21.6811,-10.5341,0.527835,0
21.7802,-10.5116,0.522357,0
21.8787,-10.4869,0.516907,0
21.9766,-10.4598,0.511478,0
22.0738,-10.4305,0.506068,0
22.1703,-10.3989,0.500677,0
22.266,-10.365,0.495316,0
22.3608,-10.3289,0.489993,0
22.4547,-10.2906,0.4847,0
22.5477,-10.2502,0.479446,0
22.6397,-10.2075,0.474232,0
22.7306,-10.1628,0.469056,0
22.8204,-10.1159,0.463939,0
22.9091,-10.067,0.458861,0
22.9989,-10.02,0.455013,0
23.0891,-9.9732,0.451868,0
23.1782,-9.92413,0.448734,0
23.2663,-9.87286,0.445638,0
23.353,-9.81938,0.442552,0
23.4387,-9.76373,0.439486,0
23.523,-9.70595,0.436458,0
23.6059,-9.64608,0.43346,0
23.6873,-9.58411,0.430491,0
23.7673,-9.52011,0.427562,0
23.8459,-9.45408,0.424652,0
23.9228,-9.3861,0.42179,0
23.9981,-9.31618,0.418968,0
24.0716,-9.24438,0.416185,0
24.1436,-9.17072,0.41345,0
24.2137,-9.09525,0.410755,0
24.2819,-9.01802,0.408118,0
24.3481,-8.93907,0.405511,0
24.4142,-8.85961,0.403421,0
24.4822,-8.78122,0.402523,0
24.5486,-8.70109,0.401693,0
24.6131,-8.61926,0.400941,0
24.6759,-8.53576,0.400286,0
24.7366,-8.45062,0.3997,0
24.7956,-8.36392,0.399202,0
24.8526,-8.27567,0.398802,0
24.9076,-8.18592,0.39847,0
24.9605,-8.09473,0.398245,0
25.0113,-8.0021,0.398099,0
25.0601,-7.90812,0.39804,0
25.1066,-7.81286,0.398089,0
25.1509,-7.7163,0.398206,0
25.1929,-7.61855,0.398431,0
25.2327,-7.51966,0.398734,0
25.27,-7.41966,0.399134,0
25.3051,-7.3186,0.399622,0
25.3377,-7.21654,0.400189,0
25.3679,-7.1136,0.400872,0
25.3955,-7.00978,0.401634,0
25.4214,-6.90523,0.40262,0
25.4455,-6.80004,0.403919,0
25.467,-6.69407,0.405247,0
25.4857,-6.58743,0.406634,0
25.5017,-6.4802,0.408089,0
25.5117,-6.37228,0.40888,0
25.5135,-6.26398,0.408519,0
25.5123,-6.15569,0.408177,0
25.5084,-6.04752,0.407904,0
25.5016,-5.93951,0.407669,0
25.4919,-5.83178,0.407484,0
25.4794,-5.72437,0.407337,0
25.464,-5.61742,0.407239,0
25.4459,-5.511,0.4072,0
25.425,-5.40511,0.407191,0
25.4019,-5.29982,0.407357,0
25.3768,-5.19511,0.407747,0
25.3491,-5.09109,0.408196,0
25.3189,-4.98786,0.408714,0
25.2861,-4.88554,0.409339,0
25.2508,-4.78412,0.410013,0
25.2131,-4.68371,0.410775,0
25.1728,-4.58436,0.411605,0
25.1302,-4.48609,0.412503,0
25.0853,-4.38906,0.413489,0
25.0408,-4.29202,0.415208,0
25.0091,-4.18898,0.420882,0
24.9752,-4.08638,0.426722,0
24.9387,-3.98426,0.432679,0
24.8882,-3.88915,0.435736,0
20.8108,-10.5538,0.587796,0
20.9105,-10.5428,0.579857,0
21.0096,-10.5298,0.571986,0
21.1082,-10.5147,0.564212,0
21.2063,-10.4976,0.556527,0
21.3039,-10.4785,0.548929,0
21.4012,-10.4608,0.542415,0
21.4988,-10.445,0.537073,0
21.596,-10.4269,0.531722,0
21.6927,-10.4066,0.5264,0
21.7889,-10.3839,0.521077,0
21.8845,-10.359,0.515784,0
21.9795,-10.3319,0.510511,0
22.0738,-10.3026,0.505247,0
22.1673,-10.2711,0.500032,0
22.2602,-10.2374,0.494827,0
22.352,-10.2015,0.489661,0
22.443,-10.1635,0.484525,0
22.5331,-10.1234,0.479427,0
22.6222,-10.0812,0.474368,0
22.7102,-10.037,0.469359,0
22.7972,-9.99067,0.464398,0
22.883,-9.94236,0.459476,0
22.9688,-9.89394,0.455169,0
23.0559,-9.84752,0.452122,0
23.142,-9.79893,0.449095,0
23.227,-9.74819,0.446087,0
23.3109,-9.69534,0.443099,0
23.3934,-9.64041,0.44014,0
23.4747,-9.58343,0.43721,0
23.5546,-9.52441,0.43431,0
23.6332,-9.46338,0.431439,0
23.7103,-9.40039,0.428597,0
23.7859,-9.33549,0.425794,0
23.8599,-9.26867,0.42303,0
23.9323,-9.20002,0.420306,0
24.0031,-9.12954,0.41762,0
24.0722,-9.05729,0.414993,0
24.1395,-8.98331,0.412396,0
24.205,-8.90763,0.409837,0
24.272,-8.8328,0.408343,0
24.339,-8.75751,0.407425,0
24.4042,-8.68051,0.406585,0
24.4679,-8.60184,0.405804,0
24.5298,-8.52152,0.40512,0
24.5898,-8.43962,0.404495,0
24.6481,-8.35617,0.403987,0
24.7045,-8.27122,0.403558,0
24.759,-8.18478,0.403196,0
24.8115,-8.0969,0.402923,0
24.8619,-8.00766,0.402747,0
24.9103,-7.91705,0.40263,0
24.9566,-7.82518,0.40262,0
25.0008,-7.73206,0.402718,0
25.0428,-7.6377,0.402864,0
25.0826,-7.54224,0.403118,0
25.1202,-7.44567,0.40345,0
25.1554,-7.34809,0.40389,0
25.1884,-7.2495,0.404407,0
25.219,-7.14999,0.405003,0
25.2472,-7.04962,0.405706,0
25.273,-6.94842,0.406478,0
25.2963,-6.8465,0.407366,0
25.3173,-6.74387,0.408314,0
25.3357,-6.64062,0.409368,0
25.3516,-6.53683,0.410511,0
25.3646,-6.43251,0.411663,0
25.3692,-6.32758,0.411527,0
25.3698,-6.22257,0.411175,0
25.3679,-6.11761,0.410902,0
25.3633,-6.01276,0.410706,0
25.3561,-5.90809,0.41057,0
25.3462,-5.80368,0.410521,0
25.3339,-5.6996,0.41055,0
25.3189,-5.5959,0.410648,0
25.3012,-5.49268,0.410823,0
25.2811,-5.38996,0.411068,0
25.2585,-5.28787,0.4114,0
25.2332,-5.18643,0.41178,0
25.2055,-5.0857,0.412249,0
25.1754,-4.9858,0.412806,0
25.1427,-4.88673,0.413411,0
25.1077,-4.7886,0.414114,0
25.0703,-4.69144,0.414866,0
25.0305,-4.5953,0.415687,0
24.9884,-4.50029,0.416585,0
24.9444,-4.40632,0.41763,0
24.9148,-4.30598,0.423079,0
24.8829,-4.20604,0.428675,0
24.8486,-4.10658,0.434427,0
24.812,-4.0076,0.440286,0
20.8421,-10.5506,0.585306,0
20.9416,-10.539,0.577376,0
21.0406,-10.5253,0.569534,0
21.1391,-10.5096,0.56179,0
21.237,-10.4918,0.554134,0
21.3343,-10.4721,0.546566,0
21.4319,-10.4561,0.540736,0
21.5294,-10.4396,0.535384,0
21.6264,-10.4208,0.530052,0
21.7229,-10.3997,0.52473,0
21.819,-10.3764,0.519427,0
21.9144,-10.3508,0.514134,0
22.0091,-10.323,0.508861,0
22.1032,-10.293,0.503616,0
22.1965,-10.2608,0.498402,0
22.289,-10.2264,0.493206,0
22.3807,-10.1898,0.48805,0
22.4714,-10.1512,0.482923,0
22.5612,-10.1104,0.477835,0
22.6499,-10.0676,0.472796,0
22.7376,-10.0227,0.467806,0
22.8242,-9.97572,0.462845,0
22.9098,-9.9268,0.457943,0
22.9963,-9.87962,0.454212,0
23.083,-9.83251,0.451165,0
23.1688,-9.78324,0.448148,0
23.2534,-9.73184,0.44514,0
23.3369,-9.67834,0.442171,0
23.4191,-9.62276,0.439222,0
23.4999,-9.56513,0.436292,0
23.5794,-9.50548,0.433402,0
23.6575,-9.44385,0.43055,0
23.7341,-9.38024,0.427718,0
23.8093,-9.31475,0.424935,0
23.8828,-9.24735,0.422181,0
23.9548,-9.17811,0.419466,0
24.0249,-9.10707,0.4168,0
24.0934,-9.03428,0.414173,0
24.1602,-8.95976,0.411595,0
24.2252,-8.88355,0.409046,0
24.2932,-8.80937,0.40804,0
24.3596,-8.73353,0.407142,0
24.4245,-8.65599,0.406312,0
24.4875,-8.57681,0.405579,0
24.5488,-8.49602,0.404925,0
24.6084,-8.41362,0.404329,0
24.666,-8.32969,0.403841,0
24.7218,-8.24427,0.403431,0
24.7756,-8.15737,0.403099,0
24.8274,-8.06907,0.402864,0
24.8773,-7.97937,0.402689,0
24.9251,-7.88839,0.40263,0
24.9707,-7.7961,0.40265,0
25.0142,-7.70259,0.402747,0
25.0555,-7.60789,0.402933,0
25.0947,-7.51208,0.403216,0
25.1315,-7.41518,0.403577,0
25.166,-7.31727,0.404036,0
25.1982,-7.21839,0.404593,0
25.228,-7.11859,0.405208,0
25.2555,-7.01798,0.40595,0
25.2805,-6.91654,0.406751,0
25.3032,-6.81438,0.40765,0
25.3234,-6.71156,0.408636,0
25.3409,-6.60812,0.40971,0
25.356,-6.50417,0.410892,0
25.3672,-6.39965,0.41181,0
25.3697,-6.29465,0.411409,0
25.3695,-6.18965,0.411077,0
25.3667,-6.08472,0.410833,0
25.3613,-5.97991,0.410648,0
25.3534,-5.87533,0.41056,0
25.3427,-5.77101,0.41053,0
25.3295,-5.66703,0.41057,0
25.3136,-5.56347,0.410687,0
25.2952,-5.46039,0.410882,0
25.2743,-5.35789,0.411165,0
25.2508,-5.25597,0.411497,0
25.2248,-5.15475,0.411917,0
25.1963,-5.0543,0.412425,0
25.1655,-4.95464,0.412982,0
25.132,-4.85585,0.413616,0
25.0962,-4.75802,0.414339,0
25.058,-4.66117,0.415111,0
25.0176,-4.5654,0.41597,0
24.9748,-4.47074,0.416888,0
24.9353,-4.37481,0.419329,0
24.905,-4.27459,0.424818,0
24.8724,-4.17479,0.430462,0
24.8373,-4.07548,0.436243,0
24.7999,-3.97671,0.442171,0
20.7735,-10.5573,0.590794,0
20.8734,-10.5471,0.582816,0
20.9727,-10.5349,0.574915,0
21.0715,-10.5206,0.567103,0
21.1698,-10.5042,0.559378,0
21.2675,-10.4858,0.551751,0
21.3648,-10.4661,0.544407,0
21.4625,-10.4512,0.539056,0
21.5598,-10.4339,0.533714,0
21.6567,-10.4144,0.528382,0
21.7531,-10.3926,0.52306,0
21.849,-10.3686,0.517757,0
21.9441,-10.3423,0.512484,0
22.0387,-10.3138,0.50721,0
22.1326,-10.2831,0.501976,0
22.2256,-10.2502,0.496761,0
22.3179,-10.2151,0.491585,0
22.4092,-10.1779,0.486439,0
22.4997,-10.1386,0.481331,0
22.5891,-10.0972,0.476263,0
22.6775,-10.0537,0.471224,0
22.7649,-10.0082,0.466243,0
22.8512,-9.9606,0.461302,0
22.9362,-9.91105,0.456409,0
23.0236,-9.86508,0.453255,0
23.1101,-9.81728,0.450218,0
23.1955,-9.76734,0.4472,0
23.2797,-9.71529,0.444212,0
23.3628,-9.66114,0.441243,0
23.4445,-9.6049,0.438304,0
23.525,-9.54663,0.435384,0
23.6041,-9.48638,0.432513,0
23.6817,-9.4241,0.429652,0
23.7579,-9.35991,0.426849,0
23.8325,-9.29381,0.424066,0
23.9055,-9.22583,0.421321,0
23.9769,-9.15602,0.418616,0
24.0466,-9.08443,0.41597,0
24.1146,-9.01108,0.413353,0
24.1808,-8.93604,0.410784,0
24.2466,-8.86045,0.408714,0
24.3141,-8.78578,0.407757,0
24.3802,-8.7094,0.406888,0
24.4444,-8.63135,0.406087,0
24.507,-8.55165,0.405364,0
24.5677,-8.47034,0.40472,0
24.6266,-8.38746,0.404173,0
24.6838,-8.30308,0.403704,0
24.7388,-8.21718,0.403314,0
24.7921,-8.12983,0.403011,0
24.8434,-8.04108,0.402786,0
24.8925,-7.95099,0.402669,0
24.9396,-7.85958,0.40263,0
24.9846,-7.76691,0.402669,0
25.0274,-7.67302,0.402796,0
25.068,-7.57796,0.403011,0
25.1064,-7.4818,0.403314,0
25.1425,-7.38459,0.403724,0
25.1764,-7.28637,0.404202,0
25.2078,-7.18719,0.404769,0
25.237,-7.08713,0.405433,0
25.2636,-6.98626,0.406195,0
25.2879,-6.88459,0.407025,0
25.3098,-6.78221,0.407952,0
25.3291,-6.67917,0.408958,0
25.3459,-6.57558,0.410062,0
25.3603,-6.47146,0.411263,0
25.3683,-6.36672,0.411663,0
25.3699,-6.26173,0.411302,0
25.3689,-6.15674,0.410999,0
25.3653,-6.05184,0.410765,0
25.3591,-5.94709,0.410609,0
25.3502,-5.84258,0.41054,0
25.3387,-5.73835,0.41053,0
25.3248,-5.6345,0.410599,0
25.3081,-5.53111,0.410755,0
25.289,-5.4282,0.41097,0
25.2673,-5.32585,0.411263,0
25.243,-5.22417,0.411634,0
25.2162,-5.12316,0.412064,0
25.187,-5.02294,0.412581,0
25.1552,-4.92354,0.413167,0
25.1211,-4.82508,0.413841,0
25.0845,-4.72754,0.414564,0
25.0456,-4.63103,0.415374,0
25.0044,-4.5356,0.416253,0
24.9609,-4.4413,0.417191,0
24.9261,-4.34334,0.421028,0
24.895,-4.24324,0.426566,0
24.8616,-4.14359,0.432259,0
24.8259,-4.04443,0.438089,0
24.7877,-3.94583,0.444036,0
20.8106,-10.4467,0.590179,0
20.9078,-10.4363,0.582425,0
21.0046,-10.4238,0.574739,0
21.1009,-10.4093,0.567152,0
21.1966,-10.3929,0.559652,0
21.2917,-10.3744,0.55223,0
21.3862,-10.354,0.544905,0
21.4802,-10.3316,0.537679,0
21.5745,-10.3129,0.532161,0
21.6687,-10.2931,0.526986,0
21.7623,-10.2711,0.5218,0
21.8553,-10.2469,0.516653,0
21.9477,-10.2206,0.511517,0
22.0395,-10.1921,0.5064,0
22.1305,-10.1614,0.501312,0
22.2208,-10.1286,0.496263,0
22.3102,-10.0938,0.491224,0
22.3988,-10.0568,0.486234,0
22.4866,-10.0178,0.481263,0
22.5733,-9.9768,0.476351,0
22.659,-9.93376,0.471468,0
22.7436,-9.88874,0.466634,0
22.8271,-9.84177,0.461849,0
22.9095,-9.79287,0.457103,0
22.9928,-9.74543,0.45347,0
23.0764,-9.69809,0.45053,0
23.159,-9.64865,0.447601,0
23.2404,-9.59719,0.44471,0
23.3205,-9.54368,0.441829,0
23.3995,-9.48819,0.438978,0
23.4771,-9.43074,0.436165,0
23.5534,-9.37136,0.433382,0
23.6283,-9.31006,0.430628,0
23.7016,-9.24688,0.427904,0
23.7736,-9.18189,0.425218,0
23.8438,-9.11509,0.422571,0
23.9125,-9.04655,0.419974,0
23.9796,-8.97627,0.417396,0
24.0449,-8.90433,0.414876,0
24.1117,-8.83322,0.413411,0
24.1782,-8.76147,0.412435,0
24.2432,-8.68808,0.411546,0
24.3066,-8.61301,0.410726,0
24.3683,-8.53635,0.409993,0
24.4283,-8.45811,0.409329,0
24.4866,-8.37832,0.408753,0
24.543,-8.29703,0.408255,0
24.5977,-8.21429,0.407835,0
24.6504,-8.13011,0.407493,0
24.7013,-8.04455,0.407239,0
24.7501,-7.95764,0.407054,0
24.797,-7.86946,0.406976,0
24.8418,-7.78004,0.406986,0
24.8846,-7.68939,0.407064,0
24.9252,-7.59759,0.40722,0
24.9637,-7.50471,0.407474,0
24.9999,-7.41077,0.407816,0
25.0341,-7.31583,0.408236,0
25.0659,-7.21996,0.408753,0
25.0954,-7.12316,0.409349,0
25.1227,-7.02555,0.410013,0
25.1476,-6.92718,0.410794,0
25.1702,-6.82806,0.411644,0
25.1902,-6.7283,0.412581,0
25.208,-6.62794,0.413607,0
25.2223,-6.52697,0.414515,0
25.2341,-6.42557,0.415462,0
25.2382,-6.32363,0.415247,0
25.2389,-6.22164,0.414905,0
25.237,-6.11966,0.414622,0
25.2326,-6.01783,0.414437,0
25.2256,-5.91615,0.41431,0
25.2161,-5.81474,0.414271,0
25.2041,-5.71362,0.41429,0
25.1897,-5.61287,0.414378,0
25.1726,-5.51258,0.414544,0
25.1531,-5.4128,0.414779,0
25.1313,-5.31359,0.415101,0
25.1068,-5.21502,0.415462,0
25.08,-5.11716,0.415931,0
25.0508,-5.02006,0.416448,0
25.0192,-4.92378,0.417034,0
24.9852,-4.82839,0.417698,0
24.9491,-4.73395,0.418441,0
24.9105,-4.64053,0.419241,0
24.8698,-4.54816,0.42012,0
24.8351,-4.45338,0.423245,0
24.8059,-4.35585,0.428587,0
24.7745,-4.25871,0.434046,0
24.7408,-4.16202,0.439642,0
24.7048,-4.06586,0.445364,0
20.8412,-10.4437,0.587738,0
20.9383,-10.4326,0.580003,0
21.0348,-10.4195,0.572357,0
21.1309,-10.4044,0.564788,0
21.2264,-10.3873,0.557308,0
21.3214,-10.3682,0.549925,0
21.4158,-10.3472,0.54263,0
21.5097,-10.3252,0.535726,0
21.6041,-10.3069,0.53053,0
21.698,-10.2864,0.525355,0
21.7915,-10.2638,0.520179,0
21.8844,-10.2389,0.515042,0
21.9766,-10.2119,0.509915,0
22.0681,-10.1827,0.504808,0
22.1589,-10.1514,0.49973,0
22.249,-10.1179,0.494681,0
22.3381,-10.0824,0.489652,0
22.4265,-10.0448,0.484671,0
22.5138,-10.0052,0.47972,0
22.6002,-9.96352,0.474818,0
22.6856,-9.91985,0.469945,0
22.7698,-9.87423,0.46513,0
22.8531,-9.82664,0.460355,0
22.9352,-9.77715,0.455628,0
23.0192,-9.73081,0.452542,0
23.1024,-9.6828,0.449603,0
23.1846,-9.63273,0.446693,0
23.2657,-9.58062,0.443802,0
23.3455,-9.52651,0.440941,0
23.424,-9.4704,0.438099,0
23.5012,-9.41232,0.435286,0
23.577,-9.35232,0.432503,0
23.6514,-9.29046,0.429769,0
23.7243,-9.22671,0.427054,0
23.7957,-9.16115,0.424388,0
23.8655,-9.09378,0.421751,0
23.9338,-9.02469,0.419154,0
24.0003,-8.95389,0.416605,0
24.0651,-8.88147,0.414124,0
24.1327,-8.8109,0.413089,0
24.1988,-8.73865,0.412161,0
24.2633,-8.66473,0.411292,0
24.3262,-8.58914,0.410482,0
24.3873,-8.51197,0.409769,0
24.4468,-8.43322,0.409124,0
24.5045,-8.35298,0.408577,0
24.5603,-8.27124,0.408109,0
24.6144,-8.18804,0.407718,0
24.6666,-8.10343,0.407405,0
24.7168,-8.01743,0.407171,0
24.765,-7.93014,0.407034,0
24.8112,-7.84153,0.406956,0
24.8554,-7.75173,0.406986,0
24.8976,-7.66072,0.407103,0
24.9375,-7.56859,0.407298,0
24.9753,-7.47536,0.407571,0
25.0109,-7.38108,0.407933,0
25.0443,-7.28586,0.408392,0
25.0754,-7.18968,0.408919,0
25.1042,-7.09266,0.409554,0
25.1308,-6.99478,0.410257,0
25.1549,-6.89617,0.411058,0
25.1767,-6.79686,0.411937,0
25.1961,-6.69688,0.412894,0
25.2128,-6.59634,0.413909,0
25.2263,-6.49521,0.414808,0
25.2362,-6.39364,0.41553,0
25.2387,-6.29164,0.41512,0
25.2385,-6.18966,0.414808,0
25.2359,-6.08771,0.414554,0
25.2307,-5.98593,0.414398,0
25.2229,-5.88431,0.41428,0
25.2127,-5.78298,0.414251,0
25.1998,-5.68198,0.41431,0
25.1845,-5.58137,0.414417,0
25.1668,-5.48124,0.414622,0
25.1466,-5.38163,0.414876,0
25.1238,-5.28261,0.415208,0
25.0987,-5.18425,0.415599,0
25.0711,-5.08663,0.416087,0
25.0411,-4.98977,0.416624,0
25.0088,-4.89378,0.417259,0
24.9741,-4.79868,0.417933,0
24.9372,-4.70456,0.418695,0
24.898,-4.61145,0.419515,0
24.8565,-4.51941,0.420394,0
24.8262,-4.42275,0.424905,0
24.7963,-4.32534,0.430286,0
24.7642,-4.22833,0.435784,0
24.7298,-4.13181,0.441409,0
24.6931,-4.03585,0.44721,0
20.7743,-10.4501,0.593099,0
20.8716,-10.4404,0.585306,0
20.9686,-10.4287,0.577601,0
21.065,-10.415,0.569974,0
21.1609,-10.3992,0.562435,0
21.2563,-10.3815,0.554984,0
21.3511,-10.3618,0.54763,0
21.4452,-10.3402,0.540364,0
21.5394,-10.3197,0.534095,0
21.6337,-10.3008,0.528909,0
21.7274,-10.2796,0.523734,0
21.8207,-10.2562,0.518568,0
21.9133,-10.2306,0.513431,0
22.0054,-10.2029,0.508304,0
22.0966,-10.1731,0.503206,0
22.1872,-10.1411,0.498128,0
22.277,-10.107,0.493089,0
22.3659,-10.0708,0.488089,0
22.454,-10.0326,0.483109,0
22.541,-9.99232,0.478177,0
22.6271,-9.95004,0.473284,0
22.7121,-9.90575,0.468431,0
22.7961,-9.85952,0.463626,0
22.8789,-9.81133,0.45887,0
22.9614,-9.76254,0.454564,0
23.0455,-9.71599,0.451624,0
23.1284,-9.66733,0.448695,0
23.2102,-9.61662,0.445784,0
23.2908,-9.56387,0.442904,0
23.3702,-9.50911,0.440042,0
23.4484,-9.45238,0.43721,0
23.5252,-9.39372,0.434407,0
23.6005,-9.33313,0.431653,0
23.6745,-9.27065,0.428909,0
23.747,-9.20634,0.426214,0
23.8178,-9.14021,0.423558,0
23.8871,-9.07231,0.420941,0
23.9548,-9.00268,0.418362,0
24.0208,-8.93134,0.415814,0
24.0865,-8.85953,0.413792,0
24.1536,-8.78842,0.412786,0
24.2191,-8.71562,0.411868,0
24.2831,-8.64118,0.411019,0
24.3455,-8.56513,0.410257,0
24.4061,-8.48744,0.409554,0
24.465,-8.40823,0.408948,0
24.5222,-8.3275,0.408421,0
24.5775,-8.24529,0.407972,0
24.6309,-8.16167,0.40762,0
24.6825,-8.0766,0.407318,0
24.7321,-7.9902,0.407112,0
24.7797,-7.90249,0.407005,0
24.8253,-7.81351,0.406956,0
24.8688,-7.72332,0.407015,0
24.9103,-7.63194,0.407142,0
24.9496,-7.53945,0.407357,0
24.9867,-7.4459,0.407669,0
25.0216,-7.35135,0.40807,0
25.0543,-7.25578,0.408529,0
25.0847,-7.15933,0.409095,0
25.1128,-7.06204,0.409749,0
25.1385,-6.96394,0.410491,0
25.162,-6.8651,0.411312,0
25.183,-6.76557,0.41222,0
25.2016,-6.66542,0.413216,0
25.2173,-6.56468,0.414193,0
25.2301,-6.46341,0.415091,0
25.2373,-6.36166,0.415394,0
25.2389,-6.25964,0.415013,0
25.238,-6.15768,0.41472,0
25.2345,-6.0558,0.414505,0
25.2285,-5.95403,0.414349,0
25.2199,-5.85249,0.414261,0
25.2089,-5.75127,0.414271,0
25.1953,-5.65038,0.414329,0
25.1792,-5.54993,0.414476,0
25.1607,-5.44994,0.414681,0
25.1397,-5.35052,0.414974,0
25.1162,-5.25171,0.415335,0
25.0903,-5.15355,0.415745,0
25.062,-5.05616,0.416253,0
25.0312,-4.95957,0.41682,0
24.9982,-4.86387,0.417464,0
24.9628,-4.76905,0.418157,0
24.9252,-4.67524,0.418939,0
24.8852,-4.58247,0.419778,0
24.8453,-4.48983,0.421302,0
24.817,-4.39216,0.426575,0
24.7865,-4.29486,0.431986,0
24.7537,-4.19801,0.437532,0
24.7185,-4.10166,0.443226,0
24.6811,-4.00587,0.449046,0
20.8105,-10.3445,0.592464,0
20.9054,-10.3345,0.584876,0
20.9998,-10.3225,0.577376,0
21.0938,-10.3086,0.569964,0
21.1873,-10.2927,0.56263,0
21.2802,-10.2748,0.555384,0
21.3725,-10.2551,0.548226,0
21.4641,-10.2334,0.541175,0
21.5552,-10.2099,0.534212,0
21.6457,-10.1851,0.527523,0
21.7369,-10.1637,0.522484,0
21.8275,-10.1402,0.517464,0
21.9174,-10.1146,0.512474,0
22.0069,-10.0869,0.507493,0
22.0955,-10.057,0.502532,0
22.1834,-10.0252,0.497611,0
22.2705,-9.99124,0.492708,0
22.3568,-9.95529,0.487845,0
22.4422,-9.91735,0.483021,0
22.5266,-9.87743,0.478226,0
22.6101,-9.83555,0.47347,0
22.6925,-9.79175,0.468763,0
22.774,-9.74605,0.464105,0
22.8541,-9.69847,0.459486,0
22.9333,-9.64903,0.454915,0
23.0142,-9.60234,0.451898,0
23.0944,-9.55416,0.449056,0
23.1735,-9.50398,0.446224,0
23.2514,-9.45187,0.443441,0
23.3281,-9.3978,0.440667,0
23.4036,-9.34184,0.437923,0
23.4777,-9.28399,0.435228,0
23.5504,-9.22431,0.432542,0
23.6217,-9.16281,0.429896,0
23.6916,-9.09953,0.427288,0
23.7598,-9.03452,0.42473,0
23.8266,-8.96778,0.422181,0
23.8917,-8.8994,0.4197,0
23.9583,-8.83191,0.418275,0
24.0244,-8.76359,0.417269,0
24.089,-8.69361,0.416331,0
24.1521,-8.62203,0.415472,0
24.2137,-8.54883,0.414691,0
24.2735,-8.47406,0.413968,0
24.3318,-8.39778,0.413323,0
24.3883,-8.32002,0.412777,0
24.443,-8.24078,0.412288,0
24.4961,-8.16015,0.411898,0
24.5472,-8.07812,0.411575,0
24.5965,-7.99477,0.411331,0
24.6438,-7.91013,0.411175,0
24.6893,-7.82422,0.411097,0
24.7327,-7.73713,0.411107,0
24.7741,-7.64886,0.411185,0
24.8135,-7.55948,0.411351,0
24.8508,-7.46905,0.411614,0
24.8859,-7.3776,0.411937,0
24.9188,-7.2852,0.412366,0
24.9496,-7.19187,0.412864,0
24.9782,-7.0977,0.41345,0
25.0045,-7.00272,0.414124,0
25.0285,-6.90698,0.414876,0
25.0502,-6.81057,0.415706,0
25.0691,-6.71347,0.416517,0
25.0853,-6.61576,0.417298,0
25.0991,-6.51759,0.418148,0
25.1103,-6.41899,0.419075,0
25.114,-6.31988,0.418763,0
25.1146,-6.22075,0.418441,0
25.1128,-6.12165,0.418177,0
25.1086,-6.02265,0.417991,0
25.1019,-5.92381,0.417864,0
25.0927,-5.8252,0.417806,0
25.0812,-5.72692,0.417835,0
25.067,-5.62897,0.417913,0
25.0506,-5.53147,0.418079,0
25.0318,-5.43444,0.418294,0
25.0105,-5.33799,0.418597,0
24.9869,-5.24215,0.418978,0
24.9609,-5.147,0.419417,0
24.9327,-5.05257,0.419915,0
24.902,-4.95894,0.420491,0
24.8691,-4.86617,0.421136,0
24.834,-4.77432,0.421859,0
24.7966,-4.68343,0.42262,0
24.7573,-4.59346,0.423538,0
24.7309,-4.4982,0.428607,0
24.7023,-4.40332,0.433812,0
24.6714,-4.30884,0.439154,0
24.6383,-4.21481,0.444613,0
24.6029,-4.12134,0.450218,0
20.8402,-10.3415,0.590071,0
20.935,-10.3309,0.582523,0
21.0294,-10.3183,0.575052,0
21.1231,-10.3038,0.567659,0
21.2164,-10.2873,0.560355,0
21.3091,-10.2689,0.553138,0
21.4012,-10.2485,0.546009,0
21.4928,-10.2263,0.538978,0
21.5837,-10.2021,0.532044,0
