56.5748,-53.2264,-0.834826,0
56.6386,-53.1774,-0.843879,0
56.7013,-53.1269,-0.852809,0
56.7629,-53.0749,-0.861608,0
56.8232,-53.0214,-0.870265,0
56.8822,-52.9666,-0.878786,0
56.94,-52.9104,-0.887175,0
56.9964,-52.8529,-0.895397,0
57.0515,-52.794,-0.903478,0
57.1052,-52.7339,-0.911388,0
57.1576,-52.6725,-0.919142,0
57.2084,-52.6099,-0.92673,0
57.2578,-52.5461,-0.934147,0
57.3058,-52.4812,-0.941388,0
57.3522,-52.4152,-0.948449,0
57.397,-52.3481,-0.955324,0
57.4404,-52.28,-0.962013,0
57.482,-52.2109,-0.968522,0
57.5222,-52.1408,-0.974831,0
57.5616,-52.0703,-0.980656,0
57.5996,-51.9989,-0.986222,0
57.6359,-51.9267,-0.991613,0
57.6705,-51.8535,-0.996813,0
57.7033,-51.7795,-1.00182,0
57.7344,-51.7048,-1.00663,0
57.7636,-51.6292,-1.01126,0
57.7911,-51.553,-1.01568,0
57.8167,-51.4761,-1.01989,0
57.8405,-51.3986,-1.02391,0
57.8625,-51.3206,-1.0277,0
57.8827,-51.242,-1.0313,0
57.9008,-51.1629,-1.03469,0
57.9172,-51.0834,-1.03785,0
57.9316,-51.0036,-1.0408,0
57.9441,-50.9234,-1.04354,0
57.9545,-50.8428,-1.04613,0
57.9624,-50.7621,-1.04861,0
57.9684,-50.6811,-1.05084,0
57.9726,-50.6001,-1.05287,0
57.9748,-50.519,-1.05466,0
57.975,-50.4378,-1.05623,0
57.9704,-50.3568,-1.0583,0
57.9637,-50.276,-1.06016,0
57.9552,-50.1955,-1.06181,0
57.9446,-50.1152,-1.06324,0
57.9321,-50.0354,-1.06446,0
57.9177,-49.956,-1.06547,0
57.9012,-49.877,-1.06625,0
57.883,-49.7985,-1.06683,0
57.8628,-49.7207,-1.06719,0
57.8408,-49.6434,-1.06734,0
57.817,-49.5668,-1.06727,0
57.7912,-49.4909,-1.06699,0
57.7638,-49.4157,-1.0665,0
57.7346,-49.3413,-1.0658,0
57.7037,-49.2678,-1.0649,0
57.6709,-49.1952,-1.06378,0
57.6366,-49.1234,-1.06247,0
57.6006,-49.0526,-1.06094,0
57.563,-48.9828,-1.05923,0
57.5237,-48.9141,-1.05731,0
57.4829,-48.8464,-1.05519,0
57.4406,-48.7798,-1.05288,0
57.3967,-48.7143,-1.05037,0
57.3514,-48.65,-1.04768,0
57.3065,-48.5859,-1.04424,0
57.2622,-48.5214,-1.03995,0
57.2165,-48.458,-1.03546,0
57.1702,-48.3953,-1.0305,0
57.1245,-48.3319,-1.02463,0
57.0774,-48.2697,-1.01857,0
57.0287,-48.2086,-1.01234,0
56.9786,-48.1487,-1.00593,0
56.9269,-48.09,-0.999352,0
56.8737,-48.0326,-0.992604,0
56.8192,-47.9765,-0.9857,0
56.7634,-47.9217,-0.978644,0
56.7062,-47.8683,-0.971428,0
56.6477,-47.8163,-0.964069,0
57.5602,-51.9123,-0.982975,0
57.5944,-51.8409,-0.988107,0
57.6269,-51.7687,-0.993053,0
57.6577,-51.6957,-0.997814,0
57.6868,-51.6219,-1.00238,0
57.7141,-51.5475,-1.00675,0
57.7396,-51.4724,-1.01093,0
57.7634,-51.3967,-1.0149,0
57.7853,-51.3205,-1.01868,0
57.8055,-51.2437,-1.02224,0
57.8237,-51.1665,-1.0256,0
57.8402,-51.0888,-1.02876,0
57.8548,-51.0107,-1.0317,0
57.8675,-50.9323,-1.03442,0
57.878,-50.8536,-1.037,0
57.8864,-50.7746,-1.03947,0
57.8928,-50.6954,-1.04173,0
57.8973,-50.6161,-1.04376,0
57.9,-50.5367,-1.04557,0
57.8988,-50.4574,-1.04765,0
57.8948,-50.3781,-1.04974,0
57.8889,-50.299,-1.05162,0
57.8811,-50.2202,-1.05329,0
57.8713,-50.1416,-1.05476,0
57.8597,-50.0634,-1.05602,0
57.8461,-49.9856,-1.05706,0
57.8306,-49.9083,-1.05789,0
57.8133,-49.8314,-1.05852,0
57.7941,-49.7551,-1.05893,0
57.7732,-49.6793,-1.05914,0
57.7504,-49.6042,-1.05914,0
57.7259,-49.5297,-1.05893,0
57.6995,-49.456,-1.05852,0
57.6715,-49.383,-1.05789,0
57.6417,-49.3108,-1.05708,0
57.6102,-49.2395,-1.05604,0
57.5771,-49.169,-1.05482,0
57.5424,-49.0995,-1.0534,0
57.506,-49.0309,-1.05177,0
57.4682,-48.9633,-1.04996,0
57.4287,-48.8968,-1.04795,0
57.3878,-48.8313,-1.04574,0
57.3454,-48.7669,-1.04335,0
57.3015,-48.7036,-1.04077,0
57.2577,-48.6406,-1.03752,0
57.2148,-48.5772,-1.03337,0
57.1705,-48.5149,-1.02902,0
57.1247,-48.4537,-1.02448,0
57.0783,-48.393,-1.01946,0
57.0326,-48.3318,-1.01358,0
56.9853,-48.2718,-1.00752,0
56.9366,-48.213,-1.00128,0
56.8863,-48.1553,-0.994889,0
56.8347,-48.0989,-0.988327,0
56.7818,-48.0437,-0.981618,0
56.7274,-47.9898,-0.974748,0
56.6718,-47.9373,-0.967726,0
56.6148,-47.8861,-0.960558,0
55.7762,-53.6103,-0.719518,0
55.8484,-53.5783,-0.730099,0
55.9198,-53.5446,-0.740627,0
55.9902,-53.509,-0.75112,0
56.0598,-53.4718,-0.76155,0
56.1284,-53.4329,-0.771916,0
56.1959,-53.3924,-0.782209,0
56.2625,-53.3503,-0.79238,0
56.3293,-53.3085,-0.801716,0
56.3952,-53.2652,-0.810934,0
56.4601,-53.2204,-0.820046,0
56.5238,-53.174,-0.82905,0
56.5865,-53.1262,-0.837931,0
56.648,-53.0769,-0.846691,0
56.7084,-53.0261,-0.855329,0
56.7676,-52.974,-0.86383,0
56.8256,-52.9204,-0.872189,0
56.8823,-52.8656,-0.880407,0
56.9378,-52.8094,-0.888488,0
56.992,-52.7519,-0.896418,0
57.0447,-52.6932,-0.904181,0
57.0961,-52.6333,-0.911789,0
57.1461,-52.5721,-0.919245,0
57.1947,-52.5098,-0.92653,0
57.2418,-52.4464,-0.933644,0
57.2874,-52.3819,-0.940573,0
57.3316,-52.3163,-0.947336,0
57.3741,-52.2498,-0.953903,0
57.4152,-52.1822,-0.960304,0
57.4547,-52.1137,-0.966506,0
57.4926,-52.0443,-0.972511,0
57.5288,-51.974,-0.978322,0
57.5645,-51.9034,-0.983625,0
57.5985,-51.8319,-0.988737,0
57.6309,-51.7596,-0.993659,0
57.6614,-51.6865,-0.9984,0
57.6903,-51.6127,-1.00294,0
57.7173,-51.5381,-1.00729,0
57.7427,-51.463,-1.01144,0
57.7663,-51.3872,-1.01539,0
57.788,-51.3109,-1.01913,0
57.8079,-51.234,-1.02268,0
57.8259,-51.1567,-1.02601,0
57.8421,-51.079,-1.02914,0
57.8565,-51.0009,-1.03205,0
57.8689,-50.9224,-1.03475,0
57.8792,-50.8437,-1.03733,0
57.8873,-50.7647,-1.03977,0
57.8935,-50.6855,-1.04199,0
57.8977,-50.6062,-1.044,0
57.9002,-50.5268,-1.04578,0
57.8984,-50.4474,-1.04792,0
57.8942,-50.3682,-1.04999,0
57.888,-50.2891,-1.05185,0
57.8799,-50.2103,-1.05349,0
57.8699,-50.1318,-1.05493,0
57.858,-50.0536,-1.05615,0
57.8442,-49.9759,-1.05718,0
57.8285,-49.8986,-1.05799,0
57.811,-49.8218,-1.05858,0
57.7916,-49.7455,-1.05897,0
57.7704,-49.6698,-1.05916,0
57.7474,-49.5948,-1.05912,0
57.7226,-49.5204,-1.05889,0
57.696,-49.4468,-1.05845,0
57.6678,-49.3739,-1.0578,0
57.6378,-49.3018,-1.05695,0
57.6062,-49.2306,-1.05591,0
57.5728,-49.1603,-1.05465,0
57.538,-49.0908,-1.0532,0
57.5014,-49.0224,-1.05155,0
57.4633,-48.9549,-1.04971,0
57.4237,-48.8885,-1.04767,0
57.3826,-48.8231,-1.04546,0
57.3399,-48.7589,-1.04303,0
57.2959,-48.6958,-1.04044,0
57.2525,-48.6326,-1.03701,0
57.2094,-48.5694,-1.03284,0
57.1648,-48.5072,-1.02846,0
57.1188,-48.4461,-1.02391,0
57.0727,-48.3853,-1.01873,0
57.0267,-48.3243,-1.01283,0
56.9792,-48.2644,-1.00674,0
56.9303,-48.2057,-1.0005,0
56.8799,-48.1482,-0.994074,0
56.8281,-48.0919,-0.987502,0
56.775,-48.0369,-0.980763,0
56.7205,-47.9831,-0.973879,0
56.6647,-47.9308,-0.966838,0
56.6076,-47.8798,-0.959655,0
55.7852,-53.6064,-0.720846,0
55.8573,-53.5742,-0.731427,0
55.9286,-53.5402,-0.74195,0
55.999,-53.5045,-0.752428,0
56.0684,-53.4671,-0.762848,0
56.1369,-53.4279,-0.773205,0
56.2043,-53.3872,-0.783493,0
56.2709,-53.3452,-0.793561,0
56.3377,-53.3032,-0.802873,0
56.4034,-53.2597,-0.812087,0
56.468,-53.2147,-0.821178,0
56.5317,-53.1681,-0.830168,0
56.5943,-53.1201,-0.83904,0
56.6556,-53.0706,-0.847775,0
56.7159,-53.0197,-0.856398,0
56.775,-52.9673,-0.864885,0
56.8327,-52.9136,-0.873224,0
56.8894,-52.8586,-0.881428,0
56.9446,-52.8023,-0.889489,0
56.9985,-52.7446,-0.897389,0
57.0512,-52.6858,-0.905138,0
57.1024,-52.6257,-0.912736,0
57.1522,-52.5644,-0.920168,0
57.2006,-52.5019,-0.927428,0
57.2476,-52.4384,-0.934513,0
57.293,-52.3737,-0.941432,0
57.337,-52.308,-0.948171,0
57.3794,-52.2413,-0.954723,0
57.4202,-52.1737,-0.961091,0
57.4595,-52.105,-0.967272,0
57.4972,-52.0355,-0.973249,0
57.5334,-51.9652,-0.979011,0
57.5688,-51.8945,-0.984274,0
57.6027,-51.8229,-0.989367,0
57.6348,-51.7505,-0.994264,0
57.6652,-51.6773,-0.998981,0
57.6937,-51.6034,-1.0035,0
57.7207,-51.5288,-1.00782,0
57.7457,-51.4535,-1.01195,0
57.7691,-51.3777,-1.01587,0
57.7905,-51.3013,-1.01959,0
57.8102,-51.2244,-1.02311,0
57.828,-51.147,-1.02641,0
57.844,-51.0692,-1.02952,0
57.8581,-50.9911,-1.0324,0
57.8704,-50.9126,-1.03507,0
57.8803,-50.8338,-1.03764,0
57.8881,-50.7547,-1.04006,0
57.8941,-50.6755,-1.04225,0
57.8982,-50.5962,-1.04424,0
57.9004,-50.5169,-1.04599,0
57.898,-50.4375,-1.0482,0
57.8935,-50.3582,-1.05023,0
57.8872,-50.2792,-1.05206,0
57.8788,-50.2004,-1.05368,0
57.8685,-50.122,-1.0551,0
57.8564,-50.0439,-1.0563,0
57.8424,-49.9662,-1.05729,0
57.8264,-49.8889,-1.05807,0
57.8087,-49.8122,-1.05864,0
57.7891,-49.736,-1.05901,0
57.7676,-49.6604,-1.05916,0
57.7444,-49.5855,-1.0591,0
57.7195,-49.5112,-1.05884,0
57.6927,-49.4376,-1.05838,0
57.6641,-49.3648,-1.05771,0
57.634,-49.2929,-1.05683,0
57.6021,-49.2217,-1.05575,0
57.5685,-49.1515,-1.05448,0
57.5335,-49.0822,-1.053,0
57.4967,-49.0139,-1.05134,0
57.4584,-48.9465,-1.04947,0
57.4186,-48.8803,-1.0474,0
57.3773,-48.815,-1.04516,0
57.3345,-48.7509,-1.04272,0
57.2902,-48.688,-1.04009,0
57.2471,-48.6246,-1.0365,0
57.2038,-48.5615,-1.0323,0
57.1591,-48.4995,-1.02791,0
57.113,-48.4386,-1.02332,0
57.067,-48.3776,-1.01801,0
57.0209,-48.3167,-1.01208,0
56.9732,-48.257,-1.00597,0
56.9241,-48.1984,-0.999699,0
56.8735,-48.141,-0.993259,0
56.8216,-48.0849,-0.986667,0
56.7683,-48.0301,-0.979909,0
56.7135,-47.9765,-0.973005,0
56.6576,-47.9243,-0.965944,0
56.6003,-47.8735,-0.958737,0
57.4968,-51.8813,-0.975632,0
57.5293,-51.811,-0.980954,0
57.5611,-51.7403,-0.985803,0
57.5912,-51.6688,-0.990461,0
57.6197,-51.5966,-0.994924,0
57.6464,-51.5238,-0.999206,0
57.6714,-51.4503,-1.0033,0
57.6946,-51.3762,-1.00718,0
57.7161,-51.3015,-1.01088,0
57.7358,-51.2263,-1.01436,0
57.7537,-51.1507,-1.01766,0
57.7698,-51.0747,-1.02074,0
57.7841,-50.9982,-1.02362,0
57.7965,-50.9215,-1.02629,0
57.8068,-50.8444,-1.02883,0
57.8149,-50.7671,-1.03125,0
57.8212,-50.6896,-1.03346,0
57.8256,-50.612,-1.03545,0
57.8266,-50.5342,-1.03768,0
57.8247,-50.4566,-1.03993,0
57.8209,-50.379,-1.04198,0
57.8151,-50.3016,-1.04384,0
57.8076,-50.2245,-1.04549,0
57.798,-50.1477,-1.04693,0
57.7866,-50.0712,-1.04816,0
57.7735,-49.995,-1.0492,0
57.7584,-49.9193,-1.05001,0
57.7416,-49.8441,-1.05064,0
57.723,-49.7694,-1.05105,0
57.7025,-49.6953,-1.05127,0
57.6804,-49.6217,-1.05128,0
57.6565,-49.5489,-1.05109,0
57.6308,-49.4767,-1.05069,0
57.6034,-49.4052,-1.05009,0
57.5745,-49.3346,-1.0493,0
57.5437,-49.2647,-1.0483,0
57.5114,-49.1957,-1.04712,0
57.4776,-49.1276,-1.04574,0
57.4421,-49.0605,-1.04416,0
57.4051,-48.9943,-1.04239,0
57.3666,-48.9291,-1.04044,0
57.3266,-48.8649,-1.03829,0
57.2852,-48.8018,-1.03596,0
57.2423,-48.7399,-1.03345,0
57.2003,-48.6776,-1.03004,0
57.1583,-48.6156,-1.02597,0
57.1149,-48.5546,-1.02172,0
57.0701,-48.4946,-1.01728,0
57.0239,-48.4357,-1.01266,0
56.9779,-48.3768,-1.00729,0
56.9316,-48.3181,-1.00136,0
56.8839,-48.2605,-0.995265,0
56.8347,-48.2041,-0.989001,0
56.7842,-48.1489,-0.98258,0
56.7323,-48.095,-0.976008,0
56.6791,-48.0423,-0.969284,0
56.6247,-47.9909,-0.962409,0
56.5689,-47.9409,-0.955397,0
55.7485,-53.5415,-0.718561,0
55.8193,-53.5103,-0.728903,0
55.8891,-53.4772,-0.739211,0
55.958,-53.4425,-0.749479,0
56.0262,-53.4062,-0.759684,0
56.0933,-53.3681,-0.769826,0
56.1602,-53.3296,-0.779435,0
56.2266,-53.2903,-0.788674,0
56.292,-53.2494,-0.797809,0
56.3565,-53.2069,-0.806833,0
56.42,-53.163,-0.815763,0
56.4825,-53.1176,-0.824582,0
56.5438,-53.0707,-0.833288,0
56.6041,-53.0224,-0.841872,0
56.6634,-52.9727,-0.850324,0
56.7213,-52.9216,-0.858649,0
56.7781,-52.8692,-0.866838,0
56.8337,-52.8155,-0.874885,0
56.888,-52.7605,-0.8828,0
56.9409,-52.7042,-0.890568,0
56.9927,-52.6466,-0.89818,0
57.043,-52.5879,-0.905632,0
57.092,-52.528,-0.912931,0
57.1396,-52.467,-0.920065,0
57.1858,-52.4049,-0.927033,0
57.2305,-52.3417,-0.933825,0
57.2737,-52.2775,-0.940451,0
57.3155,-52.2123,-0.946891,0
57.3556,-52.1461,-0.953146,0
57.3943,-52.079,-0.95922,0
57.4314,-52.011,-0.965114,0
57.467,-51.9422,-0.970802,0
57.5009,-51.8725,-0.976305,0
57.5334,-51.8022,-0.981574,0
57.5649,-51.7314,-0.986398,0
57.5948,-51.6598,-0.991032,0
57.6231,-51.5875,-0.995475,0
57.6496,-51.5146,-0.999733,0
57.6744,-51.441,-1.00379,0
57.6974,-51.3668,-1.00765,0
57.7187,-51.2921,-1.01133,0
57.7381,-51.2169,-1.01479,0
57.7558,-51.1412,-1.01805,0
57.7716,-51.0651,-1.02111,0
57.7857,-50.9886,-1.02396,0
57.7979,-50.9119,-1.02661,0
57.808,-50.8347,-1.02915,0
57.8158,-50.7574,-1.03153,0
57.8219,-50.6799,-1.03372,0
57.8261,-50.6022,-1.03569,0
57.8264,-50.5245,-1.03797,0
57.8243,-50.4468,-1.0402,0
57.8202,-50.3693,-1.04223,0
57.8143,-50.292,-1.04405,0
57.8064,-50.2149,-1.04568,0
57.7967,-50.1381,-1.04709,0
57.7852,-50.0616,-1.0483,0
57.7717,-49.9855,-1.04931,0
57.7565,-49.9099,-1.0501,0
57.7394,-49.8347,-1.0507,0
57.7205,-49.7601,-1.0511,0
57.6999,-49.686,-1.05128,0
57.6775,-49.6126,-1.05127,0
57.6533,-49.5398,-1.05104,0
57.6274,-49.4677,-1.05063,0
57.5999,-49.3963,-1.05,0
57.5706,-49.3258,-1.04919,0
57.5398,-49.256,-1.04817,0
57.5073,-49.1871,-1.04695,0
57.4732,-49.1192,-1.04554,0
57.4375,-49.0521,-1.04395,0
57.4003,-48.986,-1.04216,0
57.3616,-48.921,-1.04017,0
57.3215,-48.857,-1.038,0
57.2798,-48.794,-1.03566,0
57.2369,-48.7322,-1.03312,0
57.1951,-48.6698,-1.02954,0
57.153,-48.6079,-1.02545,0
57.1094,-48.547,-1.02117,0
57.0644,-48.4872,-1.01671,0
57.018,-48.4285,-1.01206,0
56.9722,-48.3694,-1.00656,0
56.9257,-48.3108,-1.0006,0
56.8777,-48.2534,-0.994484,0
56.8284,-48.1971,-0.988205,0
56.7778,-48.1421,-0.981764,0
56.7258,-48.0883,-0.975173,0
56.6724,-48.0358,-0.968429,0
56.6178,-47.9846,-0.961535,0
56.5619,-47.9347,-0.954509,0
55.7574,-53.5377,-0.719855,0
55.828,-53.5062,-0.730207,0
55.8977,-53.473,-0.7405,0
55.9666,-53.4381,-0.750759,0
56.0346,-53.4015,-0.760959,0
56.1016,-53.3633,-0.771096,0
56.1685,-53.3248,-0.780602,0
56.2348,-53.2852,-0.789821,0
56.3002,-53.2441,-0.798947,0
56.3645,-53.2015,-0.807961,0
56.4279,-53.1574,-0.816877,0
56.4902,-53.1118,-0.825685,0
56.5515,-53.0648,-0.834367,0
56.6116,-53.0163,-0.842931,0
56.6706,-52.9664,-0.851369,0
56.7285,-52.9152,-0.859679,0
56.7851,-52.8626,-0.867853,0
56.8405,-52.8087,-0.87589,0
56.8947,-52.7535,-0.883781,0
56.9475,-52.697,-0.89153,0
56.9991,-52.6394,-0.899123,0
57.0492,-52.5805,-0.906559,0
57.098,-52.5205,-0.913835,0
57.1454,-52.4593,-0.920949,0
57.1914,-52.397,-0.927892,0
57.2359,-52.3337,-0.93467,0
57.2791,-52.2694,-0.941261,0
57.3205,-52.2041,-0.947687,0
57.3606,-52.1378,-0.953923,0
57.3991,-52.0705,-0.959972,0
57.436,-52.0025,-0.965832,0
57.4712,-51.9335,-0.971506,0
57.5051,-51.8638,-0.976984,0
57.5374,-51.7933,-0.982194,0
57.5687,-51.7224,-0.986979,0
57.5985,-51.6508,-0.991594,0
57.6266,-51.5784,-0.996012,0
57.6528,-51.5054,-1.00025,0
57.6773,-51.4317,-1.00429,0
57.7002,-51.3575,-1.00813,0
57.7212,-51.2827,-1.01177,0
57.7405,-51.2074,-1.01521,0
57.7579,-51.1317,-1.01845,0
57.7734,-51.0555,-1.02149,0
57.7873,-50.979,-1.02431,0
57.7993,-50.9022,-1.02692,0
57.809,-50.8251,-1.02945,0
57.8166,-50.7477,-1.03183,0
57.8225,-50.6702,-1.03398,0
57.8265,-50.5925,-1.03591,0
57.8262,-50.5148,-1.03826,0
57.8238,-50.4371,-1.04047,0
57.8196,-50.3596,-1.04247,0
57.8134,-50.2823,-1.04427,0
57.8053,-50.2052,-1.04587,0
57.7954,-50.1285,-1.04726,0
57.7836,-50.0521,-1.04844,0
57.7699,-49.976,-1.04942,0
57.7544,-49.9004,-1.0502,0
57.7371,-49.8253,-1.05076,0
57.718,-49.7508,-1.05112,0
57.6972,-49.6768,-1.05129,0
57.6745,-49.6034,-1.05125,0
57.6502,-49.5307,-1.05101,0
57.6241,-49.4587,-1.05055,0
57.5963,-49.3874,-1.04991,0
57.5669,-49.317,-1.04907,0
57.5358,-49.2473,-1.04803,0
57.5031,-49.1786,-1.04679,0
57.4688,-49.1107,-1.04535,0
57.433,-49.0438,-1.04373,0
57.3956,-48.9778,-1.04192,0
57.3567,-48.9129,-1.03991,0
57.3163,-48.849,-1.03773,0
57.2746,-48.7862,-1.03535,0
57.2314,-48.7245,-1.03279,0
57.1899,-48.662,-1.02904,0
57.1475,-48.6002,-1.02492,0
57.1038,-48.5394,-1.02062,0
57.0587,-48.4798,-1.01614,0
57.012,-48.4212,-1.01147,0
56.9664,-48.362,-1.00582,0
56.9198,-48.3036,-0.999846,0
56.8717,-48.2463,-0.993703,0
56.8222,-48.1902,-0.987409,0
56.7714,-48.1353,-0.980954,0
56.7191,-48.0816,-0.974333,0
56.6656,-48.0293,-0.967575,0
56.6109,-47.9782,-0.960666,0
56.5548,-47.9285,-0.953615,0
57.4364,-51.8518,-0.968273,0
57.4683,-51.7829,-0.973498,0
57.4985,-51.7133,-0.978517,0
57.5272,-51.6429,-0.983346,0
57.555,-51.5722,-0.987746,0
57.5812,-51.5009,-0.991926,0
57.6055,-51.4289,-0.995925,0
57.6284,-51.3563,-0.999743,0
57.6493,-51.2832,-1.00335,0
57.6686,-51.2096,-1.00677,0
57.6861,-51.1355,-1.00999,0
57.7019,-51.0611,-1.01301,0
57.7158,-50.9862,-1.01583,0
57.728,-50.9111,-1.01844,0
57.738,-50.8356,-1.02096,0
57.746,-50.7599,-1.02333,0
57.7522,-50.684,-1.02549,0
57.7549,-50.6079,-1.02788,0
57.755,-50.5318,-1.03029,0
57.7533,-50.4558,-1.0325,0
57.7496,-50.3799,-1.03452,0
57.7441,-50.3042,-1.03634,0
57.7367,-50.2287,-1.03796,0
57.7275,-50.1535,-1.03938,0
57.7165,-50.0786,-1.0406,0
57.7037,-50.0041,-1.04161,0
57.6891,-49.93,-1.04243,0
57.6727,-49.8564,-1.04305,0
57.6545,-49.7832,-1.04347,0
57.6346,-49.7107,-1.04369,0
57.613,-49.6387,-1.0437,0
57.5896,-49.5673,-1.04353,0
57.5645,-49.4966,-1.04315,0
57.5379,-49.4267,-1.04258,0
57.5096,-49.3574,-1.04181,0
57.4797,-49.289,-1.04085,0
57.448,-49.2214,-1.0397,0
57.4151,-49.1547,-1.03835,0
57.3804,-49.0889,-1.03682,0
57.3442,-49.0241,-1.0351,0
57.3066,-48.9602,-1.0332,0
57.2676,-48.8973,-1.03111,0
57.2272,-48.8355,-1.02884,0
57.1852,-48.7748,-1.02639,0
57.1449,-48.7134,-1.02282,0
57.1038,-48.6526,-1.01883,0
57.0612,-48.5928,-1.01467,0
57.0174,-48.534,-1.01032,0
56.9722,-48.4764,-1.0058,0
56.9256,-48.4198,-1.00111,0
56.8798,-48.3627,-0.995431,0
56.8331,-48.3064,-0.989455,0
56.785,-48.2512,-0.983322,0
56.7355,-48.1972,-0.977038,0
56.6848,-48.1444,-0.970597,0
56.6327,-48.0928,-0.964015,0
56.5794,-48.0425,-0.957292,0
56.5248,-47.9936,-0.950422,0
55.722,-53.4753,-0.717629,0
55.7912,-53.4447,-0.727761,0
55.8596,-53.4124,-0.737844,0
55.9271,-53.3785,-0.747892,0
55.9941,-53.3434,-0.757682,0
56.0609,-53.3079,-0.766901,0
56.1267,-53.2709,-0.776037,0
56.1918,-53.2323,-0.785085,0
56.2559,-53.1922,-0.794035,0
56.3191,-53.1507,-0.802887,0
56.3813,-53.1076,-0.811628,0
56.4426,-53.0631,-0.820265,0
56.5027,-53.0172,-0.828796,0
56.5618,-52.9699,-0.837204,0
56.6198,-52.9212,-0.845485,0
56.6766,-52.8712,-0.853644,0
56.7323,-52.8198,-0.861672,0
56.7867,-52.7671,-0.869567,0
56.8399,-52.7132,-0.877311,0
56.8919,-52.6581,-0.884924,0
56.9425,-52.6017,-0.89238,0
56.9919,-52.5442,-0.899684,0
57.0398,-52.4855,-0.906843,0
57.0865,-52.4257,-0.91383,0
57.1317,-52.3649,-0.920651,0
57.1755,-52.3029,-0.927311,0
57.2179,-52.24,-0.933801,0
57.2587,-52.1761,-0.940114,0
57.2982,-52.1113,-0.946247,0
57.336,-52.0455,-0.952204,0
57.3724,-51.9789,-0.95797,0
57.4072,-51.9115,-0.963552,0
57.4405,-51.8432,-0.968937,0
57.4721,-51.7742,-0.974133,0
57.5022,-51.7045,-0.979133,0
57.5307,-51.6341,-0.983923,0
57.5583,-51.5633,-0.988273,0
57.5842,-51.4919,-0.992438,0
57.6085,-51.4198,-0.996418,0
57.631,-51.3472,-1.0002,0
57.6519,-51.274,-1.0038,0
57.6709,-51.2003,-1.00718,0
57.6882,-51.1262,-1.01038,0
57.7038,-51.0517,-1.01338,0
57.7174,-50.9768,-1.01616,0
57.7295,-50.9016,-1.01876,0
57.7391,-50.8261,-1.02126,0
57.7469,-50.7504,-1.02361,0
57.7528,-50.6745,-1.02574,0
57.7551,-50.5984,-1.02819,0
57.7549,-50.5223,-1.03058,0
57.7529,-50.4463,-1.03277,0
57.749,-50.3704,-1.03476,0
57.7432,-50.2947,-1.03656,0
57.7356,-50.2193,-1.03816,0
57.7262,-50.1441,-1.03954,0
57.715,-50.0693,-1.04074,0
57.702,-49.9948,-1.04173,0
57.687,-49.9208,-1.04253,0
57.6705,-49.8472,-1.04311,0
57.6521,-49.7741,-1.04351,0
57.632,-49.7016,-1.0437,0
57.6101,-49.6297,-1.04369,0
57.5866,-49.5584,-1.04349,0
57.5613,-49.4878,-1.04309,0
57.5344,-49.4179,-1.04249,0
57.5059,-49.3488,-1.0417,0
57.4757,-49.2805,-1.04071,0
57.4441,-49.213,-1.03954,0
57.4108,-49.1464,-1.03817,0
57.3759,-49.0808,-1.03661,0
57.3396,-49.016,-1.03487,0
57.3019,-48.9523,-1.03295,0
57.2626,-48.8895,-1.03083,0
57.222,-48.8278,-1.02854,0
57.1798,-48.7672,-1.02608,0
57.1398,-48.7057,-1.02233,0
57.0985,-48.645,-1.01832,0
57.0559,-48.5854,-1.01413,0
57.0118,-48.5268,-1.00977,0
56.9664,-48.4692,-1.00522,0
56.9197,-48.4128,-1.0005,0
56.8741,-48.3556,-0.994689,0
56.8272,-48.2994,-0.988698,0
56.7789,-48.2443,-0.982546,0
56.7293,-48.1905,-0.976237,0
56.6784,-48.1378,-0.969782,0
56.6261,-48.0865,-0.96318,0
56.5726,-48.0364,-0.956437,0
56.5179,-47.9876,-0.949548,0
55.7308,-53.4715,-0.718893,0
55.7998,-53.4407,-0.72902,0
55.8681,-53.4082,-0.739113,0
55.9355,-53.3741,-0.749147,0
56.0024,-53.339,-0.758844,0
56.0691,-53.3034,-0.768058,0
56.1349,-53.2661,-0.777175,0
56.1998,-53.2274,-0.786213,0
56.2639,-53.1871,-0.795148,0
56.327,-53.1454,-0.803986,0
56.3891,-53.1021,-0.812721,0
56.4502,-53.0575,-0.821344,0
56.5102,-53.0114,-0.829855,0
56.5691,-52.9639,-0.838254,0
56.627,-52.915,-0.846511,0
56.6836,-52.8648,-0.85466,0
56.7391,-52.8133,-0.862678,0
56.7934,-52.7605,-0.870544,0
56.8465,-52.7064,-0.878278,0
56.8983,-52.6511,-0.885866,0
56.9487,-52.5946,-0.893307,0
56.998,-52.5369,-0.900593,0
57.0458,-52.4781,-0.907726,0
57.0922,-52.4181,-0.914694,0
57.1373,-52.3571,-0.921501,0
57.1809,-52.2951,-0.928132,0
57.223,-52.2321,-0.934596,0
57.2638,-52.168,-0.94089,0
57.303,-52.1031,-0.947004,0
57.3407,-52.0373,-0.952931,0
57.3769,-51.9705,-0.958678,0
57.4115,-51.903,-0.964235,0
57.4445,-51.8346,-0.969606,0
57.476,-51.7655,-0.974777,0
57.5059,-51.6957,-0.979748,0
57.5342,-51.6253,-0.984474,0
57.5617,-51.5544,-0.98881,0
57.5874,-51.4829,-0.992951,0
57.6115,-51.4108,-0.996896,0
57.6337,-51.338,-1.00066,0
57.6543,-51.2648,-1.00423,0
57.6731,-51.1911,-1.00759,0
57.6902,-51.1169,-1.01076,0
57.7055,-51.0424,-1.01373,0
57.7191,-50.9674,-1.01651,0
57.7308,-50.8922,-1.01907,0
57.7402,-50.8166,-1.02157,0
57.7477,-50.7409,-1.02389,0
57.7534,-50.665,-1.026,0
57.7552,-50.5888,-1.0285,0
57.7548,-50.5128,-1.03086,0
57.7525,-50.4368,-1.03302,0
57.7484,-50.3609,-1.035,0
57.7424,-50.2853,-1.03676,0
57.7345,-50.2099,-1.03833,0
57.7249,-50.1347,-1.0397,0
57.7134,-50.0599,-1.04087,0
57.7002,-49.9855,-1.04184,0
57.6851,-49.9115,-1.04261,0
57.6682,-49.838,-1.04317,0
57.6497,-49.765,-1.04354,0
57.6293,-49.6926,-1.04371,0
57.6072,-49.6207,-1.04368,0
57.5834,-49.5495,-1.04345,0
57.558,-49.479,-1.04302,0
57.5309,-49.4092,-1.0424,0
57.5022,-49.3402,-1.04158,0
57.4719,-49.272,-1.04058,0
57.4399,-49.2046,-1.03938,0
57.4064,-49.1382,-1.03799,0
57.3715,-49.0726,-1.03641,0
57.335,-49.008,-1.03465,0
57.297,-48.9444,-1.03269,0
57.2576,-48.8818,-1.03056,0
57.2167,-48.8202,-1.02824,0
57.1748,-48.7596,-1.02568,0
57.1347,-48.698,-1.02183,0
57.0933,-48.6375,-1.01781,0
57.0504,-48.578,-1.0136,0
57.0062,-48.5195,-1.00921,0
56.9606,-48.4621,-1.00465,0
56.9141,-48.4056,-0.999797,0
56.8684,-48.3485,-0.993942,0
56.8212,-48.2924,-0.987927,0
56.7727,-48.2375,-0.981764,0
56.723,-48.1838,-0.975436,0
56.6719,-48.1313,-0.968962,0
56.6195,-48.0801,-0.96235,0
56.5658,-48.0302,-0.955583,0
56.5109,-47.9815,-0.948678,0
57.3781,-51.8233,-0.961164,0
57.4094,-51.7558,-0.966286,0
57.439,-51.6875,-0.971213,0
57.467,-51.6186,-0.975944,0
57.4936,-51.5491,-0.98047,0
57.5184,-51.4789,-0.984806,0
57.5421,-51.4082,-0.98883,0
57.5643,-51.3372,-0.992555,0
57.5849,-51.2656,-0.996091,0
57.6037,-51.1935,-0.99944,0
57.6209,-51.1209,-1.0026,0
57.6363,-51.048,-1.00555,0
57.6501,-50.9747,-1.00832,0
57.662,-50.901,-1.01087,0
57.6717,-50.8271,-1.01335,0
57.6795,-50.7529,-1.01568,0
57.684,-50.6785,-1.01823,0
57.686,-50.604,-1.0208,0
57.6861,-50.5295,-1.02318,0
57.6845,-50.4551,-1.02535,0
57.6809,-50.3808,-1.02733,0
57.6756,-50.3067,-1.02912,0
57.6684,-50.2328,-1.03071,0
57.6595,-50.1591,-1.03211,0
57.6488,-50.0858,-1.03331,0
57.6363,-50.0129,-1.03431,0
57.6221,-49.9403,-1.03512,0
57.6061,-49.8682,-1.03573,0
57.5884,-49.7966,-1.03615,0
57.569,-49.7255,-1.03637,0
57.5479,-49.655,-1.03641,0
57.5252,-49.5851,-1.03624,0
57.5007,-49.5158,-1.03588,0
57.4747,-49.4473,-1.03533,0
57.447,-49.3795,-1.03459,0
57.4178,-49.3125,-1.03366,0
57.387,-49.2463,-1.03254,0
57.3547,-49.1809,-1.03123,0
57.3209,-49.1164,-1.02974,0
57.2855,-49.0528,-1.02807,0
57.2488,-48.9902,-1.02621,0
57.2106,-48.9286,-1.02418,0
57.1711,-48.868,-1.02196,0
57.1302,-48.8084,-1.01956,0
57.0914,-48.7479,-1.01584,0
57.0512,-48.6883,-1.01194,0
57.0095,-48.6297,-1.00786,0
56.9665,-48.5721,-1.00361,0
56.9223,-48.5156,-0.999177,0
56.8766,-48.4602,-0.994577,0
56.8301,-48.4057,-0.989714,0
56.7843,-48.3505,-0.983854,0
56.7371,-48.2965,-0.977848,0
56.6887,-48.2437,-0.971691,0
56.6389,-48.192,-0.965392,0
56.5879,-48.1415,-0.958942,0
56.5357,-48.0923,-0.952355,0
56.4823,-48.0444,-0.945627,0
55.6964,-53.4114,-0.71673,0
55.7641,-53.3815,-0.726652,0
55.8312,-53.35,-0.736471,0
55.8982,-53.3184,-0.745656,0
55.9644,-53.2852,-0.754772,0
56.0298,-53.2504,-0.763805,0
56.0945,-53.2141,-0.772751,0
56.1583,-53.1763,-0.781618,0
56.2212,-53.1371,-0.790387,0
56.283,-53.0963,-0.799069,0
56.3441,-53.0541,-0.807634,0
56.4041,-53.0105,-0.8161,0
56.463,-52.9655,-0.82446,0
56.5209,-52.9191,-0.832707,0
56.5777,-52.8714,-0.840827,0
56.6334,-52.8224,-0.848815,0
56.6879,-52.772,-0.856681,0
56.7413,-52.7204,-0.864426,0
56.7934,-52.6676,-0.872018,0
56.8444,-52.6135,-0.879479,0
56.894,-52.5583,-0.886779,0
56.9423,-52.5019,-0.893942,0
56.9895,-52.4444,-0.900949,0
57.0352,-52.3858,-0.9078,0
57.0795,-52.3262,-0.914494,0
57.1223,-52.2655,-0.921017,0
57.1639,-52.2038,-0.92738,0
57.204,-52.1412,-0.933566,0
57.2426,-52.0776,-0.939577,0
57.2798,-52.0132,-0.945417,0
57.3154,-51.9479,-0.951071,0
57.3495,-51.8818,-0.95654,0
57.3821,-51.8149,-0.961818,0
57.4131,-51.7473,-0.966911,0
57.4427,-51.679,-0.971808,0
57.4705,-51.6099,-0.976525,0
57.4968,-51.5403,-0.981027,0
57.5214,-51.47,-0.985329,0
57.5449,-51.3994,-0.989303,0
57.567,-51.3282,-0.993005,0
57.5873,-51.2565,-0.99653,0
57.606,-51.1844,-0.999846,0
57.6229,-51.1118,-1.00298,0
57.6381,-51.0388,-1.00591,0
57.6516,-50.9654,-1.00864,0
57.6633,-50.8918,-1.01118,0
57.6727,-50.8178,-1.01366,0
57.6804,-50.7436,-1.01595,0
57.6844,-50.6692,-1.01857,0
57.6861,-50.5946,-1.02111,0
57.686,-50.5201,-1.02346,0
57.6841,-50.4458,-1.0256,0
57.6804,-50.3715,-1.02757,0
57.6748,-50.2974,-1.02932,0
57.6674,-50.2235,-1.0309,0
57.6583,-50.1499,-1.03227,0
57.6473,-50.0767,-1.03344,0
57.6347,-50.0038,-1.03443,0
57.6202,-49.9312,-1.03521,0
57.604,-49.8592,-1.0358,0
57.586,-49.7876,-1.03619,0
57.5664,-49.7166,-1.03639,0
57.5452,-49.6462,-1.03639,0
57.5222,-49.5764,-1.03621,0
57.4975,-49.5072,-1.03582,0
57.4712,-49.4388,-1.03525,0
57.4434,-49.3711,-1.03448,0
57.4141,-49.3041,-1.03352,0
57.383,-49.238,-1.03239,0
57.3505,-49.1728,-1.03105,0
57.3166,-49.1084,-1.02954,0
57.2811,-49.0449,-1.02785,0
57.2441,-48.9825,-1.02597,0
57.2058,-48.921,-1.02391,0
57.1661,-48.8605,-1.02168,0
57.1255,-48.8008,-1.0191,0
57.0865,-48.7403,-1.01536,0
57.0459,-48.6809,-1.01144,0
57.0042,-48.6224,-1.00734,0
56.9611,-48.565,-1.00307,0
56.9166,-48.5086,-0.99861,0
56.8709,-48.4533,-0.993991,0
56.8244,-48.3987,-0.988986,0
56.7784,-48.3437,-0.983107,0
56.7311,-48.2898,-0.977087,0
56.6825,-48.2371,-0.970915,0
56.6326,-48.1856,-0.964592,0
56.5815,-48.1353,-0.958127,0
56.5291,-48.0863,-0.95152,0
56.4755,-48.0385,-0.944782,0
55.705,-53.4077,-0.717975,0
55.7726,-53.3776,-0.727887,0
55.8396,-53.3462,-0.737629,0
55.9065,-53.3143,-0.746799,0
55.9727,-53.2809,-0.7559,0
56.038,-53.246,-0.764929,0
56.1026,-53.2095,-0.773869,0
56.1662,-53.1715,-0.782726,0
56.2289,-53.132,-0.791481,0
56.2907,-53.0911,-0.800143,0
56.3516,-53.0488,-0.808698,0
56.4114,-53.005,-0.817165,0
56.4703,-52.9598,-0.8255,0
56.528,-52.9132,-0.833722,0
56.5848,-52.8653,-0.841838,0
56.6402,-52.8161,-0.849811,0
56.6947,-52.7656,-0.857663,0
56.748,-52.7139,-0.865383,0
56.7998,-52.6609,-0.872951,0
56.8506,-52.6067,-0.880392,0
56.9002,-52.5513,-0.887682,0
56.9484,-52.4948,-0.894831,0
56.9952,-52.4371,-0.901818,0
57.0408,-52.3784,-0.908649,0
57.0848,-52.3186,-0.915319,0
57.1277,-52.2578,-0.921823,0
57.169,-52.196,-0.928161,0
57.2089,-52.1333,-0.934328,0
57.2473,-52.0696,-0.940314,0
57.2843,-52.0051,-0.946135,0
57.3198,-51.9397,-0.951755,0
57.3537,-51.8735,-0.957209,0
57.3861,-51.8065,-0.962472,0
57.417,-51.7388,-0.967536,0
57.4462,-51.6703,-0.972414,0
57.4738,-51.6012,-0.977096,0
57.4999,-51.5315,-0.981579,0
57.5245,-51.4612,-0.985856,0
57.5478,-51.3905,-0.989782,0
57.5696,-51.3193,-0.993459,0
57.5898,-51.2475,-0.99695,0
57.6082,-51.1753,-1.00025,0
57.6249,-51.1027,-1.00336,0
57.6399,-51.0296,-1.00626,0
57.6531,-50.9562,-1.00897,0
57.6647,-50.8825,-1.01148,0
57.6738,-50.8085,-1.01395,0
57.6812,-50.7343,-1.01623,0
57.6847,-50.6598,-1.0189,0
57.6862,-50.5853,-1.02141,0
57.6859,-50.5108,-1.02373,0
57.6837,-50.4364,-1.02586,0
57.6798,-50.3622,-1.02779,0
57.674,-50.2881,-1.02954,0
57.6664,-50.2143,-1.03109,0
57.657,-50.1407,-1.03243,0
57.6459,-50.0675,-1.03358,0
57.633,-49.9946,-1.03453,0
57.6182,-49.9222,-1.03529,0
57.6019,-49.8502,-1.03586,0
57.5837,-49.7787,-1.03623,0
57.5639,-49.7078,-1.0364,0
57.5424,-49.6374,-1.03638,0
57.5191,-49.5677,-1.03616,0
57.4944,-49.4986,-1.03576,0
57.4679,-49.4302,-1.03516,0
57.4398,-49.3626,-1.03437,0
57.4102,-49.2958,-1.0334,0
57.3791,-49.2298,-1.03223,0
57.3463,-49.1647,-1.03088,0
57.3122,-49.1004,-1.02934,0
57.2766,-49.0371,-1.02762,0
57.2395,-48.9747,-1.02572,0
57.2009,-48.9133,-1.02364,0
57.1609,-48.853,-1.02139,0
57.1207,-48.7932,-1.01863,0
57.0814,-48.7328,-1.01488,0
57.0409,-48.6735,-1.01093,0
56.9988,-48.6152,-1.00682,0
56.9555,-48.5579,-1.00252,0
56.9109,-48.5016,-0.998049,0
56.865,-48.4465,-0.993395,0
56.8187,-48.3917,-0.988254,0
56.7726,-48.3369,-0.982365,0
56.7251,-48.2832,-0.97632,0
56.6763,-48.2306,-0.970129,0
56.6262,-48.1792,-0.963791,0
56.5749,-48.1291,-0.957306,0
56.5223,-48.0802,-0.95068,0
56.4687,-48.0326,-0.943923,0
57.3218,-51.7958,-0.954304,0
57.3524,-51.7296,-0.959318,0
57.3815,-51.6627,-0.964142,0
57.409,-51.5951,-0.968781,0
57.4349,-51.5269,-0.973229,0
57.4594,-51.4581,-0.977472,0
57.4821,-51.3888,-0.981525,0
57.5034,-51.3189,-0.985378,0
57.5229,-51.2486,-0.989025,0
57.5412,-51.1779,-0.992365,0
57.558,-51.1068,-0.995461,0
57.573,-51.0353,-0.998351,0
57.5865,-50.9635,-1.00106,0
57.5982,-50.8913,-1.00357,0
57.6077,-50.8189,-1.00602,0
57.6137,-50.7461,-1.00877,0
57.6175,-50.6731,-1.01147,0
57.6195,-50.6002,-1.01398,0
57.6197,-50.5272,-1.01631,0
57.618,-50.4544,-1.01844,0
57.6147,-50.3816,-1.0204,0
57.6095,-50.309,-1.02216,0
57.6027,-50.2367,-1.02372,0
57.594,-50.1646,-1.02509,0
57.5835,-50.0928,-1.02628,0
57.5714,-50.0213,-1.02727,0
57.5575,-49.9502,-1.02807,0
57.542,-49.8796,-1.02868,0
57.5247,-49.8095,-1.02909,0
57.5057,-49.7398,-1.02932,0
57.4852,-49.6707,-1.02935,0
57.4629,-49.6022,-1.02921,0
57.4391,-49.5344,-1.02886,0
57.4137,-49.4672,-1.02833,0
57.3867,-49.4008,-1.02761,0
57.3581,-49.3351,-1.02672,0
57.3281,-49.2702,-1.02563,0
57.2965,-49.2061,-1.02436,0
57.2634,-49.1429,-1.02291,0
57.229,-49.0806,-1.02128,0
57.193,-49.0192,-1.01947,0
57.1558,-48.9588,-1.01749,0
57.1171,-48.8994,-1.01533,0
57.0778,-48.8405,-1.01275,0
57.0397,-48.7812,-1.0091,0
57.0003,-48.7228,-1.00528,0
56.9595,-48.6654,-1.00129,0
56.9173,-48.6089,-0.997131,0
56.874,-48.5535,-0.99279,0
56.8294,-48.4992,-0.988273,0
56.7834,-48.4459,-0.98361,0
56.7371,-48.3932,-0.978454,0
56.6909,-48.3403,-0.972575,0
56.6434,-48.2885,-0.966535,0
56.5947,-48.2379,-0.960363,0
56.5447,-48.1885,-0.954045,0
56.4934,-48.1404,-0.947585,0
56.4412,-48.0935,-0.941003,0
55.6718,-53.3499,-0.715807,0
55.7388,-53.322,-0.724933,0
55.8052,-53.2925,-0.734011,0
55.8709,-53.2615,-0.74301,0
55.9358,-53.2289,-0.751945,0
55.9999,-53.1949,-0.760798,0
56.0634,-53.1593,-0.769577,0
56.1259,-53.1222,-0.778268,0
56.1874,-53.0837,-0.786867,0
56.2482,-53.0438,-0.795373,0
56.308,-53.0024,-0.803776,0
56.3668,-52.9597,-0.812082,0
56.4245,-52.9156,-0.820265,0
56.4813,-52.8701,-0.828351,0
56.537,-52.8233,-0.83631,0
56.5916,-52.7752,-0.844147,0
56.6451,-52.7259,-0.851862,0
56.6974,-52.6753,-0.85944,0
56.7485,-52.6235,-0.866891,0
56.7984,-52.5705,-0.874206,0
56.8472,-52.5163,-0.881364,0
56.8946,-52.461,-0.88839,0
56.9406,-52.4047,-0.895261,0
56.9855,-52.3472,-0.901974,0
57.0289,-52.2887,-0.908537,0
57.071,-52.2293,-0.914928,0
57.1117,-52.1688,-0.921169,0
57.151,-52.1074,-0.927233,0
57.1889,-52.0451,-0.933132,0
57.2253,-51.9819,-0.938854,0
57.2602,-51.9179,-0.944391,0
57.2937,-51.8531,-0.949758,0
57.3257,-51.7876,-0.954938,0
57.3562,-51.7213,-0.959929,0
57.385,-51.6543,-0.964733,0
57.4123,-51.5866,-0.969347,0
57.4381,-51.5183,-0.973771,0
57.4623,-51.4494,-0.977995,0
57.4848,-51.38,-0.982018,0
57.5059,-51.3101,-0.985842,0
57.5252,-51.2397,-0.98947,0
57.5434,-51.169,-0.992765,0
57.5599,-51.0978,-0.995832,0
57.5748,-51.0263,-0.998703,0
57.588,-50.9544,-1.00138,0
57.5995,-50.8823,-1.00386,0
57.6087,-50.8098,-1.00631,0
57.6142,-50.7369,-1.00911,0
57.6179,-50.664,-1.0118,0
57.6196,-50.591,-1.01428,0
57.6196,-50.5181,-1.01659,0
57.6177,-50.4452,-1.0187,0
57.6141,-50.3725,-1.02063,0
57.6087,-50.2999,-1.02236,0
57.6016,-50.2276,-1.0239,0
57.5927,-50.1556,-1.02526,0
57.5821,-50.0838,-1.02641,0
57.5698,-50.0124,-1.02738,0
57.5556,-49.9414,-1.02815,0
57.5399,-49.8708,-1.02874,0
57.5224,-49.8007,-1.02913,0
57.5033,-49.7311,-1.02933,0
57.4824,-49.6621,-1.02935,0
57.4601,-49.5937,-1.02917,0
57.436,-49.5259,-1.02881,0
57.4104,-49.4589,-1.02825,0
57.3832,-49.3925,-1.02751,0
57.3545,-49.3269,-1.02659,0
57.3242,-49.2621,-1.02548,0
57.2924,-49.1982,-1.02419,0
57.2592,-49.1351,-1.02272,0
57.2245,-49.0729,-1.02107,0
57.1884,-49.0116,-1.01924,0
57.1509,-48.9513,-1.01723,0
57.1121,-48.892,-1.01505,0
57.0731,-48.8331,-1.0123,0
57.0349,-48.7738,-1.00863,0
56.9952,-48.7155,-1.00479,0
56.9543,-48.6582,-1.00078,0
56.912,-48.6019,-0.996589,0
56.8685,-48.5466,-0.992233,0
56.8236,-48.4924,-0.987702,0
56.7776,-48.4393,-0.983005,0
56.7313,-48.3865,-0.977731,0
56.685,-48.3337,-0.971828,0
56.6373,-48.2821,-0.965768,0
56.5884,-48.2317,-0.959582,0
56.5384,-48.1824,-0.953244,0
56.487,-48.1344,-0.946779,0
56.4345,-48.0877,-0.940168,0
55.6802,-53.3465,-0.71695,0
55.7472,-53.3184,-0.726076,0
55.8134,-53.2887,-0.735138,0
55.8791,-53.2575,-0.744137,0
55.9439,-53.2247,-0.753058,0
56.0079,-53.1905,-0.761906,0
56.0712,-53.1547,-0.770676,0
56.1336,-53.1175,-0.779352,0
56.1952,-53.0788,-0.787941,0
56.2558,-53.0387,-0.796432,0
56.3154,-52.9971,-0.804821,0
56.3741,-52.9542,-0.813117,0
56.4317,-52.9099,-0.821291,0
56.4884,-52.8643,-0.829352,0
56.5439,-52.8173,-0.837297,0
56.5984,-52.7691,-0.845119,0
56.6517,-52.7196,-0.852819,0
56.7039,-52.6688,-0.860388,0
56.7548,-52.6169,-0.867819,0
56.8046,-52.5637,-0.875109,0
56.8532,-52.5095,-0.882258,0
56.9004,-52.454,-0.889255,0
56.9464,-52.3975,-0.89611,0
56.991,-52.3399,-0.902809,0
57.0343,-52.2813,-0.909347,0
57.0762,-52.2217,-0.915724,0
57.1168,-52.1612,-0.921935,0
57.1559,-52.0997,-0.92798,0
57.1935,-52.0372,-0.933854,0
57.2298,-51.974,-0.939557,0
57.2645,-51.9099,-0.945075,0
57.2978,-51.845,-0.950412,0
57.3296,-51.7793,-0.955568,0
57.3598,-51.7129,-0.960544,0
57.3885,-51.6458,-0.965324,0
57.4156,-51.5781,-0.969914,0
57.4412,-51.5097,-0.974313,0
57.4652,-51.4408,-0.978512,0
57.4876,-51.3713,-0.982512,0
57.5084,-51.3013,-0.986305,0
57.5275,-51.2309,-0.989904,0
57.5455,-51.1601,-0.993156,0
57.5619,-51.0889,-0.996193,0
57.5766,-51.0173,-0.99905,0
57.5896,-50.9454,-1.0017,0
57.6007,-50.8732,-1.00418,0
57.6097,-50.8007,-1.00662,0
57.6148,-50.7278,-1.00946,0
57.6181,-50.6548,-1.01211,0
57.6197,-50.5819,-1.01459,0
57.6195,-50.5089,-1.01687,0
57.6174,-50.4361,-1.01895,0
57.6136,-50.3634,-1.02086,0
57.608,-50.2909,-1.02256,0
57.6006,-50.2186,-1.02408,0
57.5915,-50.1465,-1.02541,0
57.5807,-50.0748,-1.02654,0
57.5681,-50.0035,-1.02748,0
57.5537,-49.9325,-1.02823,0
57.5378,-49.862,-1.02881,0
57.5201,-49.7919,-1.02917,0
57.5008,-49.7224,-1.02935,0
57.4798,-49.6535,-1.02933,0
57.4571,-49.5852,-1.02913,0
57.4329,-49.5175,-1.02875,0
57.407,-49.4505,-1.02818,0
57.3797,-49.3843,-1.02741,0
57.3507,-49.3188,-1.02646,0
57.3202,-49.2541,-1.02533,0
57.2884,-49.1902,-1.02402,0
57.255,-49.1272,-1.02252,0
57.2201,-49.0652,-1.02085,0
57.1838,-49.004,-1.019,0
57.1462,-48.9438,-1.01696,0
57.1071,-48.8847,-1.01477,0
57.0684,-48.8256,-1.01184,0
57.03,-48.7665,-1.00817,0
56.9902,-48.7083,-1.0043,0
56.9491,-48.6511,-1.00027,0
56.9066,-48.5949,-0.996056,0
56.8629,-48.5398,-0.991677,0
56.8179,-48.4857,-0.987121,0
56.7718,-48.4328,-0.982404,0
56.7256,-48.3798,-0.976999,0
56.6791,-48.3272,-0.971071,0
56.6313,-48.2757,-0.965002,0
56.5823,-48.2254,-0.958796,0
56.532,-48.1763,-0.952443,0
56.4805,-48.1285,-0.945954,0
56.4279,-48.0819,-0.939333,0
57.2673,-51.7692,-0.947648,0
57.2973,-51.7042,-0.952575,0
57.3259,-51.6386,-0.957311,0
57.3528,-51.5724,-0.961857,0
57.3784,-51.5055,-0.966222,0
57.4022,-51.438,-0.970387,0
57.4245,-51.37,-0.974357,0
57.4453,-51.3015,-0.978132,0
57.4645,-51.2325,-0.981711,0
57.4821,-51.1631,-0.98508,0
57.4981,-51.0933,-0.988259,0
57.5124,-51.0232,-0.991237,0
57.5252,-50.9527,-0.994001,0
57.5365,-50.882,-0.996501,0
57.5441,-50.8107,-0.999445,0
57.5495,-50.7394,-1.00228,0
57.5533,-50.6679,-1.00493,0
57.5553,-50.5965,-1.0074,0
57.5555,-50.525,-1.00968,0
57.554,-50.4537,-1.01179,0
57.5508,-50.3824,-1.0137,0
57.5458,-50.3113,-1.01543,0
57.5391,-50.2404,-1.01697,0
57.5306,-50.1698,-1.01832,0
57.5205,-50.0995,-1.01949,0
57.5087,-50.0295,-1.02047,0
57.4952,-49.9598,-1.02127,0
57.48,-49.8906,-1.02186,0
57.4631,-49.8219,-1.02228,0
57.4447,-49.7536,-1.02251,0
57.4246,-49.6859,-1.02255,0
57.4029,-49.6188,-1.02241,0
57.3796,-49.5523,-1.02209,0
57.3548,-49.4865,-1.02158,0
57.3284,-49.4214,-1.02089,0
57.3005,-49.357,-1.02001,0
57.2711,-49.2933,-1.01896,0
57.2402,-49.2305,-1.01772,0
57.208,-49.1685,-1.01631,0
57.1742,-49.1074,-1.01472,0
57.1391,-49.0472,-1.01297,0
57.1027,-48.988,-1.01103,0
57.0648,-48.9297,-1.00892,0
57.027,-48.8716,-1.00615,0
56.9898,-48.8134,-1.00259,0
56.9511,-48.7561,-0.998849,0
56.9112,-48.6998,-0.994938,0
56.8698,-48.6445,-0.990851,0
56.8273,-48.5901,-0.986603,0
56.7836,-48.5369,-0.982184,0
56.7386,-48.4846,-0.977609,0
56.6924,-48.4335,-0.972873,0
56.6462,-48.3825,-0.967472,0
56.5997,-48.3318,-0.961564,0
56.5519,-48.2823,-0.95551,0
56.503,-48.2339,-0.949318,0
56.4528,-48.1868,-0.942995,0
56.4015,-48.1408,-0.936545,0
55.6492,-53.2931,-0.713771,0
55.7149,-53.2658,-0.722726,0
55.78,-53.2369,-0.731628,0
55.8445,-53.2064,-0.740456,0
55.9081,-53.1745,-0.749211,0
55.9709,-53.1411,-0.757902,0
56.0331,-53.1062,-0.766501,0
56.0944,-53.0699,-0.775031,0
56.1548,-53.0321,-0.783464,0
56.2145,-52.993,-0.791803,0
56.2731,-52.9524,-0.800046,0
56.3307,-52.9105,-0.808185,0
56.3874,-52.8672,-0.816218,0
56.4431,-52.8226,-0.824142,0
56.4977,-52.7767,-0.831945,0
56.5513,-52.7296,-0.839636,0
56.6037,-52.6812,-0.847199,0
56.655,-52.6316,-0.854636,0
56.7051,-52.5808,-0.86193,0
56.7541,-52.5288,-0.869098,0
56.8019,-52.4757,-0.876135,0
56.8483,-52.4215,-0.883019,0
56.8935,-52.3662,-0.889758,0
56.9375,-52.3099,-0.896349,0
56.9801,-52.2526,-0.902775,0
57.0214,-52.1942,-0.90905,0
57.0612,-52.1349,-0.915163,0
57.0998,-52.0747,-0.921115,0
57.137,-52.0137,-0.926891,0
57.1727,-51.9517,-0.932502,0
57.207,-51.8889,-0.937946,0
57.2398,-51.8254,-0.943195,0
57.2711,-51.7611,-0.948283,0
57.3009,-51.6961,-0.953176,0
57.3293,-51.6304,-0.957892,0
57.3561,-51.564,-0.962414,0
57.3814,-51.4971,-0.96675,0
57.4051,-51.4295,-0.970895,0
57.4273,-51.3615,-0.974836,0
57.4478,-51.2929,-0.978591,0
57.4669,-51.2239,-0.982145,0
57.4841,-51.1544,-0.9855,0
57.5,-51.0845,-0.988649,0
57.5141,-51.0143,-0.991598,0
57.5267,-50.9438,-0.994338,0
57.5378,-50.8731,-0.996823,0
57.5448,-50.8018,-0.999811,0
57.5501,-50.7304,-1.00263,0
57.5536,-50.659,-1.00525,0
57.5554,-50.5875,-1.0077,0
57.5554,-50.5161,-1.00996,0
57.5537,-50.4447,-1.01204,0
57.5502,-50.3735,-1.01393,0
57.545,-50.3024,-1.01563,0
57.5381,-50.2316,-1.01715,0
57.5295,-50.161,-1.01848,0
57.5191,-50.0907,-1.01963,0
57.5071,-50.0207,-1.02058,0
57.4934,-49.9511,-1.02134,0
57.478,-49.882,-1.02193,0
57.4609,-49.8133,-1.02232,0
57.4423,-49.7451,-1.02253,0
57.422,-49.6775,-1.02255,0
57.4,-49.6105,-1.02238,0
57.3766,-49.544,-1.02204,0
57.3516,-49.4783,-1.02151,0
57.325,-49.4132,-1.02079,0
57.2969,-49.3489,-1.01989,0
57.2673,-49.2854,-1.01881,0
57.2362,-49.2227,-1.01755,0
57.2038,-49.1608,-1.01612,0
57.1699,-49.0999,-1.01452,0
57.1346,-49.0398,-1.01273,0
57.098,-48.9806,-1.01077,0
57.06,-48.9225,-1.00864,0
57.0224,-48.8643,-1.00572,0
56.985,-48.8062,-1.00213,0
56.9462,-48.749,-0.998366,0
56.906,-48.6928,-0.994435,0
56.8646,-48.6376,-0.990334,0
56.8219,-48.5834,-0.986061,0
56.778,-48.5303,-0.981618,0
56.7329,-48.4782,-0.977018,0
56.6866,-48.4272,-0.972263,0
56.6405,-48.3761,-0.966745,0
56.5938,-48.3256,-0.960812,0
56.5459,-48.2762,-0.954743,0
56.4967,-48.2279,-0.948537,0
56.4464,-48.1809,-0.942199,0
56.395,-48.1352,-0.935719,0
55.6575,-53.2898,-0.714899,0
55.7231,-53.2622,-0.723849,0
55.7881,-53.2331,-0.732736,0
55.8524,-53.2025,-0.74155,0
55.916,-53.1704,-0.750309,0
55.9788,-53.1368,-0.758981,0
56.0409,-53.1017,-0.76758,0
56.1021,-53.0652,-0.776086,0
56.1624,-53.0273,-0.784509,0
56.2218,-52.9879,-0.792839,0
56.2803,-52.9472,-0.801071,0
56.3379,-52.9051,-0.809201,0
56.3945,-52.8617,-0.817214,0
56.45,-52.8169,-0.825119,0
56.5045,-52.7709,-0.832922,0
56.5579,-52.7236,-0.840593,0
56.6102,-52.675,-0.848136,0
56.6613,-52.6253,-0.855554,0
56.7113,-52.5743,-0.862834,0
56.7602,-52.5222,-0.869997,0
56.8077,-52.469,-0.877004,0
56.854,-52.4146,-0.883874,0
56.8991,-52.3592,-0.890588,0
56.9429,-52.3028,-0.89716,0
56.9854,-52.2453,-0.903571,0
57.0265,-52.1868,-0.909821,0
57.0662,-52.1274,-0.91592,0
57.1045,-52.0671,-0.921847,0
57.1415,-52.0059,-0.927604,0
57.1771,-51.9439,-0.933195,0
57.2112,-51.881,-0.938605,0
57.2438,-51.8174,-0.943849,0
57.2749,-51.753,-0.948903,0
57.3046,-51.6879,-0.953781,0
57.3327,-51.6221,-0.958464,0
57.3594,-51.5556,-0.96297,0
57.3845,-51.4886,-0.967277,0
57.408,-51.421,-0.971398,0
57.4299,-51.3529,-0.975324,0
57.4503,-51.2843,-0.97905,0
57.4691,-51.2152,-0.98258,0
57.4863,-51.1457,-0.9859,0
57.5018,-51.0758,-0.989025,0
57.5158,-51.0055,-0.99195,0
57.5281,-50.935,-0.99466,0
57.5387,-50.8642,-0.997209,0
57.5455,-50.7929,-1.00017,0
57.5506,-50.7215,-1.00297,0
57.5539,-50.65,-1.00557,0
57.5555,-50.5786,-1.00799,0
57.5554,-50.5072,-1.01023,0
57.5534,-50.4358,-1.01229,0
57.5497,-50.3646,-1.01415,0
57.5443,-50.2936,-1.01583,0
57.5371,-50.2227,-1.01733,0
57.5283,-50.1522,-1.01863,0
57.5177,-50.0819,-1.01975,0
57.5055,-50.012,-1.02069,0
57.4915,-49.9424,-1.02143,0
57.4759,-49.8733,-1.02198,0
57.4587,-49.8047,-1.02236,0
57.4398,-49.7366,-1.02254,0
57.4194,-49.6691,-1.02254,0
57.3973,-49.6021,-1.02236,0
57.3736,-49.5358,-1.02198,0
57.3483,-49.4701,-1.02142,0
57.3216,-49.4052,-1.02068,0
57.2933,-49.3409,-1.01977,0
57.2636,-49.2775,-1.01866,0
57.2323,-49.2149,-1.01739,0
57.1996,-49.1531,-1.01593,0
57.1655,-49.0923,-1.0143,0
57.1301,-49.0323,-1.0125,0
57.0933,-48.9733,-1.01052,0
57.0551,-48.9153,-1.00837,0
57.0179,-48.8569,-1.00528,0
56.9802,-48.799,-1.00167,0
56.9412,-48.7419,-0.997892,0
56.9009,-48.6859,-0.993928,0
56.8594,-48.6308,-0.989802,0
56.8165,-48.5767,-0.985514,0
56.7724,-48.5237,-0.981052,0
56.7271,-48.4717,-0.976432,0
56.6807,-48.4209,-0.971657,0
56.6347,-48.3697,-0.966003,0
56.5879,-48.3193,-0.96006,0
56.5398,-48.2701,-0.953967,0
56.4905,-48.222,-0.947751,0
56.4401,-48.1751,-0.941388,0
56.3884,-48.1295,-0.934909,0
57.2145,-51.7434,-0.941218,0
57.244,-51.6797,-0.946052,0
57.272,-51.6153,-0.950685,0
57.2985,-51.5503,-0.955158,0
57.3234,-51.4847,-0.959435,0
57.3469,-51.4186,-0.963517,0
57.3688,-51.3519,-0.967414,0
57.3891,-51.2847,-0.97112,0
57.408,-51.217,-0.974631,0
57.4253,-51.1489,-0.977946,0
57.4409,-51.0804,-0.981061,0
57.4551,-51.0116,-0.983971,0
57.4674,-50.9425,-0.986725,0
57.475,-50.8726,-0.990285,0
57.4821,-50.8028,-0.993244,0
57.4876,-50.7329,-0.996017,0
57.4912,-50.6629,-0.99862,0
57.4933,-50.5929,-1.00104,0
57.4936,-50.5229,-1.00329,0
57.4922,-50.453,-1.00535,0
57.4891,-50.3832,-1.00723,0
57.4842,-50.3135,-1.00894,0
57.4777,-50.2441,-1.01045,0
57.4695,-50.1749,-1.01178,0
57.4597,-50.1059,-1.01293,0
57.4481,-50.0373,-1.0139,0
57.4349,-49.9691,-1.01468,0
57.4202,-49.9013,-1.01528,0
57.4037,-49.8339,-1.0157,0
57.3857,-49.767,-1.01593,0
57.366,-49.7006,-1.01598,0
57.3448,-49.6348,-1.01586,0
57.3222,-49.5696,-1.01554,0
57.2979,-49.5051,-1.01505,0
57.2721,-49.4412,-1.01438,0
57.2448,-49.3781,-1.01354,0
57.2161,-49.3157,-1.01251,0
57.1859,-49.2541,-1.01131,0
57.1543,-49.1933,-1.00993,0
57.1214,-49.1334,-1.00839,0
57.087,-49.0743,-1.00666,0
57.0513,-49.0162,-1.00478,0
57.0143,-48.959,-1.00273,0
56.978,-48.9017,-0.999782,0
56.9414,-48.8446,-0.996286,0
56.9035,-48.7884,-0.992629,0
56.8644,-48.7332,-0.988791,0
56.8239,-48.6789,-0.984792,0
56.7823,-48.6256,-0.980617,0
56.7394,-48.5733,-0.976296,0
56.6952,-48.5221,-0.971799,0
56.65,-48.472,-0.96716,0
56.6035,-48.4229,-0.962355,0
56.5575,-48.3737,-0.956755,0
56.5106,-48.3251,-0.950822,0
56.4627,-48.2778,-0.944753,0
56.4134,-48.2316,-0.938547,0
56.3632,-48.1866,-0.932223,0
55.6273,-53.2382,-0.711808,0
55.6919,-53.2114,-0.720588,0
55.7556,-53.183,-0.729313,0
55.8188,-53.1532,-0.737975,0
55.8812,-53.1218,-0.746579,0
55.943,-53.0891,-0.75509,0
56.0039,-53.0549,-0.763532,0
56.0641,-53.0192,-0.771891,0
56.1234,-52.9822,-0.780163,0
56.1818,-52.9438,-0.788342,0
56.2392,-52.904,-0.796432,0
56.2959,-52.8629,-0.804411,0
56.3514,-52.8204,-0.812292,0
56.406,-52.7767,-0.82006,0
56.4596,-52.7317,-0.827717,0
56.5122,-52.6854,-0.835261,0
56.5636,-52.638,-0.842682,0
56.6139,-52.5893,-0.849977,0
56.6631,-52.5395,-0.857145,0
56.7111,-52.4885,-0.864172,0
56.7579,-52.4364,-0.871066,0
56.8035,-52.3833,-0.877819,0
56.8479,-52.329,-0.884426,0
56.8909,-52.2738,-0.89089,0
56.9328,-52.2175,-0.897204,0
56.9733,-52.1603,-0.903356,0
57.0124,-52.1022,-0.909357,0
57.0502,-52.0431,-0.915192,0
57.0867,-51.9832,-0.920856,0
57.1217,-51.9224,-0.926364,0
57.1554,-51.8609,-0.931696,0
57.1876,-51.7985,-0.936847,0
57.2183,-51.7355,-0.941838,0
57.2476,-51.6717,-0.946637,0
57.2753,-51.6072,-0.951262,0
57.3016,-51.5422,-0.9557,0
57.3265,-51.4765,-0.959958,0
57.3498,-51.4102,-0.96402,0
57.3715,-51.3435,-0.967892,0
57.3916,-51.2762,-0.971569,0
57.4103,-51.2085,-0.97506,0
57.4273,-51.1404,-0.978346,0
57.4428,-51.0718,-0.981437,0
57.4567,-51.003,-0.984328,0
57.4684,-50.9337,-0.987184,0
57.4759,-50.8639,-0.990666,0
57.4829,-50.7941,-0.9936,0
57.4881,-50.7241,-0.996354,0
57.4916,-50.6541,-0.998937,0
57.4934,-50.5842,-1.00133,0
57.4935,-50.5142,-1.00356,0
57.4919,-50.4443,-1.0056,0
57.4885,-50.3745,-1.00746,0
57.4835,-50.3048,-1.00914,0
57.4768,-50.2354,-1.01063,0
57.4684,-50.1662,-1.01194,0
57.4583,-50.0973,-1.01307,0
57.4466,-50.0287,-1.01402,0
57.4332,-49.9606,-1.01477,0
57.4182,-49.8928,-1.01534,0
57.4016,-49.8255,-1.01574,0
57.3833,-49.7586,-1.01595,0
57.3634,-49.6923,-1.01598,0
57.3421,-49.6266,-1.01583,0
57.3192,-49.5615,-1.01549,0
57.2947,-49.4971,-1.01498,0
57.2687,-49.4333,-1.01428,0
57.2413,-49.3702,-1.01341,0
57.2123,-49.3079,-1.01236,0
57.182,-49.2464,-1.01114,0
57.1502,-49.1858,-1.00975,0
57.1172,-49.1259,-1.00818,0
57.0827,-49.067,-1.00643,0
57.0467,-49.009,-1.00453,0
57.0095,-48.9519,-1.00246,0
56.9735,-48.8945,-0.999352,0
56.9367,-48.8375,-0.995837,0
56.8988,-48.7814,-0.99215,0
56.8594,-48.7263,-0.988298,0
