73.7284,-43.8398,-3.26858,0
73.6613,-43.6823,-3.25081,0
73.5905,-43.5247,-3.23236,0
73.5355,-43.347,-3.21138,0
73.4864,-43.1571,-3.18856,0
73.4327,-42.9654,-3.16477,0
73.3745,-42.772,-3.14002,0
73.3114,-42.5769,-3.11426,0
73.2374,-42.388,-3.08822,0
73.1566,-42.2009,-3.06148,0
73.0706,-42.0135,-3.03381,0
72.9794,-41.8258,-3.00518,0
72.8828,-41.6382,-2.97562,0
72.7808,-41.4507,-2.9451,0
72.6732,-41.2636,-2.91363,0
72.56,-41.077,-2.8812,0
72.4602,-40.8549,-2.84387,0
72.3451,-40.6491,-2.80714,0
74.8712,-57.8186,-2.59821,0
74.876,-57.4329,-2.65745,0
74.8725,-57.0576,-2.71389,0
74.8614,-56.693,-2.76762,0
74.8433,-56.3392,-2.8187,0
74.8184,-55.9956,-2.86729,0
74.8427,-55.7198,-2.9067,0
74.9149,-55.5029,-2.93824,0
74.9815,-55.2866,-2.96881,0
75.0425,-55.0711,-2.99841,0
75.098,-54.8566,-3.02704,0
75.1484,-54.6433,-3.05472,0
75.1935,-54.4312,-3.08144,0
75.2336,-54.2205,-3.10722,0
75.2688,-54.0114,-3.13209,0
75.2993,-53.804,-3.15602,0
75.3252,-53.5983,-3.17905,0
75.3465,-53.3945,-3.20119,0
75.3413,-53.1792,-3.22395,0
75.3267,-52.9641,-3.24608,0
75.3146,-52.7563,-3.26677,0
75.3052,-52.5553,-3.28614,0
75.2923,-52.3574,-3.30459,0
75.2762,-52.1628,-3.32215,0
75.2569,-51.9713,-3.33884,0
75.2348,-51.783,-3.3547,0
75.2096,-51.5979,-3.36973,0
75.1817,-51.4159,-3.38396,0
75.1512,-51.2371,-3.39742,0
75.1183,-51.0613,-3.41013,0
75.0828,-50.8887,-3.42209,0
75.0846,-50.7299,-3.43173,0
75.0834,-50.5721,-3.44082,0
75.0755,-50.4145,-3.44947,0
75.0647,-50.2582,-3.45759,0
75.051,-50.1032,-3.46515,0
75.0345,-49.9496,-3.47216,0
75.0154,-49.7973,-3.47865,0
74.9936,-49.6464,-3.48461,0
74.9692,-49.497,-3.49004,0
74.9422,-49.349,-3.49496,0
74.9127,-49.2025,-3.49937,0
74.8808,-49.0576,-3.50329,0
74.8464,-48.9141,-3.50671,0
74.81,-48.7723,-3.50965,0
74.7716,-48.6319,-3.51209,0
74.7321,-48.4931,-3.51403,0
74.717,-48.3537,-3.5147,0
74.7136,-48.2133,-3.51449,0
74.7077,-48.0727,-3.51383,0
74.6995,-47.932,-3.51271,0
74.6888,-47.7912,-3.51112,0
74.6758,-47.6503,-3.50909,0
74.6602,-47.5093,-3.50658,0
74.6422,-47.3682,-3.50362,0
74.6217,-47.2272,-3.50018,0
74.5987,-47.0861,-3.49628,0
74.5734,-46.9451,-3.49189,0
74.5455,-46.8042,-3.48704,0
74.515,-46.6634,-3.48171,0
74.482,-46.5227,-3.47591,0
74.4466,-46.3822,-3.46961,0
74.4053,-46.2432,-3.46296,0
74.3597,-46.1054,-3.45591,0
74.3116,-45.9681,-3.44839,0
74.2839,-45.8197,-3.43935,0
74.2591,-45.6678,-3.4295,0
74.2312,-45.5152,-3.41908,0
74.2002,-45.3618,-3.40807,0
74.1663,-45.2078,-3.39647,0
74.1291,-45.0532,-3.38428,0
74.0888,-44.898,-3.37149,0
74.0452,-44.7422,-3.35807,0
73.9983,-44.5861,-3.34403,0
73.948,-44.4295,-3.32937,0
73.8943,-44.2726,-3.31406,0
73.837,-44.1154,-3.2981,0
73.7763,-43.958,-3.28149,0
73.712,-43.8005,-3.26421,0
73.6441,-43.643,-3.24627,0
73.5724,-43.4855,-3.22765,0
73.5237,-43.2999,-3.20579,0
73.4735,-43.1095,-3.18273,0
73.4187,-42.9174,-3.1587,0
73.3592,-42.7236,-3.1337,0
73.2948,-42.5281,-3.10769,0
73.2178,-42.3415,-3.08165,0
73.1357,-42.1543,-3.05467,0
73.0484,-41.9668,-3.02675,0
72.9558,-41.7791,-2.99791,0
72.858,-41.5914,-2.9681,0
72.7545,-41.404,-2.93735,0
72.6455,-41.217,-2.90564,0
72.5309,-41.0307,-2.87297,0
72.4323,-40.8034,-2.8348,0
72.3145,-40.5998,-2.79801,0
74.8732,-57.7215,-2.61324,0
74.8759,-57.3384,-2.67178,0
74.8704,-56.9658,-2.72753,0
74.8575,-56.6039,-2.78059,0
74.8378,-56.2527,-2.83103,0
74.8107,-55.911,-2.87908,0
74.8613,-55.6657,-2.91466,0
74.932,-55.4489,-2.94595,0
74.9972,-55.2328,-2.97627,0
75.0569,-55.0176,-3.00564,0
75.1111,-54.8033,-3.03403,0
75.1601,-54.5903,-3.06147,0
75.2039,-54.3786,-3.08796,0
75.2428,-54.1683,-3.11351,0
75.2768,-53.9596,-3.13813,0
75.3062,-53.7526,-3.16184,0
75.3309,-53.5473,-3.18465,0
75.3498,-53.3432,-3.20665,0
75.338,-53.1252,-3.22957,0
75.3225,-52.9111,-3.25143,0
75.3126,-52.7059,-3.27169,0
75.3022,-52.5057,-3.29082,0
75.2886,-52.3086,-3.30904,0
75.2717,-52.1148,-3.32639,0
75.2517,-51.9241,-3.34287,0
75.2287,-51.7366,-3.35852,0
75.2029,-51.5523,-3.37335,0
75.1745,-51.3711,-3.38739,0
75.1433,-51.193,-3.40066,0
75.1097,-51.018,-3.41317,0
75.0824,-50.8487,-3.4246,0
75.0849,-50.6906,-3.43403,0
75.0816,-50.5327,-3.44302,0
75.073,-50.3754,-3.45156,0
75.0615,-50.2195,-3.45952,0
75.0472,-50.0648,-3.46695,0
75.0301,-49.9115,-3.47383,0
75.0102,-49.7596,-3.48018,0
74.9877,-49.6091,-3.486,0
74.9627,-49.46,-3.49132,0
74.9351,-49.3124,-3.49611,0
74.905,-49.1663,-3.5004,0
74.8724,-49.0217,-3.50419,0
74.8375,-48.8786,-3.50749,0
74.8006,-48.7372,-3.5103,0
74.7616,-48.5972,-3.51263,0
74.726,-48.4585,-3.51431,0
74.7164,-48.3188,-3.51469,0
74.7123,-48.1783,-3.51437,0
74.7059,-48.0377,-3.5136,0
74.6971,-47.8969,-3.51236,0
74.6858,-47.7561,-3.51067,0
74.672,-47.6151,-3.5085,0
74.6559,-47.4741,-3.50589,0
74.6373,-47.3331,-3.5028,0
74.6162,-47.192,-3.49925,0
74.5927,-47.051,-3.49522,0
74.5666,-46.91,-3.49072,0
74.538,-46.7691,-3.48575,0
74.507,-46.6283,-3.48031,0
74.4734,-46.4877,-3.47439,0
74.4373,-46.3472,-3.46797,0
74.3941,-46.2088,-3.46126,0
74.348,-46.0711,-3.45408,0
74.3006,-45.9332,-3.44637,0
74.278,-45.7819,-3.43695,0
74.2524,-45.6299,-3.42696,0
74.2237,-45.4771,-3.41639,0
74.1921,-45.3235,-3.40524,0
74.1573,-45.1693,-3.39349,0
74.1193,-45.0146,-3.38115,0
74.0782,-44.8592,-3.3682,0
74.0337,-44.7034,-3.35463,0
73.986,-44.5471,-3.34044,0
73.9349,-44.3904,-3.32561,0
73.8803,-44.2334,-3.31014,0
73.8223,-44.0762,-3.29403,0
73.7607,-43.9188,-3.27725,0
73.6954,-43.7613,-3.25981,0
73.6266,-43.6037,-3.2417,0
73.5585,-43.4416,-3.22249,0
73.5116,-43.2526,-3.20013,0
73.4602,-43.0618,-3.17683,0
73.4043,-42.8693,-3.15256,0
73.3437,-42.675,-3.12731,0
73.2761,-42.4817,-3.10129,0
73.1978,-42.2949,-3.07501,0
73.1144,-42.1076,-3.04781,0
73.0259,-41.92,-3.01966,0
72.932,-41.7323,-2.99057,0
72.8327,-41.5447,-2.96053,0
72.7279,-41.3574,-2.92954,0
72.6175,-41.1705,-2.89758,0
72.5047,-40.9784,-2.86404,0
72.4038,-40.752,-2.82566,0
72.2833,-40.5507,-2.78884,0
74.9936,-53.2142,-3.16387,0
74.9985,-53.0146,-3.18585,0
75.0013,-52.8187,-3.20677,0
75.0005,-52.6255,-3.22679,0
74.9962,-52.4351,-3.24592,0
74.9886,-52.2474,-3.2642,0
74.9777,-52.0625,-3.28164,0
74.9636,-51.8805,-3.29824,0
74.9466,-51.7012,-3.31404,0
74.9267,-51.5247,-3.32907,0
74.9041,-51.351,-3.34333,0
74.8789,-51.1802,-3.35684,0
74.851,-51.0121,-3.36963,0
74.8281,-50.849,-3.38133,0
74.8286,-50.6955,-3.39112,0
74.8262,-50.5431,-3.40036,0
74.8209,-50.3917,-3.40906,0
74.8129,-50.2415,-3.41722,0
74.8021,-50.0925,-3.42484,0
74.7887,-49.9446,-3.43194,0
74.7727,-49.798,-3.43852,0
74.754,-49.6527,-3.44459,0
74.7328,-49.5087,-3.45015,0
74.7092,-49.366,-3.45521,0
74.6831,-49.2247,-3.45979,0
74.6547,-49.0847,-3.46387,0
74.624,-48.9461,-3.46748,0
74.5909,-48.809,-3.47061,0
74.5563,-48.6732,-3.47326,0
74.5353,-48.5381,-3.47485,0
74.5135,-48.4036,-3.47593,0
74.5105,-48.2678,-3.4758,0
74.5052,-48.1319,-3.4752,0
74.4974,-47.9959,-3.47417,0
74.4873,-47.8597,-3.47269,0
74.4749,-47.7235,-3.47076,0
74.4602,-47.5872,-3.46838,0
74.443,-47.4509,-3.46554,0
74.4234,-47.3146,-3.46226,0
74.4013,-47.1783,-3.45851,0
74.3769,-47.0421,-3.45431,0
74.35,-46.906,-3.44964,0
74.3207,-46.77,-3.44451,0
74.2889,-46.6342,-3.43891,0
74.2544,-46.4986,-3.43287,0
74.213,-46.3651,-3.42654,0
74.1692,-46.2321,-3.41978,0
74.123,-46.0995,-3.41254,0
74.0741,-45.9676,-3.40485,0
74.0441,-45.8251,-3.39553,0
74.0164,-45.6792,-3.38541,0
73.9859,-45.5329,-3.3747,0
73.9524,-45.3859,-3.36345,0
73.9159,-45.2384,-3.35162,0
73.8763,-45.0905,-3.33921,0
73.8335,-44.9422,-3.32622,0
73.7877,-44.7935,-3.31263,0
73.7385,-44.6446,-3.29844,0
73.6862,-44.4954,-3.28364,0
73.6305,-44.3461,-3.26824,0
73.5714,-44.1967,-3.2522,0
73.5089,-44.0473,-3.23555,0
73.443,-43.8979,-3.21826,0
73.3736,-43.7487,-3.20033,0
73.3005,-43.5997,-3.18176,0
73.2274,-43.4472,-3.16216,0
73.1731,-43.2692,-3.13925,0
73.1144,-43.0899,-3.11545,0
73.0512,-42.9095,-3.09073,0
72.9802,-42.732,-3.0655,0
72.9007,-42.559,-3.03994,0
72.8163,-42.386,-3.01351,0
72.7271,-42.2131,-2.98624,0
72.633,-42.0404,-2.95809,0
72.5337,-41.8682,-2.92909,0
72.4295,-41.6967,-2.89923,0
72.3187,-41.5282,-2.86875,0
72.1999,-41.3665,-2.83809,0
72.0727,-41.213,-2.80744,0
74.1459,-56.8228,-2.65029,0
74.1685,-56.504,-2.70175,0
74.2077,-56.222,-2.74712,0
74.2417,-55.947,-2.79044,0
74.3053,-55.7177,-2.82679,0
74.3934,-55.5232,-2.85772,0
74.4758,-55.3278,-2.88788,0
74.5526,-55.1319,-2.91724,0
74.6237,-54.9357,-2.94581,0
74.6894,-54.7394,-2.97358,0
74.7496,-54.5432,-3.00053,0
74.8047,-54.3472,-3.02668,0
74.8525,-54.15,-3.05223,0
74.8942,-53.9529,-3.07705,0
74.9313,-53.7569,-3.10099,0
74.9638,-53.5623,-3.12409,0
74.992,-53.3691,-3.14635,0
74.994,-53.1635,-3.16953,0
74.9996,-52.9655,-3.19115,0
75.0015,-52.7703,-3.21184,0
74.9998,-52.5778,-3.23164,0
74.9946,-52.3881,-3.25056,0
74.9862,-52.2011,-3.26862,0
74.9744,-52.0169,-3.28585,0
74.9597,-51.8355,-3.30225,0
74.9419,-51.6569,-3.31787,0
74.9214,-51.4812,-3.3327,0
74.8981,-51.3082,-3.34677,0
74.8722,-51.138,-3.36009,0
74.8437,-50.9706,-3.3727,0
74.8285,-50.8107,-3.38383,0
74.8283,-50.6574,-3.39348,0
74.8251,-50.5052,-3.40258,0
74.8191,-50.3542,-3.41114,0
74.8105,-50.2042,-3.41917,0
74.7991,-50.0555,-3.42666,0
74.7849,-49.908,-3.43362,0
74.7683,-49.7617,-3.44008,0
74.749,-49.6167,-3.44603,0
74.7272,-49.473,-3.45146,0
74.703,-49.3307,-3.4564,0
74.6762,-49.1897,-3.46085,0
74.6473,-49.05,-3.46483,0
74.6159,-48.9118,-3.46831,0
74.5823,-48.775,-3.47133,0
74.5512,-48.6395,-3.47369,0
74.5298,-48.5046,-3.47517,0
74.513,-48.3698,-3.47594,0
74.5095,-48.234,-3.47568,0
74.5034,-48.0981,-3.47498,0
74.4952,-47.962,-3.47384,0
74.4845,-47.8258,-3.47225,0
74.4714,-47.6895,-3.47021,0
74.456,-47.5533,-3.46771,0
74.4383,-47.417,-3.46477,0
74.418,-47.2806,-3.46137,0
74.3955,-47.1444,-3.45751,0
74.3704,-47.0082,-3.45319,0
74.343,-46.8721,-3.44841,0
74.313,-46.7362,-3.44316,0
74.2806,-46.6003,-3.43745,0
74.2444,-46.4653,-3.43133,0
74.2023,-46.3319,-3.4249,0
74.158,-46.199,-3.41801,0
74.111,-46.0666,-3.41067,0
74.063,-45.9341,-3.40279,0
74.0374,-45.7888,-3.39306,0
74.0091,-45.6428,-3.38279,0
73.9778,-45.4963,-3.37195,0
73.9436,-45.3492,-3.36056,0
73.9062,-45.2016,-3.34859,0
73.8659,-45.0536,-3.33603,0
73.8224,-44.9052,-3.32289,0
73.7758,-44.7564,-3.30915,0
73.7258,-44.6074,-3.29481,0
73.6726,-44.4582,-3.27986,0
73.6161,-44.3089,-3.26431,0
73.5562,-44.1595,-3.24812,0
73.4929,-44.01,-3.23131,0
73.4261,-43.8607,-3.21385,0
73.3557,-43.7115,-3.19577,0
73.2818,-43.5626,-3.17703,0
73.2143,-43.403,-3.15653,0
73.1589,-43.2246,-3.13341,0
73.0991,-43.0451,-3.10937,0
73.0348,-42.8643,-3.08442,0
72.9609,-42.6889,-3.05922,0
72.8801,-42.5159,-3.03343,0
72.7946,-42.3429,-3.0068,0
72.7041,-42.17,-2.97931,0
72.6087,-41.9975,-2.95095,0
72.5083,-41.8254,-2.92174,0
72.4027,-41.6541,-2.89165,0
72.2896,-41.4877,-2.86118,0
72.1694,-41.3265,-2.83034,0
72.0378,-41.18,-2.80026,0
74.1523,-56.7428,-2.6633,0
74.1773,-56.4311,-2.7135,0
74.2167,-56.1531,-2.75807,0
74.2491,-55.8791,-2.80099,0
74.3279,-55.6693,-2.83457,0
74.4145,-55.4745,-2.86531,0
74.4955,-55.279,-2.89527,0
74.5708,-55.0831,-2.92444,0
74.6405,-54.8868,-2.9528,0
74.7049,-54.6905,-2.98037,0
74.7639,-54.4943,-3.00713,0
74.8176,-54.2985,-3.03307,0
74.8634,-54.1008,-3.05849,0
74.9039,-53.9039,-3.08309,0
74.9398,-53.7083,-3.10683,0
74.9713,-53.514,-3.12971,0
74.9942,-53.3185,-3.15212,0
74.9957,-53.1139,-3.17501,0
75.0004,-52.9166,-3.1964,0
75.0014,-52.7221,-3.21687,0
74.9988,-52.5303,-3.23644,0
74.9928,-52.3412,-3.25513,0
74.9835,-52.1549,-3.27299,0
74.9711,-51.9714,-3.29001,0
74.9555,-51.7908,-3.30622,0
74.9371,-51.6129,-3.32163,0
74.9158,-51.4378,-3.33627,0
74.8919,-51.2655,-3.35016,0
74.8653,-51.0961,-3.3633,0
74.8362,-50.9293,-3.37573,0
74.8288,-50.7724,-3.38629,0
74.8277,-50.6194,-3.3958,0
74.8239,-50.4675,-3.40477,0
74.8173,-50.3167,-3.4132,0
74.8078,-50.1671,-3.42108,0
74.7958,-50.0186,-3.42844,0
74.781,-49.8714,-3.43529,0
74.7637,-49.7255,-3.44161,0
74.7438,-49.5808,-3.44742,0
74.7214,-49.4374,-3.45273,0
74.6966,-49.2954,-3.45756,0
74.6693,-49.1547,-3.46189,0
74.6397,-49.0155,-3.46573,0
74.6077,-48.8776,-3.4691,0
74.5736,-48.7412,-3.472,0
74.5461,-48.6058,-3.47411,0
74.5241,-48.471,-3.47547,0
74.5123,-48.336,-3.47592,0
74.5081,-48.2001,-3.47555,0
74.5016,-48.0642,-3.47474,0
74.4927,-47.9281,-3.47348,0
74.4815,-47.7919,-3.47178,0
74.4678,-47.6556,-3.46963,0
74.4518,-47.5193,-3.46702,0
74.4334,-47.383,-3.46397,0
74.4127,-47.2467,-3.46045,0
74.3894,-47.1105,-3.45647,0
74.3637,-46.9743,-3.45204,0
74.3357,-46.8382,-3.44715,0
74.3052,-46.7023,-3.44178,0
74.2722,-46.5665,-3.43595,0
74.2341,-46.432,-3.42977,0
74.1916,-46.2987,-3.42323,0
74.1465,-46.166,-3.41623,0
74.099,-46.0337,-3.40876,0
74.0568,-45.898,-3.40041,0
74.0307,-45.7525,-3.39055,0
74.0016,-45.6064,-3.38014,0
73.9696,-45.4597,-3.36917,0
73.9345,-45.3125,-3.35762,0
73.8966,-45.1648,-3.34551,0
73.8554,-45.0166,-3.33281,0
73.811,-44.8681,-3.31952,0
73.7636,-44.7193,-3.30564,0
73.7129,-44.5703,-3.29114,0
73.6588,-44.421,-3.27604,0
73.6014,-44.2716,-3.26032,0
73.5407,-44.1222,-3.24399,0
73.4765,-43.9728,-3.22702,0
73.4088,-43.8235,-3.20941,0
73.3377,-43.6744,-3.19116,0
73.2628,-43.5255,-3.17226,0
73.2009,-43.3587,-3.15086,0
73.1444,-43.18,-3.12751,0
73.0834,-43.0001,-3.10324,0
73.018,-42.8191,-3.07806,0
72.9412,-42.6458,-3.05287,0
72.8592,-42.4728,-3.02687,0
72.7725,-42.2998,-3.00003,0
72.6809,-42.127,-2.97232,0
72.5842,-41.9546,-2.94375,0
72.4825,-41.7827,-2.91432,0
72.3755,-41.6115,-2.88402,0
72.2602,-41.4474,-2.85357,0
72.1387,-41.2866,-2.82254,0
72.0027,-41.1472,-2.79304,0
74.6906,-53.013,-3.13385,0
74.7006,-52.8259,-3.15506,0
74.707,-52.6411,-3.17541,0
74.7098,-52.4586,-3.19492,0
74.709,-52.2784,-3.2136,0
74.7049,-52.1007,-3.23147,0
74.6977,-51.9253,-3.24855,0
74.6873,-51.7524,-3.26485,0
74.674,-51.582,-3.2804,0
74.6577,-51.414,-3.2952,0
74.6387,-51.2486,-3.30927,0
74.617,-51.0857,-3.32264,0
74.5927,-50.9252,-3.33531,0
74.5889,-50.7742,-3.34599,0
74.5908,-50.6269,-3.35564,0
74.5899,-50.4805,-3.36474,0
74.5863,-50.335,-3.37333,0
74.5799,-50.1907,-3.38138,0
74.5709,-50.0473,-3.38894,0
74.5593,-49.9051,-3.39598,0
74.545,-49.764,-3.40253,0
74.5284,-49.624,-3.40858,0
74.5091,-49.4853,-3.41414,0
74.4876,-49.3478,-3.41922,0
74.4636,-49.2115,-3.42382,0
74.4373,-49.0765,-3.42796,0
74.4087,-48.9428,-3.43161,0
74.3823,-48.8103,-3.43462,0
74.3647,-48.6787,-3.43669,0
74.3448,-48.5478,-3.43832,0
74.3229,-48.4176,-3.4395,0
74.3187,-48.2862,-3.43935,0
74.3134,-48.1546,-3.43873,0
74.3055,-48.0229,-3.43768,0
74.2955,-47.8911,-3.43619,0
74.2832,-47.7593,-3.43426,0
74.2684,-47.6274,-3.43189,0
74.2514,-47.4956,-3.42908,0
74.2321,-47.3637,-3.42583,0
74.2104,-47.2319,-3.42213,0
74.1863,-47.1002,-3.41798,0
74.1599,-46.9686,-3.41337,0
74.1311,-46.8371,-3.40832,0
74.0999,-46.7058,-3.40282,0
74.0631,-46.576,-3.39704,0
74.0227,-46.447,-3.39088,0
73.98,-46.3186,-3.38426,0
73.9349,-46.1906,-3.37718,0
73.8873,-46.0632,-3.36967,0
73.8383,-45.9359,-3.36166,0
73.8103,-45.7962,-3.35166,0
73.7795,-45.6561,-3.34114,0
73.7458,-45.5154,-3.33008,0
73.7092,-45.3744,-3.31846,0
73.6698,-45.233,-3.30629,0
73.6272,-45.0914,-3.29356,0
73.5816,-44.9495,-3.28027,0
73.533,-44.8074,-3.26639,0
73.4811,-44.6653,-3.25195,0
73.4262,-44.523,-3.23691,0
73.368,-44.3808,-3.2213,0
73.3064,-44.2387,-3.20507,0
73.2416,-44.0968,-3.18825,0
73.1736,-43.9551,-3.17083,0
73.102,-43.8137,-3.15279,0
73.027,-43.6727,-3.13414,0
72.9487,-43.5322,-3.11487,0
72.8797,-43.377,-3.09326,0
72.8166,-43.2092,-3.06951,0
72.7484,-43.0419,-3.04504,0
72.6703,-42.8813,-3.02054,0
72.5878,-42.7209,-2.99527,0
72.5007,-42.5608,-2.96922,0
72.409,-42.4011,-2.94237,0
72.3111,-42.2446,-2.91506,0
72.2064,-42.0928,-2.88742,0
72.0969,-41.9426,-2.85909,0
71.9826,-41.7942,-2.83008,0
71.8635,-41.6479,-2.80042,0
73.6495,-56.1392,-2.6757,0
73.7035,-55.891,-2.71825,0
73.7909,-55.6952,-2.75239,0
73.888,-55.5173,-2.78312,0
73.9795,-55.3379,-2.81319,0
74.0657,-55.1575,-2.84255,0
74.1466,-54.9761,-2.8712,0
74.2223,-54.794,-2.89914,0
74.2927,-54.6115,-2.92635,0
74.358,-54.4285,-2.95284,0
74.4184,-54.2455,-2.97859,0
74.4737,-54.0626,-3.0036,0
74.5242,-53.8798,-3.02785,0
74.5699,-53.6975,-3.05136,0
74.6154,-53.5189,-3.0737,0
74.6637,-53.3459,-3.09461,0
74.6805,-53.155,-3.11736,0
74.6934,-52.9662,-3.13922,0
74.7026,-52.7797,-3.16021,0
74.708,-52.5954,-3.18035,0
74.7099,-52.4135,-3.19965,0
74.7084,-52.2339,-3.21813,0
74.7034,-52.0567,-3.2358,0
74.6954,-51.882,-3.25268,0
74.6843,-51.7097,-3.2688,0
74.6702,-51.5399,-3.28415,0
74.6532,-51.3726,-3.29877,0
74.6335,-51.2078,-3.31267,0
74.6112,-51.0454,-3.32587,0
74.5863,-50.8856,-3.33837,0
74.5897,-50.7374,-3.34844,0
74.5909,-50.5903,-3.35795,0
74.5893,-50.4441,-3.36692,0
74.5849,-50.299,-3.37538,0
74.5779,-50.1548,-3.38331,0
74.5682,-50.0118,-3.39074,0
74.5559,-49.8698,-3.39766,0
74.5411,-49.729,-3.40408,0
74.5238,-49.5893,-3.41001,0
74.504,-49.4509,-3.41545,0
74.4818,-49.3137,-3.42042,0
74.4573,-49.1777,-3.42489,0
74.4303,-49.043,-3.42891,0
74.4012,-48.9097,-3.43246,0
74.3781,-48.7775,-3.43518,0
74.3599,-48.646,-3.43714,0
74.3395,-48.5153,-3.43865,0
74.3214,-48.3849,-3.43953,0
74.3177,-48.2534,-3.43924,0
74.3116,-48.1218,-3.43851,0
74.3033,-47.9901,-3.43735,0
74.2927,-47.8583,-3.43575,0
74.2797,-47.7264,-3.43371,0
74.2645,-47.5946,-3.43123,0
74.2468,-47.4627,-3.42831,0
74.227,-47.3309,-3.42494,0
74.2046,-47.1991,-3.42113,0
74.1799,-47.0674,-3.41687,0
74.153,-46.9358,-3.41216,0
74.1235,-46.8044,-3.407,0
74.0918,-46.6731,-3.40138,0
74.0533,-46.5438,-3.39555,0
74.0123,-46.415,-3.38926,0
73.969,-46.2866,-3.38254,0
73.9233,-46.1588,-3.37536,0
73.8752,-46.0316,-3.36774,0
73.8316,-45.9012,-3.35921,0
73.8029,-45.7613,-3.3491,0
73.7714,-45.621,-3.33843,0
73.737,-45.4803,-3.32723,0
73.6997,-45.3392,-3.31548,0
73.6594,-45.1978,-3.30318,0
73.6162,-45.056,-3.2903,0
73.5698,-44.9141,-3.27687,0
73.5203,-44.772,-3.26286,0
73.4677,-44.6298,-3.24825,0
73.4119,-44.4876,-3.23308,0
73.3529,-44.3454,-3.21731,0
73.2905,-44.2033,-3.20094,0
73.225,-44.0614,-3.18397,0
73.156,-43.9198,-3.16639,0
73.0837,-43.7785,-3.14821,0
73.0078,-43.6376,-3.1294,0
72.9286,-43.4973,-3.10997,0
72.8644,-43.3353,-3.08743,0
72.8002,-43.1673,-3.06346,0
72.7294,-43.0019,-3.039,0
72.6502,-42.8413,-3.01432,0
72.5665,-42.6809,-2.98885,0
72.4783,-42.5209,-2.9626,0
72.3855,-42.3614,-2.93557,0
72.2855,-42.2066,-2.90823,0
72.1795,-42.0552,-2.88042,0
72.0688,-41.9054,-2.85192,0
71.9534,-41.7575,-2.82275,0
71.8331,-41.6118,-2.79292,0
73.6637,-56.0771,-2.68643,0
73.7158,-55.8295,-2.72863,0
73.8155,-55.651,-2.76011,0
73.9112,-55.4727,-2.79068,0
74.0015,-55.2931,-2.82056,0
74.0864,-55.1124,-2.84976,0
74.1659,-54.9308,-2.87823,0
74.2402,-54.7486,-2.90599,0
74.3094,-54.5659,-2.93302,0
74.3736,-54.3829,-2.95933,0
74.4326,-54.1999,-2.98488,0
74.4867,-54.017,-3.0097,0
74.536,-53.8343,-3.03378,0
74.5805,-53.6521,-3.05712,0
74.628,-53.4759,-3.07895,0
74.6683,-53.2981,-3.10036,0
74.6841,-53.1077,-3.12289,0
74.6961,-52.9195,-3.14453,0
74.7042,-52.7335,-3.16531,0
74.7087,-52.5498,-3.18524,0
74.7098,-52.3685,-3.20433,0
74.7074,-52.1895,-3.2226,0
74.7018,-52.013,-3.24008,0
74.6929,-51.8388,-3.25677,0
74.681,-51.6672,-3.27268,0
74.6662,-51.498,-3.28786,0
74.6485,-51.3313,-3.3023,0
74.6282,-51.1671,-3.31602,0
74.6052,-51.0054,-3.32904,0
74.5869,-50.8484,-3.34095,0
74.5902,-50.7007,-3.35086,0
74.5907,-50.5538,-3.36024,0
74.5884,-50.4079,-3.36908,0
74.5834,-50.263,-3.3774,0
74.5757,-50.1191,-3.38521,0
74.5654,-49.9763,-3.39252,0
74.5525,-49.8346,-3.39931,0
74.537,-49.6941,-3.40561,0
74.5191,-49.5548,-3.4114,0
74.4987,-49.4166,-3.41674,0
74.4759,-49.2797,-3.42157,0
74.4508,-49.144,-3.42593,0
74.4234,-49.0097,-3.42984,0
74.3936,-48.8766,-3.43327,0
74.3738,-48.7447,-3.43571,0
74.3551,-48.6134,-3.43756,0
74.3342,-48.4828,-3.43896,0
74.3206,-48.3522,-3.4395,0
74.3163,-48.2207,-3.4391,0
74.3097,-48.089,-3.43826,0
74.3008,-47.9573,-3.43699,0
74.2897,-47.8254,-3.43528,0
74.2761,-47.6936,-3.43313,0
74.2602,-47.5617,-3.43054,0
74.2421,-47.4299,-3.42751,0
74.2216,-47.298,-3.42404,0
74.1987,-47.1662,-3.42012,0
74.1734,-47.0346,-3.41574,0
74.1459,-46.903,-3.41092,0
74.1159,-46.7717,-3.40564,0
74.0824,-46.6409,-3.39997,0
74.0434,-46.5117,-3.39403,0
74.0018,-46.383,-3.38763,0
73.9578,-46.2547,-3.38079,0
73.9115,-46.1271,-3.37349,0
73.8627,-45.9999,-3.36576,0
73.8247,-45.8664,-3.35674,0
73.7954,-45.7264,-3.34648,0
73.763,-45.586,-3.3357,0
73.728,-45.4452,-3.32436,0
73.6899,-45.304,-3.31247,0
73.6489,-45.1625,-3.30002,0
73.6049,-45.0207,-3.287,0
73.5578,-44.8787,-3.27342,0
73.5075,-44.7366,-3.25927,0
73.4541,-44.5944,-3.24452,0
73.3976,-44.4522,-3.2292,0
73.3377,-44.31,-3.21329,0
73.2746,-44.1679,-3.19676,0
73.2081,-44.0261,-3.17964,0
73.1384,-43.8846,-3.16192,0
73.0651,-43.7434,-3.14358,0
72.9884,-43.6026,-3.12462,0
72.9096,-43.4608,-3.10487,0
72.8487,-43.2935,-3.08153,0
72.7836,-43.1253,-3.05736,0
72.71,-42.9619,-3.03293,0
72.6297,-42.8013,-3.00804,0
72.545,-42.641,-2.98238,0
72.4555,-42.4811,-2.95594,0
72.3616,-42.3218,-2.92872,0
72.2595,-42.1688,-2.90136,0
72.1524,-42.0177,-2.87339,0
72.0405,-41.8684,-2.84472,0
71.9238,-41.721,-2.81539,0
71.8024,-41.5758,-2.78538,0
74.4126,-52.8284,-3.10653,0
74.4254,-52.6516,-3.12712,0
74.4345,-52.4768,-3.1469,0
74.4403,-52.304,-3.16589,0
74.4427,-52.1332,-3.18411,0
74.4418,-51.9645,-3.20157,0
74.4377,-51.7979,-3.21827,0
74.4306,-51.6335,-3.23424,0
74.4207,-51.4713,-3.24949,0
74.4079,-51.3113,-3.26404,0
74.3923,-51.1536,-3.27789,0
74.3741,-50.998,-3.29107,0
74.3606,-50.8471,-3.30311,0
74.3665,-50.7046,-3.31311,0
74.3696,-50.563,-3.32259,0
74.3699,-50.4222,-3.33156,0
74.3677,-50.2823,-3.34003,0
74.3628,-50.1433,-3.348,0
74.3552,-50.0052,-3.35547,0
74.3452,-49.8682,-3.36245,0
74.3327,-49.7322,-3.36895,0
74.3177,-49.5973,-3.37496,0
74.3002,-49.4634,-3.38051,0
74.2805,-49.3307,-3.38559,0
74.2584,-49.1992,-3.39021,0
74.234,-49.0688,-3.39437,0
74.2155,-48.9397,-3.39765,0
74.201,-48.8115,-3.40017,0
74.1843,-48.6839,-3.40226,0
74.1655,-48.5569,-3.40391,0
74.1446,-48.4307,-3.40513,0
74.1384,-48.3035,-3.40506,0
74.1328,-48.176,-3.40442,0
74.125,-48.0484,-3.40334,0
74.115,-47.9207,-3.40185,0
74.1027,-47.793,-3.39992,0
74.0882,-47.6653,-3.39757,0
74.0714,-47.5375,-3.39478,0
74.0523,-47.4099,-3.39156,0
74.0309,-47.2823,-3.38791,0
74.0072,-47.1548,-3.38383,0
73.9812,-47.0274,-3.37929,0
73.953,-46.9002,-3.37432,0
73.9205,-46.7738,-3.36903,0
73.8835,-46.6487,-3.36341,0
73.8441,-46.524,-3.35738,0
73.8024,-46.3998,-3.35091,0
73.7584,-46.2761,-3.34401,0
73.712,-46.153,-3.33668,0
73.6634,-46.0304,-3.3289,0
73.6184,-45.9052,-3.32024,0
73.5874,-45.7707,-3.30989,0
73.5537,-45.6359,-3.29903,0
73.5172,-45.5008,-3.28763,0
73.4778,-45.3655,-3.2757,0
73.4355,-45.23,-3.26324,0
73.3903,-45.0943,-3.25022,0
73.3421,-44.9585,-3.23667,0
73.291,-44.8228,-3.22256,0
73.2367,-44.687,-3.20789,0
73.1795,-44.5514,-3.19265,0
73.119,-44.416,-3.17686,0
73.0554,-44.2808,-3.1605,0
72.9885,-44.1459,-3.14355,0
72.9186,-44.0114,-3.12601,0
72.8452,-43.8774,-3.10791,0
72.7686,-43.744,-3.08923,0
72.6887,-43.6113,-3.06995,0
72.6055,-43.4793,-3.05008,0
72.5374,-43.3239,-3.02665,0
72.4619,-43.1729,-3.003,0
72.3812,-43.0235,-2.97879,0
72.2941,-42.8777,-2.95425,0
72.2017,-42.7345,-2.92925,0
72.105,-42.5927,-2.90361,0
72.0037,-42.4523,-2.87734,0
71.8983,-42.3135,-2.85044,0
71.7883,-42.1767,-2.82292,0
71.674,-42.0419,-2.79481,0
73.2998,-55.6552,-2.68307,0
73.4042,-55.4933,-2.71343,0
73.5036,-55.3295,-2.74322,0
73.5978,-55.164,-2.7724,0
73.6871,-54.9971,-2.80097,0
73.7713,-54.829,-2.82892,0
73.8505,-54.6598,-2.85621,0
73.9249,-54.4899,-2.88285,0
73.9945,-54.3192,-2.90883,0
74.0591,-54.1481,-2.93414,0
74.1257,-53.9825,-2.95793,0
74.1907,-53.8188,-2.98072,0
74.2517,-53.655,-3.00286,0
74.3088,-53.491,-3.02434,0
74.3578,-53.3242,-3.04562,0
74.3811,-53.1424,-3.06848,0
74.4005,-52.9623,-3.09052,0
74.4161,-52.7841,-3.11173,0
74.428,-52.6079,-3.13212,0
74.4363,-52.4335,-3.15171,0
74.4412,-52.2612,-3.1705,0
74.4427,-52.091,-3.18853,0
74.441,-51.9228,-3.2058,0
74.4362,-51.7568,-3.22232,0
74.4284,-51.5929,-3.23811,0
74.4177,-51.4312,-3.25319,0
74.4041,-51.2718,-3.26756,0
74.388,-51.1146,-3.28124,0
74.3691,-50.9596,-3.29426,0
74.3623,-50.8115,-3.30565,0
74.3675,-50.6693,-3.31552,0
74.3699,-50.5278,-3.32487,0
74.3696,-50.3872,-3.33372,0
74.3667,-50.2475,-3.34206,0
74.3611,-50.1088,-3.3499,0
74.353,-49.971,-3.35725,0
74.3423,-49.8342,-3.36411,0
74.3291,-49.6985,-3.37049,0
74.3135,-49.5638,-3.37639,0
74.2955,-49.4303,-3.38182,0
74.2752,-49.2978,-3.38678,0
74.2525,-49.1666,-3.39129,0
74.2276,-49.0365,-3.39533,0
74.212,-48.9077,-3.39832,0
74.197,-48.7796,-3.40073,0
74.1798,-48.6522,-3.40271,0
74.1605,-48.5254,-3.40425,0
74.141,-48.3992,-3.40527,0
74.1372,-48.2717,-3.40494,0
74.1311,-48.1442,-3.40419,0
74.1227,-48.0166,-3.40301,0
74.1122,-47.8889,-3.40141,0
74.0993,-47.7612,-3.39938,0
74.0842,-47.6334,-3.39692,0
74.0669,-47.5057,-3.39402,0
74.0472,-47.3781,-3.3907,0
74.0252,-47.2505,-3.38693,0
74.0009,-47.123,-3.38273,0
73.9744,-46.9957,-3.3781,0
73.9455,-46.8685,-3.37301,0
73.9116,-46.7426,-3.36766,0
73.8739,-46.6176,-3.36195,0
73.8341,-46.493,-3.35581,0
73.7917,-46.3689,-3.34924,0
73.7471,-46.2453,-3.34222,0
73.7002,-46.1224,-3.33479,0
73.6508,-46,-3.3269,0
73.6109,-45.8717,-3.31771,0
73.5793,-45.7372,-3.30723,0
73.5449,-45.6023,-3.29623,0
73.5077,-45.4671,-3.2847,0
73.4675,-45.3318,-3.27264,0
73.4245,-45.1962,-3.26004,0
73.3787,-45.0605,-3.2469,0
73.3297,-44.9247,-3.2332,0
73.2777,-44.7889,-3.21896,0
73.2228,-44.6532,-3.20414,0
73.1647,-44.5176,-3.18878,0
73.1034,-44.3822,-3.17284,0
73.0391,-44.2471,-3.15632,0
72.9714,-44.1123,-3.13924,0
72.9005,-43.978,-3.12156,0
72.8264,-43.8441,-3.10331,0
72.749,-43.7109,-3.08447,0
72.6683,-43.5783,-3.06506,0
72.5879,-43.4418,-3.04447,0
72.5197,-43.2853,-3.0207,0
72.4421,-43.1357,-2.99703,0
72.3604,-42.9864,-2.97264,0
72.2715,-42.8419,-2.94808,0
72.178,-42.6991,-2.92293,0
72.0802,-42.5575,-2.89713,0
71.9779,-42.4175,-2.8707,0
71.8713,-42.2792,-2.84364,0
71.7602,-42.1429,-2.81597,0
71.6448,-42.0086,-2.78771,0
73.3263,-55.6151,-2.69069,0
73.4295,-55.4527,-2.72091,0
73.5276,-55.2884,-2.75055,0
73.6205,-55.1226,-2.77959,0
73.7085,-54.9554,-2.80799,0
73.7915,-54.7869,-2.83578,0
73.8695,-54.6176,-2.86291,0
73.9427,-54.4474,-2.88938,0
74.0111,-54.2767,-2.9152,0
74.0745,-54.1055,-2.94034,0
74.1423,-53.9418,-2.96366,0
74.2063,-53.778,-2.9863,0
74.2663,-53.6141,-3.00828,0
74.3223,-53.4502,-3.02959,0
74.364,-53.2787,-3.05139,0
74.3863,-53.0973,-3.07406,0
74.4047,-52.9177,-3.09589,0
74.4194,-52.74,-3.11689,0
74.4304,-52.5642,-3.13707,0
74.4379,-52.3904,-3.15646,0
74.4419,-52.2186,-3.17507,0
74.4427,-52.0489,-3.1929,0
74.4402,-51.8812,-3.20998,0
74.4345,-51.7157,-3.22632,0
74.426,-51.5524,-3.24193,0
74.4147,-51.3913,-3.25683,0
74.4004,-51.2324,-3.27103,0
74.3835,-51.0758,-3.28455,0
74.3641,-50.9214,-3.29739,0
74.3638,-50.776,-3.30816,0
74.3684,-50.6339,-3.31789,0
74.3701,-50.4927,-3.32713,0
74.3692,-50.3523,-3.33584,0
74.3655,-50.2129,-3.34406,0
74.3593,-50.0744,-3.35178,0
74.3505,-49.9368,-3.35901,0
74.3393,-49.8003,-3.36574,0
74.3255,-49.6648,-3.372,0
74.3092,-49.5304,-3.37778,0
74.2907,-49.3971,-3.3831,0
74.2698,-49.265,-3.38794,0
74.2466,-49.134,-3.39234,0
74.222,-49.0043,-3.39622,0
74.2085,-48.8757,-3.39896,0
74.1929,-48.7478,-3.40126,0
74.1752,-48.6205,-3.40313,0
74.1554,-48.4939,-3.40457,0
74.1403,-48.3674,-3.40523,0
74.1359,-48.24,-3.40479,0
74.1292,-48.1124,-3.40393,0
74.1203,-47.9847,-3.40265,0
74.1091,-47.8571,-3.40094,0
74.0957,-47.7293,-3.3988,0
74.0802,-47.6016,-3.39623,0
74.0621,-47.4739,-3.39323,0
74.0419,-47.3463,-3.38979,0
74.0194,-47.2187,-3.38592,0
73.9945,-47.0913,-3.38162,0
73.9674,-46.964,-3.37687,0
73.9379,-46.8369,-3.37168,0
73.9023,-46.7114,-3.36629,0
73.8642,-46.5865,-3.36046,0
73.8237,-46.462,-3.35422,0
73.7808,-46.3381,-3.34753,0
73.7356,-46.2146,-3.34042,0
73.688,-46.0918,-3.33285,0
73.6381,-45.9696,-3.32487,0
73.6033,-45.8382,-3.31515,0
73.5709,-45.7036,-3.30454,0
73.5359,-45.5687,-3.29341,0
73.4979,-45.4334,-3.28174,0
73.4571,-45.298,-3.26956,0
73.4134,-45.1624,-3.25682,0
73.3667,-45.0266,-3.24354,0
73.317,-44.8909,-3.2297,0
73.2644,-44.7551,-3.21532,0
73.2086,-44.6194,-3.20037,0
73.1498,-44.4839,-3.18485,0
73.0877,-44.3485,-3.16877,0
73.0225,-44.2135,-3.15213,0
72.9541,-44.0788,-3.13489,0
72.8823,-43.9446,-3.11706,0
72.8074,-43.8109,-3.09867,0
72.7292,-43.6778,-3.07969,0
72.6476,-43.5454,-3.06012,0
72.5714,-43.4027,-3.0386,0
72.5008,-43.248,-3.01488,0
72.4222,-43.0984,-2.99103,0
72.3388,-42.95,-2.96655,0
72.2486,-42.8062,-2.94187,0
72.1541,-42.6637,-2.91656,0
72.0552,-42.5225,-2.8906,0
71.9518,-42.3829,-2.864,0
71.844,-42.2451,-2.8368,0
71.7319,-42.1092,-2.80899,0
71.6153,-41.9755,-2.78057,0
74.1574,-52.6589,-3.08144,0
74.1725,-52.4915,-3.10144,0
74.1841,-52.3257,-3.12069,0
74.1923,-52.1617,-3.13919,0
74.1973,-51.9994,-3.15695,0
74.1991,-51.839,-3.17399,0
74.1978,-51.6804,-3.19033,0
74.1936,-51.5237,-3.20597,0
74.1865,-51.369,-3.22092,0
74.1766,-51.2163,-3.23521,0
74.1641,-51.0655,-3.24883,0
74.1489,-50.9168,-3.26182,0
74.1521,-50.7768,-3.27262,0
74.159,-50.6398,-3.28244,0
74.1631,-50.5034,-3.29176,0
74.1646,-50.3678,-3.30059,0
74.1636,-50.233,-3.30894,0
74.1599,-50.099,-3.31679,0
74.1537,-49.9659,-3.32418,0
74.1452,-49.8337,-3.33109,0
74.1341,-49.7025,-3.33754,0
74.1205,-49.5722,-3.34351,0
74.1047,-49.443,-3.34903,0
74.0866,-49.3148,-3.3541,0
74.0662,-49.1876,-3.35872,0
74.0551,-49.062,-3.3622,0
74.0436,-48.937,-3.36515,0
74.0299,-48.8126,-3.36768,0
74.0141,-48.6887,-3.36977,0
73.9962,-48.5655,-3.37145,0
73.9764,-48.443,-3.37271,0
73.9681,-48.3198,-3.37273,0
73.9626,-48.1961,-3.37206,0
73.9548,-48.0724,-3.37098,0
73.9448,-47.9486,-3.36947,0
73.9327,-47.8247,-3.36755,0
73.9183,-47.7009,-3.36522,0
73.9016,-47.5771,-3.36245,0
73.8828,-47.4534,-3.35928,0
73.8618,-47.3297,-3.35568,0
73.8385,-47.2062,-3.35164,0
73.8129,-47.0828,-3.34718,0
73.7846,-46.9598,-3.34234,0
73.7508,-46.8382,-3.33727,0
73.7146,-46.717,-3.33179,0
73.6762,-46.5963,-3.3259,0
73.6355,-46.4761,-3.31957,0
73.5925,-46.3564,-3.31282,0
73.5473,-46.2373,-3.30566,0
73.4997,-46.1188,-3.29805,0
73.45,-46.0009,-3.29004,0
73.4081,-45.8778,-3.28074,0
73.3745,-45.7484,-3.27007,0
73.338,-45.6187,-3.25888,0
73.2989,-45.4889,-3.24719,0
73.257,-45.3591,-3.23498,0
73.2123,-45.2291,-3.22226,0
73.1647,-45.0991,-3.209,0
73.1141,-44.9692,-3.19522,0
73.0608,-44.8394,-3.18091,0
73.0044,-44.7098,-3.16606,0
72.9449,-44.5805,-3.15066,0
72.8825,-44.4515,-3.13472,0
72.817,-44.3229,-3.11825,0
72.7484,-44.1947,-3.1012,0
72.6768,-44.0671,-3.08362,0
72.602,-43.9401,-3.06548,0
72.5239,-43.8139,-3.04677,0
72.4427,-43.6884,-3.02753,0
72.3584,-43.5639,-3.00771,0
72.2694,-43.4421,-2.98758,0
72.1877,-43.3066,-2.9649,0
72.1022,-43.172,-2.94162,0
72.0126,-43.0387,-2.91775,0
71.919,-42.9067,-2.8933,0
71.8213,-42.7763,-2.86825,0
71.7195,-42.6475,-2.84265,0
71.6135,-42.5207,-2.81648,0
71.5036,-42.3959,-2.78977,0
73.0474,-55.3038,-2.67779,0
73.1484,-55.1528,-2.70664,0
73.2447,-55,-2.73496,0
73.3363,-54.8455,-2.76274,0
73.4277,-54.6947,-2.78914,0
73.5155,-54.5432,-2.81487,0
73.5992,-54.3908,-2.83999,0
73.6789,-54.2374,-2.86451,0
73.7547,-54.0834,-2.88841,0
73.8265,-53.9287,-2.91169,0
73.8945,-53.7736,-2.93435,0
73.9584,-53.618,-2.9564,0
74.0187,-53.4622,-2.97782,0
74.068,-53.3008,-2.99949,0
74.0972,-53.1277,-3.02243,0
74.1223,-52.956,-3.04457,0
74.1437,-52.7857,-3.06592,0
74.1615,-52.6171,-3.0865,0
74.1757,-52.45,-3.10631,0
74.1864,-52.2847,-3.12537,0
74.1939,-52.1211,-3.14368,0
74.198,-51.9592,-3.16126,0
74.1991,-51.7993,-3.17813,0
74.197,-51.6412,-3.19429,0
74.1921,-51.485,-3.20976,0
74.1843,-51.3308,-3.22454,0
74.1738,-51.1785,-3.23866,0
74.1605,-51.0283,-3.25213,0
74.1452,-50.8802,-3.26492,0
74.1541,-50.7426,-3.27511,0
74.1602,-50.6057,-3.28481,0
74.1637,-50.4695,-3.29401,0
74.1646,-50.3341,-3.30272,0
74.1629,-50.1995,-3.31094,0
74.1586,-50.0658,-3.31868,0
74.1518,-49.9329,-3.32595,0
74.1426,-49.8009,-3.33273,0
74.1309,-49.6699,-3.33907,0
74.1168,-49.5399,-3.34493,0
74.1004,-49.4109,-3.35033,0
74.0817,-49.283,-3.3553,0
74.0623,-49.1562,-3.3597,0
74.0524,-49.0308,-3.36297,0
74.0404,-48.9059,-3.36582,0
74.0262,-48.7817,-3.36823,0
74.0099,-48.658,-3.37023,0
73.9916,-48.535,-3.3718,0
73.9711,-48.4126,-3.37296,0
73.967,-48.289,-3.37259,0
73.9609,-48.1653,-3.37183,0
73.9526,-48.0415,-3.37064,0
73.942,-47.9177,-3.36904,0
73.9292,-47.7939,-3.36701,0
73.9143,-47.67,-3.36457,0
73.8972,-47.5463,-3.3617,0
73.8778,-47.4225,-3.35841,0
73.8562,-47.2989,-3.35471,0
73.8323,-47.1754,-3.35057,0
73.8062,-47.0521,-3.34601,0
73.7764,-46.9294,-3.34111,0
73.742,-46.8079,-3.33594,0
73.7052,-46.6869,-3.33036,0
73.6663,-46.5663,-3.32436,0
73.625,-46.4462,-3.31793,0
73.5815,-46.3267,-3.31107,0
73.5356,-46.2077,-3.3038,0
73.4875,-46.0894,-3.29611,0
73.4371,-45.9717,-3.28798,0
73.4,-45.8455,-3.27813,0
73.3657,-45.7161,-3.26734,0
73.3286,-45.5864,-3.25601,0
73.2887,-45.4566,-3.2442,0
73.2462,-45.3267,-3.23186,0
73.2007,-45.1967,-3.21901,0
73.1523,-45.0668,-3.20562,0
73.1012,-44.9369,-3.19171,0
73.047,-44.8071,-3.17726,0
72.9898,-44.6776,-3.16227,0
72.9297,-44.5483,-3.14674,0
72.8665,-44.4194,-3.13067,0
72.8002,-44.2909,-3.11404,0
72.7309,-44.1629,-3.09688,0
72.6584,-44.0354,-3.07915,0
72.5828,-43.9086,-3.06088,0
72.5041,-43.7826,-3.04204,0
72.422,-43.6573,-3.02264,0
72.3356,-43.5346,-3.0029,0
72.2495,-43.4082,-2.98198,0
72.1669,-43.2729,-2.95915,0
72.0802,-43.1387,-2.93573,0
71.9896,-43.0057,-2.91171,0
71.895,-42.8741,-2.88711,0
71.7962,-42.7441,-2.86193,0
71.6934,-42.6158,-2.83618,0
71.5866,-42.4894,-2.80988,0
71.4756,-42.3652,-2.78304,0
73.073,-55.2664,-2.68503,0
73.1728,-55.1149,-2.71375,0
73.268,-54.9617,-2.74193,0
73.3591,-54.8077,-2.76943,0
73.45,-54.6571,-2.7956,0
73.5367,-54.5053,-2.82119,0
73.6195,-54.3526,-2.84616,0
73.6983,-54.1991,-2.87052,0
73.773,-54.0449,-2.89426,0
73.8438,-53.8901,-2.91739,0
73.9107,-53.7348,-2.9399,0
73.9738,-53.5792,-2.96179,0
74.033,-53.4233,-2.98307,0
74.0757,-53.2575,-3.00529,0
74.1038,-53.0848,-3.02802,0
74.128,-52.9134,-3.04996,0
74.1485,-52.7436,-3.07112,0
74.1654,-52.5753,-3.0915,0
74.1787,-52.4087,-3.11113,0
74.1886,-52.2437,-3.13,0
74.1952,-52.0806,-3.14813,0
74.1986,-51.9192,-3.16553,0
74.1989,-51.7597,-3.18222,0
74.1961,-51.6021,-3.19821,0
74.1905,-51.4464,-3.2135,0
74.1819,-51.2926,-3.22813,0
74.1707,-51.1409,-3.24208,0
74.1568,-50.9911,-3.25538,0
74.1477,-50.8458,-3.26751,0
74.1559,-50.7084,-3.27758,0
74.1614,-50.5717,-3.28715,0
74.1642,-50.4357,-3.29622,0
74.1645,-50.3005,-3.30481,0
74.1621,-50.1661,-3.31291,0
74.1572,-50.0326,-3.32053,0
74.1497,-49.8999,-3.32768,0
74.1398,-49.7682,-3.33436,0
74.1276,-49.6374,-3.34057,0
74.1129,-49.5077,-3.34632,0
74.0959,-49.3789,-3.35162,0
74.0766,-49.2513,-3.35646,0
74.0601,-49.1249,-3.36055,0
74.0497,-48.9996,-3.36373,0
74.0371,-48.8749,-3.36646,0
74.0223,-48.7508,-3.36878,0
74.0055,-48.6273,-3.37066,0
73.9866,-48.5044,-3.37213,0
73.9702,-48.3818,-3.37291,0
73.9657,-48.2582,-3.37245,0
73.959,-48.1344,-3.37157,0
73.9502,-48.0107,-3.37028,0
73.9391,-47.8868,-3.36857,0
73.9258,-47.763,-3.36644,0
73.9102,-47.6392,-3.36389,0
73.8926,-47.5154,-3.36093,0
73.8727,-47.3917,-3.35754,0
73.8505,-47.2681,-3.35371,0
73.826,-47.1447,-3.34947,0
73.7994,-47.0214,-3.3448,0
73.768,-46.8991,-3.33986,0
73.733,-46.7777,-3.33459,0
73.6958,-46.6568,-3.3289,0
73.6562,-46.5363,-3.32279,0
73.6144,-46.4164,-3.31626,0
73.5703,-46.297,-3.30931,0
73.5238,-46.1782,-3.30192,0
73.4752,-46.06,-3.29411,0
73.4242,-45.9425,-3.28589,0
73.3917,-45.8133,-3.27549,0
73.3567,-45.6838,-3.26455,0
73.3189,-45.5541,-3.25311,0
73.2784,-45.4242,-3.24117,0
73.2351,-45.2943,-3.22871,0
73.1889,-45.1643,-3.21571,0
73.1398,-45.0344,-3.2022,0
73.0879,-44.9045,-3.18815,0
73.033,-44.7748,-3.17357,0
72.9751,-44.6454,-3.15845,0
72.9142,-44.5162,-3.14279,0
72.8502,-44.3873,-3.12658,0
72.7832,-44.2589,-3.10983,0
72.7131,-44.1311,-3.09251,0
72.6399,-44.0037,-3.07465,0
72.5634,-43.8771,-3.05623,0
72.4839,-43.7513,-3.03725,0
72.4011,-43.6263,-3.01772,0
72.3123,-43.5058,-2.99812,0
72.2292,-43.3744,-2.97635,0
72.1456,-43.2394,-2.95338,0
72.058,-43.1054,-2.9298,0
71.9665,-42.9728,-2.90564,0
71.8708,-42.8415,-2.88089,0
71.771,-42.7119,-2.85556,0
71.6672,-42.5841,-2.82967,0
71.5593,-42.4583,-2.80324,0
71.4473,-42.3346,-2.77627,0
73.9225,-52.5029,-3.05835,0
73.9395,-52.3439,-3.07778,0
73.953,-52.1863,-3.09651,0
73.9634,-52.0303,-3.11452,0
73.9705,-51.8757,-3.13184,0
73.9746,-51.7228,-3.14849,0
73.9757,-51.5715,-3.16446,0
73.9739,-51.422,-3.17977,0
73.9693,-51.2741,-3.19443,0
73.962,-51.128,-3.20844,0
73.9521,-50.9837,-3.22184,0
73.947,-50.8438,-3.23401,0
73.9573,-50.7111,-3.24412,0
73.965,-50.5791,-3.25376,0
73.9701,-50.4476,-3.26292,0
73.9725,-50.3169,-3.27161,0
73.9724,-50.1868,-3.27983,0
73.97,-50.0575,-3.28758,0
73.9649,-49.9291,-3.29487,0
73.9575,-49.8014,-3.30171,0
73.9478,-49.6746,-3.30808,0
73.9357,-49.5487,-3.31402,0
73.9212,-49.4238,-3.31951,0
73.9073,-49.3,-3.32437,0
73.9007,-49.1776,-3.32815,0
73.892,-49.0558,-3.33151,0
73.8812,-48.9344,-3.33445,0
73.8684,-48.8136,-3.33696,0
73.8534,-48.6934,-3.33907,0
73.8364,-48.5737,-3.34077,0
73.8173,-48.4546,-3.34206,0
73.8075,-48.3352,-3.34219,0
73.8019,-48.2151,-3.3415,0
73.7941,-48.095,-3.34041,0
73.7841,-47.9749,-3.3389,0
73.772,-47.8547,-3.337,0
73.7579,-47.7346,-3.33467,0
73.7414,-47.6145,-3.33195,0
73.7229,-47.4944,-3.32881,0
73.7022,-47.3745,-3.32525,0
73.6792,-47.2547,-3.32128,0
73.6541,-47.1351,-3.31689,0
73.6238,-47.0167,-3.31231,0
73.5907,-46.8988,-3.30735,0
73.5555,-46.7814,-3.30199,0
73.5179,-46.6645,-3.29622,0
73.4781,-46.548,-3.29004,0
73.4362,-46.4321,-3.28344,0
73.392,-46.3168,-3.27643,0
73.3457,-46.202,-3.26901,0
73.297,-46.0879,-3.26117,0
73.2462,-45.9745,-3.25293,0
73.2069,-45.8535,-3.24299,0
73.1707,-45.7289,-3.23202,0
73.1319,-45.6043,-3.22056,0
73.0904,-45.4796,-3.2086,0
73.0462,-45.3549,-3.19616,0
72.9991,-45.2303,-3.18319,0
72.9493,-45.1058,-3.16974,0
72.8967,-44.9815,-3.15576,0
72.8412,-44.8574,-3.14128,0
72.783,-44.7337,-3.12628,0
72.7217,-44.6104,-3.11075,0
72.6575,-44.4875,-3.09471,0
72.5904,-44.3651,-3.07813,0
72.5202,-44.2433,-3.06105,0
72.4472,-44.1223,-3.04342,0
72.371,-44.002,-3.02528,0
72.2872,-43.8882,-3.0074,0
72.199,-43.7776,-2.98934,0
72.1087,-43.6674,-2.97064,0
72.0187,-43.5545,-2.95089,0
71.9278,-43.4395,-2.93016,0
71.8409,-43.3148,-2.90732,0
71.7502,-43.1916,-2.88394,0
71.6558,-43.0699,-2.86003,0
71.5575,-42.95,-2.83559,0
71.4555,-42.8319,-2.81065,0
71.3497,-42.7159,-2.78521,0
72.8429,-55.0177,-2.66762,0
72.944,-54.8794,-2.69464,0
73.0412,-54.7396,-2.7211,0
73.1345,-54.5983,-2.747,0
73.2239,-54.4557,-2.77237,0
73.3096,-54.312,-2.79716,0
73.3913,-54.1673,-2.8214,0
73.4693,-54.0217,-2.84506,0
73.5434,-53.8752,-2.86814,0
73.6139,-53.7281,-2.89064,0
73.6806,-53.5804,-2.91257,0
73.7436,-53.4322,-2.9339,0
73.7931,-53.2758,-2.95601,0
73.8273,-53.111,-2.97895,0
73.8577,-52.9472,-3.00113,0
73.8844,-52.7846,-3.02257,0
73.9075,-52.6232,-3.04329,0
73.927,-52.4632,-3.06326,0
73.9431,-52.3045,-3.08252,0
73.9559,-52.1473,-3.10106,0
73.9655,-51.9916,-3.1189,0
73.9718,-51.8375,-3.13606,0
73.9752,-51.685,-3.15253,0
73.9755,-51.5341,-3.16833,0
73.973,-51.385,-3.18348,0
73.9677,-51.2376,-3.19798,0
73.9598,-51.0919,-3.21184,0
73.9491,-50.9481,-3.22508,0
73.9498,-50.8107,-3.23656,0
73.9594,-50.6782,-3.24657,0
73.9664,-50.5463,-3.25608,0
73.9709,-50.415,-3.26513,0
73.9727,-50.2844,-3.2737,0
73.9721,-50.1546,-3.2818,0
73.9689,-50.0255,-3.28944,0
73.9634,-49.8972,-3.29661,0
73.9553,-49.7697,-3.30334,0
73.9449,-49.6432,-3.3096,0
73.9323,-49.5175,-3.31542,0
73.9173,-49.3928,-3.3208,0
73.9058,-49.2695,-3.32534,0
73.8988,-49.1472,-3.32903,0
73.8895,-49.0255,-3.33228,0
73.8782,-48.9042,-3.33512,0
73.8648,-48.7836,-3.33754,0
73.8494,-48.6635,-3.33953,0
73.8319,-48.544,-3.34113,0
73.8123,-48.4251,-3.34232,0
73.8063,-48.3053,-3.34206,0
73.8001,-48.1852,-3.34127,0
73.7918,-48.0651,-3.34007,0
73.7813,-47.9449,-3.33847,0
73.7687,-47.8248,-3.33645,0
73.754,-47.7046,-3.33403,0
73.7371,-47.5845,-3.3312,0
73.7179,-47.4645,-3.32796,0
73.6966,-47.3446,-3.32429,0
73.6732,-47.2249,-3.32022,0
73.6473,-47.1054,-3.31575,0
73.6159,-46.9873,-3.3111,0
73.5821,-46.8695,-3.30605,0
73.5463,-46.7522,-3.30059,0
73.5083,-46.6354,-3.29471,0
73.4679,-46.5191,-3.28842,0
73.4255,-46.4033,-3.28173,0
73.3807,-46.2881,-3.27462,0
73.3337,-46.1736,-3.2671,0
73.2846,-46.0596,-3.25916,0
73.2332,-45.9464,-3.25082,0
73.1981,-45.8224,-3.24029,0
73.1612,-45.6979,-3.22921,0
73.1218,-45.5732,-3.21762,0
73.0796,-45.4485,-3.20554,0
73.0347,-45.3238,-3.19297,0
72.987,-45.1993,-3.17989,0
72.9364,-45.0748,-3.16631,0
72.8831,-44.9506,-3.1522,0
72.827,-44.8266,-3.13758,0
72.7679,-44.7029,-3.12246,0
72.7059,-44.5797,-3.1068,0
72.641,-44.4569,-3.09062,0
72.5732,-44.3347,-3.07393,0
72.5023,-44.2131,-3.0567,0
72.4285,-44.0922,-3.03896,0
72.3515,-43.9722,-3.02069,0
72.2655,-43.8605,-3.00295,0
72.1766,-43.7504,-2.98477,0
72.0866,-43.6391,-2.96576,0
71.9956,-43.5266,-2.9459,0
71.9065,-43.4083,-2.92451,0
71.8187,-43.284,-2.90154,0
71.727,-43.1611,-2.87802,0
71.6316,-43.0399,-2.85399,0
71.5325,-42.9203,-2.82943,0
71.4295,-42.8028,-2.80436,0
71.3227,-42.6874,-2.77881,0
72.8684,-54.9834,-2.67441,0
72.9686,-54.8447,-2.70127,0
73.0648,-54.7045,-2.7276,0
73.1571,-54.5629,-2.75338,0
73.2456,-54.42,-2.7786,0
73.3302,-54.2761,-2.80325,0
73.4112,-54.1311,-2.82735,0
73.4881,-53.9853,-2.85086,0
73.5613,-53.8386,-2.8738,0
73.6309,-53.6913,-2.89616,0
73.6966,-53.5435,-2.91794,0
73.7588,-53.3953,-2.93913,0
73.8019,-53.2347,-2.96179,0
73.8352,-53.0701,-2.98455,0
73.8647,-52.9066,-3.00654,0
73.8905,-52.7443,-3.0278,0
73.9127,-52.5832,-3.04833,0
73.9314,-52.4235,-3.06812,0
73.9466,-52.2652,-3.0872,0
73.9586,-52.1084,-3.10557,0
73.9673,-51.953,-3.12324,0
73.9729,-51.7993,-3.14022,0
73.9755,-51.6472,-3.15653,0
73.9752,-51.4968,-3.17217,0
73.972,-51.3481,-3.18715,0
73.9659,-51.2011,-3.20149,0
73.9573,-51.0559,-3.2152,0
73.9462,-50.9125,-3.22828,0
73.9524,-50.7776,-3.2391,0
73.9615,-50.6452,-3.24899,0
73.9678,-50.5135,-3.25839,0
73.9716,-50.3824,-3.26731,0
73.9728,-50.252,-3.27576,0
73.9716,-50.1223,-3.28375,0
73.9678,-49.9934,-3.29127,0
73.9616,-49.8653,-3.29833,0
73.953,-49.7381,-3.30494,0
73.942,-49.6118,-3.31109,0
73.9287,-49.4863,-3.31681,0
73.9132,-49.3619,-3.32208,0
73.9042,-49.2389,-3.32631,0
73.8966,-49.1168,-3.32988,0
73.8869,-48.9952,-3.33302,0
73.8751,-48.8741,-3.33576,0
73.8611,-48.7536,-3.33807,0
73.8452,-48.6336,-3.33997,0
73.8272,-48.5143,-3.34146,0
73.8095,-48.3954,-3.34238,0
73.8049,-48.2753,-3.3419,0
73.7982,-48.1553,-3.34101,0
73.7894,-48.0351,-3.33971,0
73.7784,-47.915,-3.338,0
73.7652,-47.7948,-3.33589,0
73.75,-47.6747,-3.33336,0
73.7325,-47.5546,-3.33043,0
73.7129,-47.4346,-3.32708,0
73.691,-47.3148,-3.32332,0
73.667,-47.1951,-3.31915,0
73.6396,-47.0759,-3.31463,0
73.6076,-46.9579,-3.30988,0
73.5734,-46.8403,-3.30473,0
73.537,-46.7231,-3.29916,0
73.4984,-46.6064,-3.29319,0
73.4576,-46.4902,-3.2868,0
73.4145,-46.3746,-3.28,0
73.3692,-46.2595,-3.27278,0
73.3217,-46.1451,-3.26516,0
73.272,-46.0313,-3.25712,0
73.2241,-45.9159,-3.24831,0
73.1891,-45.7914,-3.23758,0
73.1517,-45.6668,-3.22636,0
73.1115,-45.5421,-3.21466,0
73.0687,-45.4174,-3.20246,0
73.023,-45.2928,-3.18977,0
72.9747,-45.1682,-3.17655,0
72.9234,-45.0438,-3.16284,0
72.8694,-44.9197,-3.1486,0
72.8126,-44.7958,-3.13386,0
72.7527,-44.6722,-3.1186,0
72.6901,-44.5491,-3.10282,0
72.6245,-44.4264,-3.08652,0
72.5559,-44.3044,-3.06968,0
72.4842,-44.1829,-3.05233,0
72.4095,-44.0622,-3.03445,0
72.3303,-43.9443,-3.01631,0
72.2436,-43.8329,-2.99845,0
72.1539,-43.7232,-2.98016,0
72.0642,-43.6109,-2.96087,0
71.9725,-43.4988,-2.94088,0
71.8849,-43.3772,-2.91884,0
71.7962,-43.2532,-2.89573,0
71.7036,-43.1308,-2.87208,0
71.6073,-43.0099,-2.84791,0
71.5072,-42.8909,-2.82323,0
71.4033,-42.7738,-2.79804,0
71.2956,-42.6589,-2.77237,0
73.7054,-52.3588,-3.03701,0
73.7239,-52.2074,-3.0559,0
73.7392,-52.0573,-3.07412,0
73.7513,-51.9085,-3.09168,0
73.7603,-51.7611,-3.10858,0
73.7663,-51.615,-3.12483,0
73.7695,-51.4705,-3.14043,0
73.7697,-51.3274,-3.15542,0
73.7673,-51.1859,-3.16979,0
73.7623,-51.0459,-3.18354,0
73.7545,-50.9075,-3.1967,0
73.7637,-50.7775,-3.20749,0
73.7748,-50.6496,-3.21742,0
73.7831,-50.5222,-3.22689,0
73.789,-50.3954,-3.23589,0
73.7923,-50.2691,-3.24443,0
73.7933,-50.1435,-3.25252,0
73.7916,-50.0186,-3.26016,0
73.7877,-49.8945,-3.26736,0
73.7814,-49.771,-3.2741,0
73.7728,-49.6484,-3.28042,0
73.762,-49.5266,-3.2863,0
73.7556,-49.4064,-3.29122,0
73.7517,-49.2871,-3.29539,0
73.7458,-49.1682,-3.29913,0
73.7377,-49.0499,-3.30247,0
73.7276,-48.9319,-3.3054,0
73.7154,-48.8146,-3.30791,0
73.7012,-48.6977,-3.31003,0
73.685,-48.5814,-3.31173,0
73.6668,-48.4657,-3.31303,0
73.6554,-48.3497,-3.31329,0
73.6498,-48.2331,-3.31258,0
73.642,-48.1164,-3.31149,0
73.6321,-47.9997,-3.30998,0
73.6202,-47.883,-3.30809,0
73.6062,-47.7664,-3.30579,0
73.59,-47.6498,-3.30309,0
73.5716,-47.5332,-3.29999,0
73.5513,-47.4168,-3.29648,0
73.5287,-47.3006,-3.29257,0
73.5022,-47.1851,-3.2884,0
73.472,-47.0704,-3.28395,0
73.4397,-46.9561,-3.2791,0
73.4052,-46.8422,-3.27386,0
73.3685,-46.7288,-3.2682,0
73.3297,-46.6159,-3.26216,0
73.2887,-46.5036,-3.2557,0
73.2455,-46.3918,-3.24886,0
73.2003,-46.2806,-3.2416,0
73.1528,-46.17,-3.23395,0
73.1032,-46.0601,-3.2259,0
73.0515,-45.951,-3.21744,0
73.014,-45.8321,-3.20685,0
72.9754,-45.7123,-3.19562,0
72.9343,-45.5924,-3.18391,0
72.8907,-45.4726,-3.17173,0
72.8443,-45.3529,-3.15906,0
72.7952,-45.2334,-3.14591,0
72.7434,-45.1142,-3.13226,0
72.6889,-44.9953,-3.11813,0
72.6317,-44.8767,-3.1035,0
72.5716,-44.7586,-3.08839,0
72.5088,-44.641,-3.07276,0
72.443,-44.5239,-3.05664,0
72.3745,-44.4075,-3.04001,0
72.2993,-44.2962,-3.02353,0
72.2195,-44.1879,-3.0069,0
72.1369,-44.0811,-2.98986,0
72.0512,-43.9758,-2.97241,0
71.9629,-43.8722,-2.95455,0
71.8752,-43.7653,-2.93552,0
71.7848,-43.6596,-2.91604,0
71.6914,-43.5556,-2.8961,0
71.5965,-43.4511,-2.87541,0
71.5051,-43.3372,-2.85253,0
71.4102,-43.2251,-2.82918,0
71.3118,-43.1148,-2.80536,0
71.2099,-43.0065,-2.78109,0
72.665,-54.7684,-2.65595,0
72.7632,-54.6372,-2.68195,0
72.8577,-54.5045,-2.70744,0
72.9485,-54.3704,-2.7324,0
73.0355,-54.2349,-2.75687,0
73.1191,-54.0983,-2.78079,0
73.199,-53.9606,-2.8042,0
73.2752,-53.8219,-2.82705,0
73.3478,-53.6824,-2.84937,0
73.4169,-53.5422,-2.87114,0
73.4823,-53.4013,-2.89236,0
73.5316,-53.2494,-2.91495,0
73.5705,-53.0924,-2.93784,0
73.6055,-52.9362,-2.96003,0
73.6371,-52.7809,-2.98151,0
73.6649,-52.6265,-3.0023,0
73.6894,-52.4732,-3.02238,0
73.7103,-52.321,-3.04178,0
73.728,-52.1699,-3.0605,0
73.7424,-52.0201,-3.07855,0
73.7538,-51.8717,-3.09595,0
73.762,-51.7246,-3.11268,0
73.7673,-51.5789,-3.12877,0
73.7698,-51.4347,-3.14423,0
73.7695,-51.292,-3.15905,0
73.7663,-51.1508,-3.17327,0
73.7606,-51.0113,-3.18688,0
73.7539,-50.8739,-3.19973,0
73.7668,-50.7456,-3.21002,0
73.7771,-50.6178,-3.21982,0
73.7848,-50.4906,-3.22917,0
