59.8491,-47.4886,-1.32753,0
59.779,-47.3772,-1.32162,0
59.7063,-47.2676,-1.31543,0
59.6312,-47.1598,-1.30895,0
59.5537,-47.0541,-1.3022,0
59.4737,-46.9503,-1.29517,0
59.3915,-46.8485,-1.28787,0
59.307,-46.7489,-1.28032,0
59.2254,-46.6475,-1.27178,0
59.1497,-46.5414,-1.26178,0
59.0715,-46.437,-1.25148,0
58.9909,-46.3343,-1.24088,0
58.9077,-46.2335,-1.22999,0
58.8222,-46.1346,-1.21882,0
58.7343,-46.0376,-1.20737,0
58.6441,-45.9427,-1.19564,0
58.5527,-45.8487,-1.18347,0
58.4588,-45.7569,-1.17104,0
58.3628,-45.6673,-1.15835,0
56.9337,-56.5259,-0.716969,0
57.0773,-56.5041,-0.728176,0
57.2209,-56.4787,-0.739504,0
57.3646,-56.4496,-0.750964,0
57.508,-56.4168,-0.762526,0
57.6405,-56.3614,-0.777961,0
57.77,-56.2994,-0.794035,0
57.898,-56.2342,-0.810065,0
58.0245,-56.1658,-0.826047,0
58.1493,-56.0942,-0.841955,0
58.2724,-56.0194,-0.8578,0
58.3938,-55.9416,-0.873547,0
58.5133,-55.8608,-0.889201,0
58.6265,-55.7717,-0.905798,0
58.7338,-55.6754,-0.923112,0
58.8383,-55.5763,-0.940304,0
58.9399,-55.4744,-0.957345,0
59.0386,-55.3699,-0.97424,0
59.1343,-55.2628,-0.990964,0
59.2269,-55.1533,-1.0075,0
59.3164,-55.0415,-1.02383,0
59.4027,-54.9274,-1.03997,0
59.4858,-54.8112,-1.05589,0
59.5656,-54.693,-1.07156,0
59.6421,-54.573,-1.08701,0
59.7152,-54.4511,-1.10219,0
59.785,-54.3275,-1.11711,0
59.8512,-54.2024,-1.13176,0
59.9141,-54.0758,-1.14612,0
59.9735,-53.9479,-1.1602,0
60.0299,-53.819,-1.1739,0
60.0832,-53.6892,-1.18726,0
60.1329,-53.5584,-1.20031,0
60.1791,-53.4265,-1.21304,0
60.2235,-53.2948,-1.22523,0
60.2667,-53.1633,-1.23682,0
60.0153,-52.9047,-1.28285,174
59.953,-52.7386,-1.30456,174
60.0056,-52.6221,-1.31199,174
60.4321,-52.6401,-1.27688,0
60.4675,-52.5082,-1.28583,0
60.4998,-52.3758,-1.29443,0
60.5292,-52.2428,-1.30267,0
60.5555,-52.1094,-1.31055,0
60.5788,-51.9757,-1.31807,0
60.5991,-51.8417,-1.32523,0
60.6163,-51.7075,-1.33203,0
60.6305,-51.5731,-1.33845,0
60.6418,-51.4387,-1.34451,0
60.65,-51.3043,-1.35021,0
60.6552,-51.17,-1.35552,0
60.6574,-51.0358,-1.36048,0
60.6568,-50.9018,-1.36506,0
56.8043,-56.3223,-0.708908,0
56.9371,-56.2893,-0.722248,0
57.0696,-56.2532,-0.735563,0
57.2053,-56.2217,-0.747297,0
57.3425,-56.1902,-0.758376,0
57.4795,-56.1551,-0.769553,0
57.6086,-56.1036,-0.783493,0
57.7323,-56.0416,-0.798942,0
57.8545,-55.9765,-0.814343,0
57.9751,-55.9084,-0.829689,0
58.0941,-55.8372,-0.844963,0
58.2066,-55.7563,-0.861564,0
58.3155,-55.6709,-0.8784,0
58.422,-55.5825,-0.895163,0
58.5259,-55.4914,-0.911818,0
58.6272,-55.3975,-0.928346,0
58.7259,-55.3009,-0.944758,0
58.8218,-55.2018,-0.961017,0
58.9148,-55.1002,-0.977126,0
59.005,-54.9963,-0.993068,0
59.0923,-54.8901,-1.00883,0
59.1765,-54.7817,-1.0244,0
59.2577,-54.6713,-1.03976,0
59.3357,-54.5589,-1.05491,0
59.4107,-54.4446,-1.06983,0
59.4824,-54.3286,-1.08452,0
59.551,-54.2109,-1.09896,0
59.6163,-54.0917,-1.11315,0
59.6784,-53.971,-1.12707,0
59.7372,-53.849,-1.14072,0
59.7926,-53.7258,-1.15409,0
59.8448,-53.6014,-1.16716,0
59.8936,-53.4761,-1.17995,0
59.9367,-53.3486,-1.19273,0
59.9957,-53.2298,-1.20265,0
60.0462,-53.1071,-1.21302,0
60.0932,-52.9831,-1.22314,0
59.9388,-52.7756,-1.25783,174
59.9946,-52.6605,-1.26502,174
60.1303,-52.5744,-1.26198,174
60.2526,-52.4792,-1.26033,0
60.2852,-52.3516,-1.26878,0
60.3148,-52.2234,-1.2769,0
60.3415,-52.0948,-1.28467,0
60.3653,-51.9658,-1.29209,0
60.3862,-51.8366,-1.29916,0
60.4042,-51.707,-1.30589,0
60.4193,-51.5773,-1.31226,0
60.4314,-51.4475,-1.31827,0
60.4407,-51.3177,-1.32393,0
60.4471,-51.1879,-1.32923,0
60.4506,-51.0582,-1.33418,0
60.4513,-50.9287,-1.33877,0
60.4527,-50.7997,-1.34264,0
60.4531,-50.6708,-1.34596,0
60.4509,-50.5421,-1.34893,0
60.4463,-50.4136,-1.35148,0
60.4421,-50.2852,-1.35338,0
60.4352,-50.1571,-1.35491,0
60.4255,-50.0291,-1.35609,0
60.4132,-49.9014,-1.3569,0
60.3981,-49.7741,-1.35737,0
60.3803,-49.6471,-1.35747,0
60.3598,-49.5207,-1.35721,0
60.3367,-49.3947,-1.3566,0
60.3109,-49.2693,-1.35563,0
60.2824,-49.1446,-1.35431,0
60.2514,-49.0205,-1.35264,0
60.2177,-48.8972,-1.35061,0
60.1813,-48.7746,-1.34822,0
60.1425,-48.653,-1.3455,0
60.101,-48.5322,-1.34242,0
60.0571,-48.4124,-1.33899,0
60.0142,-48.2922,-1.33483,0
59.9641,-48.1749,-1.33085,0
59.9102,-48.0594,-1.32668,0
59.8535,-47.9452,-1.32221,0
59.7941,-47.8325,-1.31745,0
59.7323,-47.7214,-1.3124,0
59.6679,-47.6119,-1.30706,0
59.6009,-47.504,-1.30144,0
59.5316,-47.3979,-1.29553,0
59.4597,-47.2936,-1.28936,0
59.3855,-47.1911,-1.28292,0
59.3091,-47.0905,-1.27621,0
59.2304,-46.9919,-1.26925,0
59.1495,-46.8953,-1.26203,0
59.0716,-46.7967,-1.25378,0
58.9988,-46.6942,-1.24415,0
58.9237,-46.5934,-1.23423,0
58.846,-46.4942,-1.22402,0
58.766,-46.3968,-1.21355,0
58.6838,-46.3012,-1.20279,0
58.5991,-46.2074,-1.19177,0
58.5123,-46.1157,-1.18049,0
58.4234,-46.0259,-1.16895,0
58.3323,-45.9381,-1.15715,0
58.2399,-45.8515,-1.14494,0
56.8265,-56.3171,-0.71113,0
56.9592,-56.2835,-0.72446,0
57.0915,-56.2469,-0.737785,0
57.2281,-56.2167,-0.749137,0
57.3654,-56.1846,-0.760231,0
57.5022,-56.1489,-0.771428,0
57.6292,-56.0935,-0.786066,0
57.7527,-56.031,-0.801501,0
57.8746,-55.9654,-0.816896,0
57.995,-55.8967,-0.832233,0
58.1138,-55.8251,-0.847492,0
58.2248,-55.7423,-0.864367,0
58.3334,-55.6564,-0.881198,0
58.4394,-55.5676,-0.897941,0
58.5429,-55.4759,-0.914577,0
58.6437,-55.3816,-0.931091,0
58.742,-55.2846,-0.947472,0
58.8374,-55.1851,-0.963713,0
58.93,-55.0831,-0.979797,0
59.0197,-54.9788,-0.9957,0
59.1064,-54.8722,-1.01144,0
59.1902,-54.7635,-1.02696,0
59.2709,-54.6527,-1.0423,0
59.3484,-54.54,-1.0574,0
59.4228,-54.4254,-1.07229,0
59.4941,-54.3091,-1.08694,0
59.5621,-54.1912,-1.10134,0
59.6269,-54.0717,-1.11549,0
59.6884,-53.9508,-1.12936,0
59.7466,-53.8286,-1.14296,0
59.8016,-53.7052,-1.15629,0
59.8531,-53.5807,-1.16931,0
59.9014,-53.4551,-1.18204,0
59.9468,-53.3289,-1.19441,0
60.0047,-53.2097,-1.20434,0
60.0541,-53.0865,-1.21473,0
60.1007,-52.9624,-1.22479,0
59.9421,-52.754,-1.25983,174
59.9964,-52.6384,-1.26708,174
60.2232,-52.5852,-1.25301,0
60.2581,-52.458,-1.26175,0
60.2903,-52.3303,-1.27015,0
60.3195,-52.2021,-1.27821,0
60.3457,-52.0734,-1.28592,0
60.369,-51.9444,-1.29329,0
60.3895,-51.815,-1.30031,0
60.407,-51.6854,-1.30697,0
60.4215,-51.5557,-1.31328,0
60.4331,-51.4259,-1.31924,0
60.442,-51.2961,-1.32483,0
60.4479,-51.1663,-1.33008,0
60.4509,-51.0367,-1.33497,0
60.4512,-50.9072,-1.33949,0
60.453,-50.7782,-1.34321,0
60.453,-50.6494,-1.34648,0
60.4502,-50.5207,-1.34939,0
60.4459,-50.3923,-1.35182,0
60.4412,-50.2639,-1.35366,0
60.4338,-50.1358,-1.35513,0
60.4237,-50.0078,-1.35625,0
60.4109,-49.8802,-1.35701,0
60.3953,-49.7529,-1.35741,0
60.377,-49.6261,-1.35745,0
60.3562,-49.4997,-1.35714,0
60.3326,-49.3738,-1.35647,0
60.3063,-49.2485,-1.35544,0
60.2775,-49.1239,-1.35406,0
60.2459,-48.9999,-1.35233,0
60.2118,-48.8767,-1.35023,0
60.1751,-48.7543,-1.34779,0
60.1358,-48.6328,-1.34501,0
60.094,-48.5122,-1.34187,0
60.0509,-48.3921,-1.33825,0
60.0065,-48.2725,-1.33414,0
59.9553,-48.1556,-1.33017,0
59.9009,-48.0403,-1.32595,0
59.8438,-47.9264,-1.32144,0
59.7841,-47.8139,-1.31663,0
59.7218,-47.7031,-1.31153,0
59.657,-47.5938,-1.30614,0
59.5895,-47.4863,-1.30047,0
59.5198,-47.3804,-1.29453,0
59.4476,-47.2764,-1.28831,0
59.373,-47.1742,-1.28182,0
59.2961,-47.074,-1.27507,0
59.2171,-46.9757,-1.26806,0
59.1358,-46.8794,-1.2608,0
59.0598,-46.7796,-1.25219,0
58.9866,-46.6773,-1.24252,0
58.9109,-46.5767,-1.23256,0
58.8329,-46.4779,-1.2223,0
58.7525,-46.3807,-1.21178,0
58.6698,-46.2855,-1.20098,0
58.5849,-46.1921,-1.18991,0
58.4977,-46.1006,-1.17859,0
58.4084,-46.0111,-1.16701,0
58.3171,-45.9236,-1.15513,0
58.2245,-45.8373,-1.14289,0
56.8486,-56.3117,-0.713342,0
56.9812,-56.2776,-0.726681,0
57.1136,-56.2407,-0.739963,0
57.251,-56.2116,-0.750973,0
57.3881,-56.1789,-0.762082,0
57.525,-56.1426,-0.773298,0
57.6499,-56.0833,-0.788639,0
57.773,-56.0203,-0.804074,0
57.8947,-55.9542,-0.81945,0
58.0149,-55.885,-0.834777,0
58.1325,-55.8117,-0.85027,0
58.243,-55.7282,-0.867175,0
58.3512,-55.6418,-0.883991,0
58.4568,-55.5525,-0.90071,0
58.5598,-55.4604,-0.917331,0
58.6604,-55.3656,-0.933825,0
58.758,-55.2682,-0.950187,0
58.853,-55.1683,-0.966398,0
58.9452,-55.0659,-0.982453,0
59.0343,-54.9612,-0.998332,0
59.1205,-54.8543,-1.01403,0
59.2038,-54.7452,-1.02953,0
59.284,-54.6341,-1.04482,0
59.361,-54.5211,-1.05989,0
59.4349,-54.4062,-1.07474,0
59.5056,-54.2896,-1.08935,0
59.5731,-54.1714,-1.10371,0
59.6373,-54.0517,-1.11781,0
59.6983,-53.9306,-1.13164,0
59.7559,-53.8082,-1.1452,0
59.8103,-53.6846,-1.15847,0
59.8613,-53.5599,-1.17144,0
59.9086,-53.4339,-1.18419,0
59.9567,-53.3092,-1.19606,0
60.0131,-53.1893,-1.2061,0
60.062,-53.0659,-1.21643,0
59.962,-52.8784,-1.24503,174
59.9494,-52.7341,-1.26128,174
59.9981,-52.6164,-1.26912,174
60.2292,-52.5641,-1.25449,0
60.2637,-52.4368,-1.26318,0
60.2953,-52.309,-1.27152,0
60.324,-52.1807,-1.27951,0
60.3498,-52.052,-1.28717,0
60.3726,-51.9229,-1.29448,0
60.3925,-51.7935,-1.30144,0
60.4095,-51.6639,-1.30804,0
60.4237,-51.5342,-1.31429,0
60.4348,-51.4043,-1.32019,0
60.4432,-51.2745,-1.32573,0
60.4486,-51.1448,-1.33092,0
60.4512,-51.0151,-1.33574,0
60.4509,-50.8857,-1.34021,0
56.7305,-56.1318,-0.703478,0
56.8587,-56.0993,-0.716364,0
56.9866,-56.0638,-0.729235,0
57.1141,-56.0255,-0.742096,0
57.241,-55.9842,-0.754928,0
57.3674,-55.94,-0.767741,0
57.4953,-55.8967,-0.779694,0
57.6173,-55.8416,-0.793537,0
57.7318,-55.7735,-0.809479,0
57.843,-55.7004,-0.825842,0
57.9522,-55.6243,-0.84215,0
58.0592,-55.5452,-0.85841,0
58.164,-55.4634,-0.874582,0
58.2664,-55.3787,-0.890685,0
58.3664,-55.2914,-0.906686,0
58.464,-55.2014,-0.922575,0
58.559,-55.1089,-0.938346,0
58.6513,-55.014,-0.953981,0
58.7409,-54.9167,-0.969465,0
58.8279,-54.8172,-0.984797,0
58.912,-54.7154,-0.999953,0
58.9933,-54.6116,-1.01493,0
59.0717,-54.5058,-1.02971,0
59.1472,-54.3982,-1.04429,0
59.2197,-54.2887,-1.05867,0
59.2891,-54.1775,-1.07281,0
59.3555,-54.0647,-1.08673,0
59.4187,-53.9505,-1.1004,0
59.4773,-53.8337,-1.1141,0
59.5316,-53.7151,-1.12768,0
59.5827,-53.5953,-1.14102,0
59.6302,-53.4745,-1.15408,0
59.6745,-53.3527,-1.16689,0
59.7342,-53.2398,-1.17666,0
59.7911,-53.1255,-1.18622,0
59.8449,-53.0098,-1.19552,0
59.8959,-52.8928,-1.20458,0
59.9363,-52.7715,-1.21437,174
59.9886,-52.6552,-1.22195,0
60.0272,-52.5336,-1.23065,0
60.0618,-52.4109,-1.23918,0
60.0937,-52.2876,-1.24739,0
60.1226,-52.1638,-1.25527,0
60.1488,-52.0395,-1.26282,0
60.1721,-51.9149,-1.27003,0
60.1927,-51.7899,-1.27691,0
60.2104,-51.6647,-1.28345,0
60.2253,-51.5394,-1.28966,0
60.2373,-51.4139,-1.29551,0
60.2467,-51.2884,-1.30103,0
60.2533,-51.1629,-1.30619,0
60.257,-51.0374,-1.31102,0
60.258,-50.9122,-1.3155,0
60.2602,-50.7874,-1.31921,0
60.2608,-50.6627,-1.32245,0
60.261,-50.5382,-1.3251,0
60.2597,-50.4138,-1.32728,0
60.2557,-50.2895,-1.32912,0
60.2491,-50.1653,-1.33062,0
60.2398,-50.0414,-1.33177,0
60.2279,-49.9177,-1.33257,0
60.2134,-49.7943,-1.33303,0
60.1962,-49.6714,-1.33314,0
60.1764,-49.5488,-1.3329,0
60.1541,-49.4268,-1.33232,0
60.1291,-49.3054,-1.33138,0
60.1016,-49.1845,-1.33012,0
60.0716,-49.0643,-1.3285,0
60.0391,-48.9448,-1.32654,0
60.0039,-48.8261,-1.32425,0
59.9645,-48.7088,-1.32182,0
59.9224,-48.5925,-1.31909,0
59.8745,-48.4784,-1.3164,0
59.8223,-48.3662,-1.31363,0
59.773,-48.2533,-1.30992,0
59.7212,-48.1417,-1.30591,0
59.6666,-48.0315,-1.30163,0
59.6096,-47.9226,-1.29704,0
59.55,-47.8153,-1.29219,0
59.488,-47.7095,-1.28705,0
59.4236,-47.6053,-1.28166,0
59.3568,-47.5027,-1.27598,0
59.2877,-47.4019,-1.27004,0
59.2162,-47.3028,-1.26384,0
59.1427,-47.2056,-1.25739,0
59.0669,-47.1102,-1.25069,0
58.989,-47.0168,-1.24374,0
58.9163,-46.9197,-1.2354,0
58.8459,-46.8208,-1.22608,0
58.773,-46.7235,-1.21648,0
58.6978,-46.6278,-1.2066,0
58.6204,-46.5339,-1.19646,0
58.5408,-46.4417,-1.18606,0
58.459,-46.3513,-1.17539,0
58.3751,-46.2628,-1.16449,0
58.2891,-46.1762,-1.15333,0
58.2009,-46.0916,-1.14193,0
58.1108,-46.009,-1.13029,0
56.7519,-56.1266,-0.705622,0
56.88,-56.0936,-0.718503,0
57.0079,-56.0576,-0.731379,0
57.1352,-56.0188,-0.74423,0
57.2621,-55.9771,-0.757062,0
57.3884,-55.9324,-0.76987,0
57.517,-55.89,-0.781511,0
57.637,-55.8313,-0.796012,0
57.7504,-55.7616,-0.812204,0
57.8613,-55.6879,-0.828552,0
57.9702,-55.6113,-0.84486,0
58.0768,-55.5318,-0.8611,0
58.1812,-55.4495,-0.877272,0
58.2832,-55.3644,-0.893351,0
58.3828,-55.2766,-0.909333,0
58.4799,-55.1862,-0.925207,0
58.5745,-55.0933,-0.940954,0
58.6664,-54.998,-0.956564,0
58.7556,-54.9003,-0.972028,0
58.842,-54.8004,-0.987331,0
58.9258,-54.6983,-1.00246,0
59.0066,-54.5942,-1.0174,0
59.0845,-54.4881,-1.03215,0
59.1594,-54.3801,-1.0467,0
59.2314,-54.2703,-1.06104,0
59.3003,-54.1589,-1.07514,0
59.3662,-54.0458,-1.08902,0
59.4291,-53.9313,-1.10264,0
59.4866,-53.814,-1.11637,0
59.5404,-53.6952,-1.12992,0
59.5909,-53.5753,-1.14321,0
59.6379,-53.4543,-1.15624,0
59.6846,-53.334,-1.16853,0
59.7439,-53.2209,-1.17827,0
59.8002,-53.1064,-1.18778,0
59.8536,-52.9904,-1.19704,0
59.9041,-52.8732,-1.20607,0
59.9401,-52.7502,-1.21632,174
59.9959,-52.6353,-1.22334,0
60.0332,-52.5133,-1.23209,0
60.0673,-52.3904,-1.24057,0
60.0987,-52.2671,-1.24872,0
60.1272,-52.1431,-1.25656,0
60.1528,-52.0188,-1.26405,0
60.1758,-51.8941,-1.2712,0
60.1958,-51.7691,-1.27802,0
60.213,-51.6439,-1.28451,0
60.2275,-51.5185,-1.29065,0
60.2391,-51.393,-1.29646,0
60.248,-51.2675,-1.30191,0
60.254,-51.142,-1.30702,0
60.2573,-51.0166,-1.31179,0
60.2579,-50.8914,-1.31621,0
60.2604,-50.7666,-1.31977,0
60.2606,-50.642,-1.32295,0
60.261,-50.5175,-1.32549,0
60.2592,-50.3931,-1.32761,0
60.2548,-50.2688,-1.3294,0
60.2477,-50.1447,-1.33084,0
60.238,-50.0208,-1.33193,0
60.2257,-49.8971,-1.33267,0
60.2106,-49.7739,-1.33306,0
60.1931,-49.651,-1.33312,0
60.1729,-49.5285,-1.33282,0
60.1502,-49.4066,-1.33218,0
60.1248,-49.2852,-1.3312,0
60.0968,-49.1644,-1.32988,0
60.0663,-49.0444,-1.3282,0
60.0334,-48.925,-1.32619,0
59.9977,-48.8065,-1.32385,0
59.9577,-48.6894,-1.32139,0
59.9151,-48.5732,-1.31861,0
59.8654,-48.4598,-1.31604,0
59.8143,-48.3474,-1.31304,0
59.7646,-48.2347,-1.30927,0
59.7123,-48.1233,-1.30523,0
59.6573,-48.0133,-1.30088,0
59.5998,-47.9047,-1.29626,0
59.5399,-47.7976,-1.29136,0
59.4775,-47.692,-1.28618,0
59.4127,-47.5881,-1.28073,0
59.3455,-47.4858,-1.275,0
59.2759,-47.3853,-1.26903,0
59.2042,-47.2865,-1.26279,0
59.1302,-47.1896,-1.25629,0
59.0541,-47.0945,-1.24955,0
58.9758,-47.0014,-1.24257,0
58.9048,-46.9031,-1.23386,0
58.8338,-46.8045,-1.22449,0
58.7606,-46.7075,-1.21486,0
58.6851,-46.6121,-1.20493,0
58.6073,-46.5184,-1.19475,0
58.5273,-46.4265,-1.1843,0
58.4452,-46.3364,-1.1736,0
58.3609,-46.2482,-1.16264,0
58.2745,-46.162,-1.15144,0
58.186,-46.0777,-1.14001,0
58.0955,-45.9955,-1.12833,0
56.7732,-56.1213,-0.707765,0
56.9013,-56.0878,-0.720646,0
57.0291,-56.0514,-0.733512,0
57.1564,-56.0121,-0.746369,0
57.2832,-55.9699,-0.759196,0
57.4093,-55.9247,-0.771994,0
57.538,-55.8819,-0.7836,0
57.6564,-55.8206,-0.798552,0
57.7691,-55.7495,-0.814928,0
57.8795,-55.6754,-0.831266,0
57.988,-55.5983,-0.847565,0
58.0943,-55.5183,-0.863791,0
58.1984,-55.4355,-0.879948,0
58.3,-55.3499,-0.896017,0
58.3991,-55.2617,-0.911984,0
58.4959,-55.1709,-0.927844,0
58.5899,-55.0776,-0.943566,0
58.6814,-54.9819,-0.959147,0
58.7702,-54.8839,-0.974582,0
58.8562,-54.7836,-0.989855,0
58.9394,-54.6811,-1.00496,0
59.0198,-54.5766,-1.01987,0
59.0971,-54.4702,-1.03459,0
59.1716,-54.3619,-1.0491,0
59.2431,-54.2519,-1.0634,0
59.3115,-54.1402,-1.07746,0
59.3769,-54.0269,-1.0913,0
59.4391,-53.9121,-1.1049,0
59.4958,-53.7944,-1.11864,0
59.549,-53.6754,-1.13215,0
59.5989,-53.5552,-1.14539,0
59.6453,-53.434,-1.15838,0
59.6947,-53.3153,-1.17017,0
59.7534,-53.202,-1.17987,0
59.8093,-53.0872,-1.18934,0
59.8622,-52.971,-1.19857,0
59.9121,-52.8536,-1.20754,0
59.9458,-52.7296,-1.218,174
60.0026,-52.6152,-1.22477,0
60.0391,-52.4929,-1.23352,0
60.0727,-52.37,-1.24195,0
60.1036,-52.2465,-1.25005,0
60.1316,-52.1225,-1.25782,0
60.1569,-51.9981,-1.26526,0
60.1793,-51.8734,-1.27236,0
60.1989,-51.7483,-1.27913,0
60.2156,-51.6231,-1.28555,0
60.2296,-51.4976,-1.29164,0
60.2409,-51.3721,-1.29739,0
60.2492,-51.2466,-1.30279,0
60.2548,-51.1211,-1.30784,0
60.2577,-50.9958,-1.31255,0
60.2581,-50.8706,-1.31686,0
56.661,-55.9526,-0.698366,0
56.785,-55.9206,-0.710832,0
56.9087,-55.8857,-0.723283,0
57.0319,-55.8481,-0.73572,0
57.1522,-55.8031,-0.749167,0
57.2673,-55.7475,-0.764323,0
57.3809,-55.6886,-0.779548,0
57.4927,-55.6265,-0.794826,0
57.6026,-55.5611,-0.810148,0
57.7105,-55.4925,-0.8255,0
57.8165,-55.4209,-0.840876,0
57.9202,-55.3462,-0.856237,0
58.0216,-55.2686,-0.871589,0
58.1209,-55.1881,-0.886911,0
58.2177,-55.1048,-0.902189,0
58.3119,-55.0188,-0.917404,0
58.4035,-54.9302,-0.932555,0
58.4925,-54.8391,-0.947619,0
58.5787,-54.7455,-0.962585,0
58.6623,-54.6496,-0.977438,0
58.7428,-54.5515,-0.99217,0
58.8205,-54.4512,-1.00676,0
58.8953,-54.3489,-1.0212,0
58.967,-54.2447,-1.03548,0
59.0356,-54.1387,-1.04959,0
59.1012,-54.0309,-1.06351,0
59.1636,-53.9216,-1.07723,0
59.2229,-53.8107,-1.09076,0
59.279,-53.6985,-1.10406,0
59.3319,-53.585,-1.11714,0
59.3815,-53.4704,-1.12998,0
59.4279,-53.3547,-1.14258,0
59.488,-53.2473,-1.15227,0
59.5456,-53.1385,-1.1617,0
59.6004,-53.0283,-1.17091,0
59.6524,-52.9169,-1.17988,0
59.7016,-52.8041,-1.18862,0
59.748,-52.6902,-1.19713,0
59.7913,-52.5751,-1.20538,0
59.8318,-52.4591,-1.21339,0
59.8694,-52.3421,-1.22113,0
59.9039,-52.2243,-1.22862,0
59.9355,-52.1058,-1.23584,0
59.9641,-51.9866,-1.24278,0
59.9896,-51.8667,-1.24946,0
60.0109,-51.7461,-1.25601,0
60.0283,-51.625,-1.26237,0
60.043,-51.5037,-1.26842,0
60.0551,-51.3823,-1.27412,0
60.0644,-51.2608,-1.27949,0
60.071,-51.1393,-1.28454,0
60.0749,-51.0179,-1.28925,0
60.0762,-50.8966,-1.29363,0
60.0798,-50.7758,-1.29709,0
60.0837,-50.6552,-1.29989,0
60.0851,-50.5346,-1.30235,0
60.0838,-50.414,-1.30449,0
60.0801,-50.2934,-1.30627,0
60.0737,-50.1731,-1.30774,0
60.0648,-50.0529,-1.30885,0
60.0533,-49.933,-1.30964,0
60.0392,-49.8134,-1.31009,0
60.0227,-49.6942,-1.31021,0
60.0036,-49.5754,-1.30999,0
59.981,-49.4573,-1.30954,0
59.9557,-49.3397,-1.3088,0
59.9277,-49.2229,-1.30774,0
59.8971,-49.1068,-1.30637,0
59.8639,-48.9915,-1.30468,0
59.8283,-48.877,-1.30268,0
59.79,-48.7634,-1.30036,0
59.7487,-48.651,-1.29781,0
59.6973,-48.5424,-1.29589,0
59.6437,-48.4351,-1.29368,0
59.5944,-48.3267,-1.29034,0
59.5443,-48.2188,-1.28649,0
59.4918,-48.1122,-1.28236,0
59.4369,-48.007,-1.27796,0
59.3795,-47.9032,-1.27328,0
59.3197,-47.8008,-1.26834,0
59.2577,-47.7,-1.26314,0
59.1933,-47.6008,-1.25766,0
59.1266,-47.5032,-1.25195,0
59.0578,-47.4074,-1.24598,0
58.9868,-47.3133,-1.23977,0
58.9137,-47.221,-1.23331,0
58.8387,-47.1305,-1.22662,0
58.7707,-47.0349,-1.21817,0
58.7023,-46.9395,-1.20913,0
58.6318,-46.8455,-1.19984,0
58.559,-46.7531,-1.19027,0
58.484,-46.6624,-1.18045,0
58.4069,-46.5734,-1.17038,0
58.3277,-46.4861,-1.16006,0
58.2463,-46.4006,-1.14948,0
58.163,-46.317,-1.13868,0
58.0778,-46.2353,-1.12766,0
57.9905,-46.1556,-1.11639,0
56.6816,-55.9475,-0.700441,0
56.8056,-55.915,-0.712902,0
56.9292,-55.8797,-0.725348,0
57.0523,-55.8416,-0.73778,0
57.1714,-55.7941,-0.751681,0
57.2863,-55.738,-0.766847,0
57.3996,-55.6785,-0.782077,0
57.5111,-55.6158,-0.79738,0
57.6206,-55.5499,-0.812707,0
57.7283,-55.4808,-0.828053,0
57.8338,-55.4087,-0.843429,0
57.9373,-55.3335,-0.858791,0
58.0384,-55.2554,-0.874137,0
58.1371,-55.1744,-0.88945,0
58.2334,-55.0907,-0.904719,0
58.3273,-55.0042,-0.919933,0
58.4185,-54.9152,-0.93507,0
58.507,-54.8237,-0.950119,0
58.5928,-54.7297,-0.96507,0
58.6758,-54.6334,-0.979894,0
58.7559,-54.5349,-0.994606,0
58.8332,-54.4343,-1.00917,0
58.9074,-54.3317,-1.02359,0
58.9786,-54.2272,-1.03784,0
59.0468,-54.1208,-1.05192,0
59.1118,-54.0128,-1.06581,0
59.1737,-53.9032,-1.0795,0
59.2324,-53.7922,-1.09299,0
59.288,-53.6797,-1.10625,0
59.3403,-53.566,-1.11929,0
59.3895,-53.4512,-1.13209,0
59.4378,-53.3368,-1.14424,0
59.4977,-53.2293,-1.15385,0
59.5548,-53.1203,-1.16324,0
59.6093,-53.0099,-1.17241,0
59.6608,-52.8982,-1.18136,0
59.7095,-52.7852,-1.19006,0
59.7553,-52.6711,-1.19852,0
59.7983,-52.5559,-1.20674,0
59.8383,-52.4397,-1.21469,0
59.8753,-52.3226,-1.2224,0
59.9094,-52.2047,-1.22984,0
59.9405,-52.086,-1.23701,0
59.9685,-51.9667,-1.24392,0
59.9935,-51.8468,-1.25054,0
60.014,-51.726,-1.2571,0
60.0309,-51.6048,-1.26341,0
60.0452,-51.4835,-1.26938,0
60.0568,-51.3621,-1.27504,0
60.0657,-51.2406,-1.28035,0
60.0719,-51.1191,-1.28534,0
60.0753,-50.9977,-1.29,0
60.0764,-50.8765,-1.29429,0
60.0807,-50.7558,-1.29758,0
60.0841,-50.6352,-1.30032,0
60.0851,-50.5145,-1.30273,0
60.0834,-50.3939,-1.3048,0
60.0791,-50.2734,-1.30654,0
60.0724,-50.1531,-1.30794,0
60.063,-50.0329,-1.30901,0
60.0511,-49.9131,-1.30974,0
60.0366,-49.7936,-1.31013,0
60.0197,-49.6744,-1.3102,0
60.0002,-49.5557,-1.30991,0
59.977,-49.4377,-1.30944,0
59.9512,-49.3203,-1.30865,0
59.9227,-49.2035,-1.30753,0
59.8917,-49.0876,-1.30611,0
59.8582,-48.9724,-1.30437,0
59.822,-48.8581,-1.30231,0
59.7834,-48.7446,-1.29994,0
59.7403,-48.6329,-1.29751,0
59.6886,-48.5244,-1.29554,0
59.6345,-48.4174,-1.29328,0
59.5863,-48.3087,-1.28972,0
59.5358,-48.201,-1.28582,0
59.4829,-48.0946,-1.28165,0
59.4275,-47.9896,-1.27719,0
59.3697,-47.886,-1.27248,0
59.3095,-47.7839,-1.2675,0
59.2471,-47.6834,-1.26225,0
59.1823,-47.5845,-1.25674,0
59.1153,-47.4872,-1.25098,0
59.0462,-47.3916,-1.24497,0
58.9748,-47.2978,-1.23871,0
58.9015,-47.2058,-1.23221,0
58.826,-47.1157,-1.22548,0
58.7595,-47.019,-1.21669,0
58.6909,-46.9237,-1.2076,0
58.6198,-46.83,-1.19826,0
58.5466,-46.7379,-1.18865,0
58.4713,-46.6475,-1.17879,0
58.3938,-46.5587,-1.16868,0
58.3143,-46.4717,-1.15831,0
58.2327,-46.3866,-1.14771,0
58.1491,-46.3033,-1.13687,0
58.0634,-46.2219,-1.1258,0
57.9759,-46.1426,-1.1145,0
56.7023,-55.9422,-0.702521,0
56.8262,-55.9093,-0.714977,0
56.9497,-55.8735,-0.727428,0
57.0727,-55.835,-0.73985,0
57.1906,-55.785,-0.754196,0
57.3053,-55.7283,-0.769377,0
57.4183,-55.6683,-0.784626,0
57.5295,-55.6051,-0.799919,0
57.6387,-55.5386,-0.815251,0
57.746,-55.469,-0.830612,0
57.8512,-55.3964,-0.845988,0
57.9542,-55.3207,-0.861349,0
58.0549,-55.2421,-0.876686,0
58.1534,-55.1607,-0.891994,0
58.2492,-55.0765,-0.907253,0
58.3427,-54.9896,-0.922448,0
58.4334,-54.9002,-0.93758,0
58.5215,-54.8082,-0.952609,0
58.6068,-54.7139,-0.967536,0
58.6894,-54.6172,-0.98236,0
58.769,-54.5183,-0.997043,0
58.8458,-54.4174,-1.01158,0
58.9195,-54.3144,-1.02597,0
58.9902,-54.2096,-1.04019,0
59.0578,-54.103,-1.05424,0
59.1223,-53.9947,-1.0681,0
59.1837,-53.8849,-1.08176,0
59.2419,-53.7735,-1.09521,0
59.2969,-53.6609,-1.10843,0
59.3487,-53.547,-1.12144,0
59.3973,-53.432,-1.1342,0
59.448,-53.319,-1.14585,0
59.5074,-53.2113,-1.15542,0
59.5641,-53.102,-1.16479,0
59.618,-52.9914,-1.17392,0
59.6691,-52.8795,-1.18282,0
59.7173,-52.7663,-1.19148,0
59.7627,-52.652,-1.1999,0
59.8051,-52.5366,-1.20808,0
59.8446,-52.4203,-1.21599,0
59.8812,-52.303,-1.22366,0
59.9148,-52.185,-1.23105,0
59.9452,-52.0662,-1.23818,0
59.9729,-51.9468,-1.24504,0
59.9974,-51.8268,-1.25162,0
60.017,-51.7059,-1.25817,0
60.0335,-51.5847,-1.26442,0
60.0473,-51.4633,-1.27035,0
60.0584,-51.3419,-1.27595,0
60.0669,-51.2204,-1.28121,0
60.0726,-51.0989,-1.28614,0
60.0757,-50.9776,-1.29074,0
60.0771,-50.8564,-1.29488,0
56.5906,-55.7723,-0.696262,0
56.7065,-55.7319,-0.710422,0
56.8211,-55.6882,-0.724704,0
56.9345,-55.6412,-0.739089,0
57.0465,-55.5909,-0.753571,0
57.1571,-55.5375,-0.768127,0
57.2661,-55.4808,-0.782751,0
57.3735,-55.4211,-0.797428,0
57.4791,-55.3583,-0.812155,0
57.5828,-55.2925,-0.826896,0
57.6846,-55.2237,-0.841662,0
57.7842,-55.1521,-0.856418,0
57.8819,-55.0776,-0.871164,0
57.9773,-55.0005,-0.885881,0
58.0703,-54.9206,-0.900553,0
58.161,-54.8382,-0.915178,0
58.2492,-54.7533,-0.929738,0
58.3349,-54.666,-0.944216,0
58.4181,-54.5763,-0.9586,0
58.4986,-54.4845,-0.972878,0
58.5763,-54.3905,-0.987043,0
58.6513,-54.2944,-1.00108,0
58.7235,-54.1964,-1.01497,0
58.7928,-54.0966,-1.02871,0
58.8592,-53.995,-1.04229,0
58.9227,-53.8918,-1.0557,0
58.9832,-53.787,-1.06891,0
59.0406,-53.6808,-1.08194,0
59.0951,-53.5732,-1.09475,0
59.1465,-53.4645,-1.10737,0
59.1948,-53.3545,-1.11974,0
59.2555,-53.2524,-1.1293,0
59.3137,-53.1489,-1.13862,0
59.3694,-53.0439,-1.14772,0
59.4224,-52.9376,-1.15662,0
59.4727,-52.83,-1.16528,0
59.5202,-52.7212,-1.17373,0
59.5651,-52.6113,-1.18194,0
59.607,-52.5003,-1.18992,0
59.6462,-52.3884,-1.19766,0
59.6826,-52.2755,-1.20515,0
59.7162,-52.1619,-1.21239,0
59.7467,-52.0475,-1.21937,0
59.7745,-51.9324,-1.2261,0
59.7994,-51.8168,-1.23256,0
59.8214,-51.7007,-1.23875,0
59.8405,-51.5842,-1.24467,0
59.8566,-51.4674,-1.25032,0
59.8699,-51.3503,-1.2557,0
59.8803,-51.2331,-1.26079,0
59.8877,-51.1157,-1.2656,0
59.8923,-50.9984,-1.27013,0
59.9025,-50.8818,-1.27333,0
59.9092,-50.765,-1.27633,0
59.9133,-50.648,-1.27902,0
59.9148,-50.5311,-1.2814,0
59.9135,-50.4141,-1.28349,0
59.9097,-50.2973,-1.28526,0
59.9033,-50.1806,-1.28672,0
59.8942,-50.0642,-1.28787,0
59.8825,-49.948,-1.28871,0
59.8683,-49.8321,-1.28925,0
59.8515,-49.7167,-1.28946,0
59.8321,-49.6017,-1.28937,0
59.8102,-49.4873,-1.28898,0
59.7856,-49.3734,-1.28827,0
59.7586,-49.2602,-1.28726,0
59.7291,-49.1477,-1.28593,0
59.6971,-49.0359,-1.28431,0
59.6626,-48.925,-1.28238,0
59.6257,-48.8149,-1.28015,0
59.5802,-48.7078,-1.27844,0
59.5309,-48.6025,-1.27662,0
59.4794,-48.4985,-1.27452,0
59.4268,-48.3955,-1.27198,0
59.3785,-48.2911,-1.26827,0
59.3278,-48.1879,-1.26429,0
59.2748,-48.0861,-1.26005,0
59.2195,-47.9856,-1.25554,0
59.1618,-47.8865,-1.25078,0
59.102,-47.7889,-1.24576,0
59.0398,-47.6929,-1.24049,0
58.9755,-47.5984,-1.23498,0
58.9091,-47.5055,-1.22923,0
58.8406,-47.4144,-1.22323,0
58.7702,-47.3249,-1.217,0
58.698,-47.237,-1.21049,0
58.634,-47.1432,-1.20198,0
58.5677,-47.0509,-1.19321,0
58.4991,-46.9601,-1.1842,0
58.4285,-46.8708,-1.17492,0
58.3559,-46.7831,-1.1654,0
58.2811,-46.697,-1.15564,0
58.2043,-46.6127,-1.14564,0
58.1255,-46.5301,-1.1354,0
58.0448,-46.4493,-1.12494,0
57.9622,-46.3703,-1.11425,0
57.8777,-46.2933,-1.10334,0
56.6099,-55.7658,-0.69861,0
56.7256,-55.7248,-0.712795,0
56.8401,-55.6806,-0.727087,0
56.9532,-55.633,-0.741496,0
57.0651,-55.5822,-0.755988,0
57.1754,-55.5283,-0.770553,0
57.2841,-55.4711,-0.785187,0
57.3912,-55.4109,-0.799875,0
57.4965,-55.3475,-0.814606,0
57.5998,-55.2812,-0.829352,0
57.7013,-55.212,-0.844113,0
57.8007,-55.1399,-0.858869,0
57.8979,-55.065,-0.873615,0
57.9929,-54.9874,-0.888322,0
58.0855,-54.9071,-0.90299,0
58.1759,-54.8243,-0.917614,0
58.2637,-54.7389,-0.932155,0
58.349,-54.6512,-0.946618,0
58.4317,-54.5612,-0.960988,0
58.5117,-54.469,-0.975246,0
58.589,-54.3746,-0.989386,0
58.6635,-54.2782,-1.0034,0
58.7352,-54.1799,-1.01727,0
58.8041,-54.0798,-1.03098,0
58.87,-53.9779,-1.04453,0
58.933,-53.8744,-1.05791,0
58.993,-53.7694,-1.07109,0
59.0499,-53.663,-1.08408,0
59.1039,-53.5552,-1.09687,0
59.1548,-53.4462,-1.10944,0
59.2049,-53.3375,-1.12138,0
59.2653,-53.2353,-1.13086,0
59.3232,-53.1315,-1.14015,0
59.3784,-53.0264,-1.14921,0
59.431,-52.9198,-1.15807,0
59.4809,-52.812,-1.16671,0
59.5279,-52.703,-1.17511,0
59.5722,-52.5929,-1.18329,0
59.6138,-52.4818,-1.19122,0
59.6525,-52.3697,-1.19893,0
59.6884,-52.2567,-1.20637,0
59.7214,-52.1429,-1.21357,0
59.7516,-52.0284,-1.2205,0
59.7788,-51.9132,-1.22718,0
59.8033,-51.7975,-1.23361,0
59.8248,-51.6814,-1.23976,0
59.8434,-51.5648,-1.24563,0
59.8591,-51.4479,-1.25123,0
59.8718,-51.3308,-1.25656,0
59.8817,-51.2135,-1.26161,0
59.8887,-51.0962,-1.26637,0
59.8936,-50.979,-1.27075,0
59.9038,-50.8624,-1.27385,0
59.9101,-50.7455,-1.2768,0
59.9137,-50.6286,-1.27944,0
59.9148,-50.5116,-1.28178,0
59.913,-50.3947,-1.2838,0
59.9088,-50.2779,-1.28552,0
59.9019,-50.1612,-1.28693,0
59.8925,-50.0448,-1.28803,0
59.8803,-49.9287,-1.28883,0
59.8657,-49.8129,-1.2893,0
59.8484,-49.6976,-1.28947,0
59.8286,-49.5827,-1.28933,0
59.8062,-49.4683,-1.28888,0
59.7813,-49.3545,-1.28813,0
59.7539,-49.2414,-1.28707,0
59.724,-49.129,-1.28569,0
59.6916,-49.0174,-1.28402,0
59.6566,-48.9066,-1.28204,0
59.6194,-48.7967,-1.27976,0
59.5722,-48.6902,-1.27815,0
59.5225,-48.5851,-1.27629,0
59.4705,-48.4814,-1.27415,0
59.4189,-48.378,-1.27139,0
59.3703,-48.2738,-1.26763,0
59.3191,-48.1709,-1.26361,0
59.2658,-48.0693,-1.25932,0
59.2101,-47.969,-1.25477,0
59.152,-47.8702,-1.24996,0
59.0918,-47.7728,-1.2449,0
59.0293,-47.677,-1.2396,0
58.9646,-47.5828,-1.23404,0
58.8979,-47.4903,-1.22824,0
58.829,-47.3994,-1.22221,0
58.7582,-47.3102,-1.21595,0
58.6875,-47.2213,-1.20908,0
58.623,-47.1278,-1.20054,0
58.5564,-47.0357,-1.19174,0
58.4876,-46.9451,-1.18268,0
58.4166,-46.8561,-1.17336,0
58.3435,-46.7687,-1.1638,0
58.2684,-46.6829,-1.154,0
58.1913,-46.5988,-1.14395,0
58.1123,-46.5165,-1.13367,0
58.0312,-46.436,-1.12317,0
57.9483,-46.3574,-1.11245,0
57.8635,-46.2807,-1.10151,0
56.6293,-55.7592,-0.700954,0
56.7447,-55.7177,-0.715163,0
56.859,-55.6729,-0.729474,0
56.972,-55.6248,-0.743893,0
57.0834,-55.5735,-0.758405,0
57.1935,-55.519,-0.772985,0
57.302,-55.4613,-0.787629,0
57.4087,-55.4005,-0.802326,0
57.5138,-55.3367,-0.817053,0
57.6169,-55.2699,-0.831808,0
57.718,-55.2002,-0.846574,0
57.817,-55.1276,-0.861325,0
57.9138,-55.0523,-0.876061,0
58.0085,-54.9742,-0.890773,0
58.1008,-54.8935,-0.905431,0
58.1906,-54.8102,-0.920031,0
58.278,-54.7245,-0.934567,0
58.3629,-54.6364,-0.949015,0
58.4452,-54.546,-0.963366,0
58.5247,-54.4534,-0.977604,0
58.6016,-54.3587,-0.991725,0
58.6757,-54.262,-1.00572,0
58.747,-54.1634,-1.01957,0
58.8152,-54.063,-1.03324,0
58.8807,-53.9608,-1.04677,0
58.9432,-53.8571,-1.06011,0
59.0027,-53.7518,-1.07326,0
59.0591,-53.6451,-1.08623,0
59.1126,-53.5372,-1.09898,0
59.163,-53.428,-1.11151,0
59.2152,-53.3207,-1.12298,0
59.2752,-53.2181,-1.13242,0
59.3326,-53.1141,-1.14166,0
59.3873,-53.0087,-1.1507,0
59.4395,-52.902,-1.15952,0
59.4888,-52.794,-1.16812,0
59.5355,-52.6848,-1.17649,0
59.5793,-52.5745,-1.18462,0
59.6204,-52.4632,-1.19252,0
59.6587,-52.3509,-1.20018,0
59.6941,-52.2378,-1.20759,0
59.7266,-52.1239,-1.21474,0
59.7563,-52.0093,-1.22163,0
59.7832,-51.894,-1.22827,0
59.807,-51.7783,-1.23464,0
59.8281,-51.662,-1.24075,0
59.8462,-51.5454,-1.24658,0
59.8613,-51.4285,-1.25214,0
59.8737,-51.3113,-1.25742,0
59.883,-51.194,-1.26242,0
59.8896,-51.0767,-1.26714,0
59.8955,-50.9596,-1.27128,0
59.905,-50.8429,-1.27437,0
56.5103,-55.5692,-0.702511,0
56.6216,-55.5301,-0.716144,0
56.7318,-55.4879,-0.729885,0
56.8409,-55.4426,-0.743722,0
56.9486,-55.3941,-0.757658,0
57.0548,-55.3426,-0.771657,0
57.1598,-55.2881,-0.785729,0
57.263,-55.2306,-0.799846,0
57.3645,-55.1702,-0.814011,0
57.4644,-55.1069,-0.8282,0
57.5622,-55.0409,-0.842389,0
57.6583,-54.9721,-0.856584,0
57.7522,-54.9006,-0.870773,0
57.8441,-54.8265,-0.884928,0
57.9337,-54.7498,-0.89905,0
58.0211,-54.6707,-0.913122,0
58.1061,-54.5892,-0.927126,0
58.1888,-54.5054,-0.941066,0
58.269,-54.4194,-0.954909,0
58.3467,-54.3312,-0.968659,0
58.4218,-54.241,-0.982297,0
58.4943,-54.1489,-0.995807,0
58.564,-54.0548,-1.00919,0
58.6311,-53.959,-1.02243,0
58.6954,-53.8616,-1.03551,0
58.7569,-53.7625,-1.04843,0
58.8155,-53.6619,-1.06117,0
58.8713,-53.56,-1.07375,0
58.9242,-53.4568,-1.08611,0
58.9743,-53.3524,-1.09826,0
59.0356,-53.2553,-1.10764,0
59.0945,-53.1568,-1.11683,0
59.1507,-53.0568,-1.12584,0
59.2046,-52.9554,-1.13463,0
59.2558,-52.8527,-1.14323,0
59.3044,-52.7488,-1.15161,0
59.3505,-52.6437,-1.15978,0
59.3938,-52.5375,-1.16773,0
59.4345,-52.4303,-1.17545,0
59.4725,-52.3222,-1.18293,0
59.5078,-52.2132,-1.19018,0
59.5403,-52.1034,-1.19719,0
59.5701,-51.9929,-1.20395,0
59.5971,-51.8818,-1.21047,0
59.6213,-51.7701,-1.21673,0
59.6428,-51.6579,-1.22272,0
59.6614,-51.5453,-1.22847,0
59.6773,-51.4325,-1.23395,0
59.6903,-51.3193,-1.23917,0
59.7006,-51.206,-1.24412,0
59.7143,-51.0934,-1.24796,0
59.7273,-50.9807,-1.25127,0
59.7378,-50.8677,-1.25431,0
59.7443,-50.7545,-1.25723,0
59.7483,-50.6411,-1.25985,0
59.7498,-50.5277,-1.26216,0
59.7487,-50.4143,-1.26419,0
59.745,-50.301,-1.26592,0
59.7388,-50.1879,-1.26734,0
59.7302,-50.075,-1.26847,0
59.7189,-49.9624,-1.26928,0
59.7052,-49.85,-1.26982,0
59.6889,-49.7381,-1.27004,0
59.6702,-49.6266,-1.26996,0
59.6491,-49.5156,-1.26959,0
59.6254,-49.4052,-1.26892,0
59.5993,-49.2954,-1.26794,0
59.5707,-49.1862,-1.26668,0
59.5398,-49.0778,-1.26512,0
59.5065,-48.9702,-1.26326,0
59.4669,-48.8647,-1.26164,0
59.4217,-48.7612,-1.2602,0
59.3742,-48.659,-1.25848,0
59.3246,-48.5582,-1.25649,0
59.2728,-48.4587,-1.25423,0
59.2227,-48.359,-1.25115,0
59.1737,-48.2591,-1.24731,0
59.1226,-48.1604,-1.24321,0
59.0691,-48.063,-1.23886,0
59.0134,-47.9671,-1.23427,0
58.9555,-47.8725,-1.22943,0
58.8955,-47.7794,-1.22434,0
58.8334,-47.6878,-1.21902,0
58.7693,-47.5978,-1.21347,0
58.7031,-47.5094,-1.20768,0
58.635,-47.4227,-1.20167,0
58.5674,-47.3359,-1.19499,0
58.5052,-47.2452,-1.18674,0
58.4408,-47.1558,-1.17824,0
58.3743,-47.0679,-1.16949,0
58.3058,-46.9815,-1.16049,0
58.2353,-46.8967,-1.15126,0
58.1627,-46.8134,-1.14178,0
58.0883,-46.7318,-1.13208,0
58.0118,-46.6519,-1.12215,0
57.9335,-46.5737,-1.112,0
57.8534,-46.4973,-1.10164,0
57.7715,-46.4228,-1.09107,0
56.5289,-55.5629,-0.704767,0
56.6401,-55.5234,-0.71842,0
56.7501,-55.4806,-0.732175,0
56.8588,-55.4347,-0.746032,0
56.9663,-55.3858,-0.759982,0
57.0724,-55.3338,-0.773996,0
57.177,-55.2788,-0.788078,0
57.28,-55.2208,-0.802204,0
57.3812,-55.1599,-0.816369,0
57.4807,-55.0962,-0.830549,0
57.5784,-55.0296,-0.844758,0
57.6741,-54.9604,-0.858947,0
57.7676,-54.8884,-0.873127,0
57.8591,-54.8139,-0.887287,0
57.9484,-54.7368,-0.901393,0
58.0354,-54.6573,-0.915461,0
58.1201,-54.5754,-0.92946,0
58.2023,-54.4912,-0.943366,0
58.2821,-54.4049,-0.957199,0
58.3594,-54.3164,-0.970929,0
58.434,-54.2258,-0.984548,0
58.506,-54.1333,-0.998049,0
58.5754,-54.039,-1.0114,0
58.642,-53.9429,-1.02462,0
58.7059,-53.8452,-1.03767,0
58.7668,-53.7459,-1.05056,0
58.825,-53.6451,-1.06328,0
58.8804,-53.5429,-1.07581,0
58.9327,-53.4395,-1.08815,0
58.9847,-53.3363,-1.09983,0
59.0455,-53.2391,-1.10918,0
59.1039,-53.1403,-1.11834,0
59.1598,-53.04,-1.12731,0
59.2133,-52.9384,-1.13607,0
59.2641,-52.8355,-1.14464,0
59.3123,-52.7314,-1.15299,0
59.3579,-52.6261,-1.16112,0
59.4008,-52.5197,-1.16903,0
59.441,-52.4124,-1.17671,0
59.4786,-52.3041,-1.18415,0
59.5134,-52.195,-1.19136,0
59.5455,-52.0851,-1.19833,0
59.5748,-51.9744,-1.20505,0
59.6013,-51.8632,-1.21152,0
59.6251,-51.7514,-1.21774,0
59.6461,-51.6392,-1.2237,0
59.6643,-51.5266,-1.2294,0
59.6796,-51.4137,-1.23484,0
59.6923,-51.3005,-1.24001,0
59.702,-51.1872,-1.24491,0
59.7166,-51.0747,-1.24854,0
59.7293,-50.9619,-1.2518,0
59.739,-50.8489,-1.25482,0
59.7452,-50.7356,-1.25768,0
59.7487,-50.6222,-1.26026,0
59.7498,-50.5088,-1.26253,0
59.7482,-50.3955,-1.2645,0
59.7442,-50.2822,-1.26617,0
59.7376,-50.1691,-1.26755,0
59.7284,-50.0562,-1.26863,0
59.7168,-49.9436,-1.2694,0
59.7027,-49.8314,-1.26987,0
59.686,-49.7195,-1.27005,0
59.6668,-49.6081,-1.26993,0
59.6452,-49.4972,-1.26949,0
59.6212,-49.3869,-1.26878,0
59.5947,-49.2772,-1.26775,0
59.5657,-49.1682,-1.26644,0
59.5345,-49.0599,-1.26483,0
59.5007,-48.9524,-1.26292,0
59.4595,-48.8474,-1.26142,0
59.414,-48.7441,-1.25993,0
59.3662,-48.6422,-1.25817,0
59.3162,-48.5416,-1.25613,0
59.264,-48.4423,-1.25383,0
59.2147,-48.3423,-1.25053,0
59.1655,-48.2426,-1.24665,0
59.1138,-48.1441,-1.24251,0
59.06,-48.047,-1.23812,0
59.0039,-47.9512,-1.23349,0
58.9457,-47.8569,-1.2286,0
58.8853,-47.764,-1.22348,0
58.8229,-47.6727,-1.21811,0
58.7584,-47.583,-1.21252,0
58.692,-47.4949,-1.2067,0
58.6235,-47.4084,-1.20065,0
58.5572,-47.3207,-1.19364,0
58.4946,-47.2302,-1.18535,0
58.4298,-47.1411,-1.1768,0
58.363,-47.0535,-1.168,0
58.2942,-46.9673,-1.15897,0
58.2233,-46.8827,-1.14969,0
58.1505,-46.7997,-1.14018,0
58.0756,-46.7184,-1.13045,0
57.9989,-46.6387,-1.12048,0
57.9203,-46.5609,-1.11029,0
57.8399,-46.4848,-1.09989,0
57.7577,-46.4106,-1.08929,0
56.5474,-55.5566,-0.707033,0
56.6584,-55.5165,-0.7207,0
56.7682,-55.4732,-0.734479,0
56.8768,-55.4268,-0.748346,0
56.9841,-55.3774,-0.762302,0
57.0899,-55.3248,-0.776335,0
57.1943,-55.2693,-0.790422,0
57.297,-55.2109,-0.804562,0
57.3979,-55.1495,-0.818722,0
57.4971,-55.0853,-0.832912,0
57.5944,-55.0183,-0.847111,0
57.6897,-54.9486,-0.861305,0
57.783,-54.8762,-0.87548,0
57.8741,-54.8012,-0.889631,0
57.963,-54.7238,-0.903737,0
58.0497,-54.6438,-0.917795,0
58.1339,-54.5616,-0.931769,0
58.2158,-54.477,-0.945671,0
58.2952,-54.3903,-0.959489,0
58.372,-54.3014,-0.973205,0
58.4462,-54.2106,-0.986799,0
58.5178,-54.1178,-1.00028,0
58.5866,-54.0232,-1.01361,0
58.6528,-53.9268,-1.0268,0
58.7162,-53.8288,-1.03983,0
58.7767,-53.7292,-1.05269,0
58.8345,-53.6282,-1.06538,0
58.8893,-53.5258,-1.07788,0
58.9412,-53.4222,-1.09018,0
58.995,-53.3203,-1.1014,0
59.0555,-53.2227,-1.11072,0
59.1134,-53.1237,-1.11985,0
59.1689,-53.0232,-1.12879,0
59.2219,-52.9214,-1.13752,0
59.2723,-52.8183,-1.14605,0
59.32,-52.7139,-1.15436,0
59.3652,-52.6085,-1.16245,0
59.4077,-52.5019,-1.17032,0
59.4474,-52.3944,-1.17796,0
59.4845,-52.286,-1.18537,0
59.5189,-52.1767,-1.19254,0
59.5505,-52.0667,-1.19946,0
59.5794,-51.956,-1.20614,0
59.6055,-51.8447,-1.21257,0
59.6287,-51.7328,-1.21875,0
59.6493,-51.6205,-1.22466,0
59.667,-51.5078,-1.23032,0
59.6819,-51.3949,-1.23571,0
59.6941,-51.2817,-1.24084,0
59.7042,-51.1684,-1.24559,0
59.719,-51.056,-1.24909,0
59.7312,-50.9432,-1.25231,0
59.7402,-50.8301,-1.25532,0
56.4355,-55.3803,-0.708322,0
56.5427,-55.3425,-0.721462,0
56.6488,-55.3017,-0.734699,0
56.7537,-55.2579,-0.748029,0
56.8574,-55.2111,-0.761452,0
56.9598,-55.1615,-0.774938,0
57.0608,-55.1089,-0.788498,0
57.1602,-55.0535,-0.802096,0
57.258,-54.9953,-0.815734,0
57.3541,-54.9344,-0.829396,0
57.4485,-54.8708,-0.843068,0
57.541,-54.8046,-0.85674,0
57.6316,-54.7359,-0.870402,0
57.7202,-54.6646,-0.884045,0
57.8066,-54.5909,-0.897653,0
57.8909,-54.5148,-0.911208,0
57.973,-54.4365,-0.924694,0
58.0528,-54.356,-0.938127,0
58.1302,-54.2733,-0.951471,0
58.2053,-54.1886,-0.964719,0
58.278,-54.1019,-0.977868,0
58.348,-54.0134,-0.9909,0
58.4155,-53.923,-1.00381,0
58.4805,-53.831,-1.01657,0
58.5428,-53.7373,-1.02919,0
58.6023,-53.6421,-1.04167,0
58.6593,-53.5454,-1.05397,0
58.7135,-53.4475,-1.0661,0
58.7655,-53.3486,-1.07793,0
58.8271,-53.2563,-1.08717,0
58.8864,-53.1624,-1.09625,0
58.9433,-53.0671,-1.10514,0
58.9977,-52.9704,-1.11384,0
59.0498,-52.8723,-1.12236,0
59.0995,-52.773,-1.13068,0
59.1466,-52.6725,-1.13879,0
59.1912,-52.5709,-1.1467,0
59.2332,-52.4683,-1.15439,0
59.2727,-52.3646,-1.16186,0
59.3095,-52.26,-1.16911,0
59.3438,-52.1546,-1.17613,0
59.3753,-52.0485,-1.18293,0
59.4043,-51.9416,-1.18948,0
59.4306,-51.8342,-1.19579,0
59.4542,-51.7262,-1.20186,0
59.4751,-51.6177,-1.2077,0
59.4934,-51.5089,-1.21327,0
59.5089,-51.3997,-1.21859,0
59.527,-51.2911,-1.22292,0
59.5445,-51.1825,-1.22668,0
59.5596,-51.0734,-1.23018,0
59.5723,-50.9641,-1.23339,0
59.5822,-50.8544,-1.23637,0
59.5886,-50.7445,-1.2392,0
59.5925,-50.6345,-1.24174,0
59.5939,-50.5245,-1.244,0
59.593,-50.4145,-1.24598,0
59.5895,-50.3046,-1.24765,0
59.5835,-50.1948,-1.24904,0
59.5752,-50.0852,-1.25014,0
59.5644,-49.9759,-1.25094,0
59.5511,-49.8669,-1.25147,0
59.5354,-49.7583,-1.25169,0
59.5173,-49.6501,-1.25163,0
59.4968,-49.5424,-1.25127,0
59.474,-49.4352,-1.25063,0
59.4487,-49.3286,-1.2497,0
59.4211,-49.2227,-1.24848,0
59.3912,-49.1174,-1.24697,0
59.357,-49.0135,-1.24547,0
59.3157,-48.912,-1.24437,0
59.2722,-48.8116,-1.243,0
59.2265,-48.7124,-1.24137,0
59.1787,-48.6145,-1.23948,0
59.1287,-48.5179,-1.23732,0
59.0767,-48.4226,-1.23491,0
59.0287,-48.3261,-1.23132,0
58.9791,-48.2304,-1.22737,0
58.9274,-48.136,-1.22316,0
58.8736,-48.0429,-1.21872,0
58.8177,-47.9512,-1.21404,0
58.7597,-47.8609,-1.20914,0
58.6996,-47.772,-1.20399,0
58.6376,-47.6847,-1.19862,0
58.5736,-47.599,-1.19303,0
58.5077,-47.5148,-1.18722,0
58.4442,-47.4292,-1.18039,0
58.3837,-47.3413,-1.17237,0
58.3212,-47.2548,-1.16411,0
58.2566,-47.1697,-1.15561,0
58.1901,-47.086,-1.14688,0
58.1215,-47.0038,-1.13791,0
58.0511,-46.9231,-1.12871,0
57.9787,-46.8441,-1.11929,0
57.9047,-46.7667,-1.10966,0
57.8287,-46.691,-1.09981,0
57.7509,-46.617,-1.08975,0
57.6715,-46.5449,-1.0795,0
56.4534,-55.3743,-0.710495,0
56.5604,-55.336,-0.723649,0
56.6662,-55.2946,-0.736911,0
56.7711,-55.2503,-0.750261,0
56.8745,-55.2031,-0.763693,0
56.9767,-55.1529,-0.777189,0
57.0774,-55.0999,-0.790754,0
57.1766,-55.044,-0.804367,0
57.2741,-54.9854,-0.818,0
57.3699,-54.924,-0.831672,0
57.4641,-54.86,-0.845344,0
57.5562,-54.7934,-0.859011,0
57.6464,-54.7242,-0.872673,0
57.7346,-54.6525,-0.886305,0
57.8208,-54.5784,-0.899904,0
57.9048,-54.502,-0.913449,0
57.9865,-54.4233,-0.926935,0
58.0659,-54.3424,-0.940348,0
58.1429,-54.2594,-0.953678,0
58.2176,-54.1743,-0.966916,0
58.2898,-54.0873,-0.980046,0
58.3595,-53.9985,-0.993053,0
58.4266,-53.9078,-1.00594,0
58.491,-53.8155,-1.01868,0
58.5529,-53.7216,-1.03128,0
58.6121,-53.6261,-1.04372,0
58.6686,-53.5292,-1.056,0
58.7223,-53.431,-1.0681,0
58.7759,-53.3334,-1.07947,0
58.8372,-53.2408,-1.08869,0
58.896,-53.1467,-1.09774,0
58.9525,-53.0511,-1.1066,0
59.0066,-52.9542,-1.11528,0
59.0583,-52.8559,-1.12376,0
59.1075,-52.7564,-1.13204,0
59.1542,-52.6557,-1.14012,0
59.1983,-52.5539,-1.14799,0
59.2399,-52.4511,-1.15565,0
59.279,-52.3473,-1.16308,0
59.3154,-52.2426,-1.1703,0
59.3492,-52.137,-1.17728,0
59.3803,-52.0308,-1.18403,0
59.4088,-51.9238,-1.19055,0
59.4347,-51.8163,-1.19682,0
59.4578,-51.7082,-1.20285,0
59.4784,-51.5996,-1.20863,0
59.4961,-51.4907,-1.21417,0
59.5112,-51.3815,-1.21945,0
59.5301,-51.2731,-1.22356,0
59.5472,-51.1644,-1.22728,0
59.5619,-51.0553,-1.23072,0
59.5741,-50.9459,-1.2339,0
59.5834,-50.8362,-1.23686,0
59.5894,-50.7262,-1.23965,0
59.5929,-50.6162,-1.24214,0
59.5939,-50.5062,-1.24436,0
59.5926,-50.3962,-1.24628,0
59.5887,-50.2863,-1.2479,0
59.5823,-50.1766,-1.24924,0
59.5736,-50.067,-1.25029,0
59.5623,-49.9578,-1.25105,0
59.5486,-49.8488,-1.25152,0
59.5326,-49.7403,-1.2517,0
59.5141,-49.6321,-1.25159,0
59.4932,-49.5245,-1.25119,0
59.4699,-49.4174,-1.25049,0
59.4442,-49.3109,-1.24952,0
59.4162,-49.2051,-1.24826,0
59.3859,-49.1,-1.2467,0
59.3502,-48.9966,-1.2453,0
59.3086,-48.8952,-1.24416,0
59.2648,-48.795,-1.24275,0
59.2187,-48.6961,-1.24107,0
59.1705,-48.5983,-1.23914,0
59.1202,-48.502,-1.23694,0
59.0683,-48.4068,-1.23443,0
59.0206,-48.3101,-1.23068,0
58.9707,-48.2146,-1.22669,0
58.9187,-48.1204,-1.22244,0
58.8645,-48.0276,-1.21796,0
58.8081,-47.9361,-1.21324,0
58.7498,-47.846,-1.20829,0
58.6895,-47.7574,-1.20311,0
58.627,-47.6703,-1.19771,0
58.5628,-47.5848,-1.19208,0
58.4966,-47.501,-1.18623,0
58.4343,-47.4145,-1.17907,0
58.3735,-47.3268,-1.17102,0
58.3106,-47.2405,-1.16272,0
58.2457,-47.1556,-1.15418,0
58.1788,-47.0722,-1.1454,0
58.11,-46.9902,-1.13639,0
58.0392,-46.9099,-1.12716,0
57.9666,-46.8311,-1.1177,0
57.8921,-46.754,-1.10804,0
57.8159,-46.6786,-1.09815,0
57.7378,-46.6049,-1.08805,0
57.658,-46.533,-1.07777,0
56.4713,-55.3681,-0.712682,0
56.578,-55.3293,-0.725851,0
56.6838,-55.2875,-0.739128,0
56.7884,-55.2427,-0.752487,0
56.8916,-55.1949,-0.765934,0
56.9936,-55.1443,-0.779445,0
57.094,-55.0908,-0.793014,0
57.1929,-55.0345,-0.806628,0
57.2902,-54.9754,-0.82027,0
57.3857,-54.9136,-0.833942,0
57.4795,-54.8491,-0.847624,0
57.5713,-54.782,-0.861291,0
57.6612,-54.7124,-0.874943,0
57.7491,-54.6403,-0.888576,0
57.8349,-54.5659,-0.90216,0
57.9184,-54.489,-0.915705,0
57.9998,-54.41,-0.929172,0
58.0788,-54.3287,-0.94257,0
58.1555,-54.2454,-0.95589,0
58.2298,-54.16,-0.969103,0
58.3016,-54.0727,-0.982214,0
58.3708,-53.9835,-0.995207,0
58.4374,-53.8926,-1.00807,0
58.5015,-53.8,-1.02079,0
58.563,-53.7058,-1.03337,0
58.6217,-53.6101,-1.04578,0
58.6777,-53.513,-1.05802,0
58.7309,-53.4146,-1.07009,0
58.7862,-53.3181,-1.08102,0
58.8471,-53.2252,-1.09021,0
58.9055,-53.1309,-1.09922,0
58.9616,-53.0351,-1.10805,0
59.0154,-52.9379,-1.1167,0
59.0666,-52.8394,-1.12515,0
59.1155,-52.7397,-1.13341,0
59.1616,-52.6389,-1.14145,0
59.2054,-52.5369,-1.14928,0
59.2466,-52.4339,-1.1569,0
59.2852,-52.3299,-1.16429,0
59.3212,-52.2251,-1.17147,0
59.3545,-52.1194,-1.17842,0
59.3853,-52.013,-1.18513,0
59.4134,-51.906,-1.19161,0
59.4387,-51.7983,-1.19784,0
59.4615,-51.6902,-1.20383,0
59.4815,-51.5816,-1.20957,0
59.4988,-51.4726,-1.21506,0
59.5138,-51.3634,-1.22024,0
59.533,-51.255,-1.2242,0
59.5498,-51.1462,-1.22788,0
59.5641,-51.0371,-1.23128,0
59.5759,-50.9276,-1.2344,0
59.5846,-50.8179,-1.23735,0
56.3659,-55.2042,-0.713747,0
56.4691,-55.1675,-0.726418,0
56.5713,-55.128,-0.739186,0
56.6725,-55.0857,-0.752048,0
56.7725,-55.0405,-0.765002,0
56.8711,-54.9925,-0.778005,0
56.9684,-54.9418,-0.791081,0
57.0644,-54.8884,-0.804196,0
57.1587,-54.8323,-0.817336,0
57.2514,-54.7736,-0.830514,0
57.3424,-54.7123,-0.843703,0
57.4317,-54.6485,-0.856887,0
57.5191,-54.5823,-0.870065,0
57.6046,-54.5137,-0.883215,0
57.688,-54.4427,-0.89634,0
57.7695,-54.3695,-0.909416,0
57.8488,-54.2941,-0.922433,0
57.9259,-54.2166,-0.935383,0
58.0009,-54.1371,-0.948259,0
58.0734,-54.0555,-0.961047,0
58.1437,-53.9721,-0.973737,0
58.2116,-53.8869,-0.98632,0
58.277,-53.8,-0.998776,0
58.3399,-53.7114,-1.01111,0
58.4003,-53.6213,-1.02331,0
58.4581,-53.5296,-1.03535,0
58.5135,-53.4366,-1.04724,0
58.5674,-53.3432,-1.05869,0
58.6292,-53.2553,-1.0678,0
58.6887,-53.1659,-1.07675,0
58.7462,-53.0751,-1.08553,0
58.8012,-52.9828,-1.09415,0
58.8541,-52.8892,-1.10258,0
58.9045,-52.7943,-1.11083,0
58.9525,-52.6981,-1.11888,0
58.9982,-52.6009,-1.12674,0
59.0414,-52.5025,-1.1344,0
59.0822,-52.4031,-1.14185,0
59.1205,-52.3028,-1.14909,0
59.1562,-52.2016,-1.15612,0
59.1895,-52.0996,-1.16293,0
59.2202,-51.9969,-1.16951,0
59.2484,-51.8935,-1.17587,0
59.274,-51.7895,-1.18199,0
59.297,-51.6849,-1.18789,0
59.3174,-51.5799,-1.19355,0
59.3405,-51.4756,-1.19817,0
59.3622,-51.371,-1.20237,0
59.3816,-51.2659,-1.20631,0
59.3987,-51.1604,-1.20997,0
59.4133,-51.0545,-1.21336,0
59.4255,-50.9483,-1.21648,0
59.4351,-50.8419,-1.21939,0
59.4412,-50.7351,-1.22215,0
59.4451,-50.6283,-1.22462,0
59.4466,-50.5215,-1.22682,0
59.4457,-50.4147,-1.22874,0
59.4423,-50.3079,-1.23038,0
59.4366,-50.2013,-1.23173,0
59.4286,-50.0949,-1.2328,0
59.4181,-49.9888,-1.2336,0
59.4053,-49.8829,-1.2341,0
59.3902,-49.7774,-1.23433,0
59.3727,-49.6723,-1.23428,0
59.3528,-49.5677,-1.23395,0
59.3307,-49.4636,-1.23334,0
59.3062,-49.36,-1.23243,0
59.2795,-49.2571,-1.23126,0
59.2502,-49.155,-1.22986,0
59.2127,-49.0553,-1.22909,0
59.1728,-48.9567,-1.22805,0
59.1309,-48.8592,-1.22675,0
59.0869,-48.7628,-1.22521,0
59.0407,-48.6677,-1.22341,0
58.9926,-48.5738,-1.22134,0
58.9423,-48.4812,-1.21904,0
58.8917,-48.3893,-1.21624,0
58.8438,-48.2965,-1.21241,0
58.7938,-48.2048,-1.20835,0
58.7417,-48.1145,-1.20405,0
58.6876,-48.0255,-1.19953,0
58.6314,-47.9378,-1.19478,0
58.5733,-47.8516,-1.18981,0
58.5133,-47.7668,-1.18461,0
58.4513,-47.6835,-1.17921,0
58.3876,-47.6018,-1.17358,0
58.3278,-47.5173,-1.16659,0
58.269,-47.4322,-1.15879,0
58.2081,-47.3483,-1.15077,0
58.1454,-47.2657,-1.14251,0
58.0807,-47.1846,-1.13402,0
58.0141,-47.1049,-1.12529,0
