54.3554,-38.4368,-0.530641,0
54.4109,-38.242,-0.529469,0
54.4634,-38.0459,-0.527966,0
54.5128,-37.8485,-0.5261,0
54.5592,-37.6497,-0.523884,0
54.6027,-37.4496,-0.521315,0
54.643,-37.2482,-0.518395,0
40.2445,-45.3931,0.329339,174
40.341,-45.6987,0.346712,0
41.5833,-43.9939,0.0423548,174
41.7977,-44.0078,0.0197161,174
41.948,-44.1395,0.0161829,174
42.0899,-44.294,0.0163623,174
42.2677,-44.3772,0.00618023,174
42.3786,-44.6195,0.0195293,174
42.5044,-44.8466,0.0303991,174
42.3445,-45.8727,0.152295,174
42.6312,-45.737,0.11119,174
42.6343,-46.4644,0.187775,174
42.8526,-46.5663,0.179334,174
43.2909,-45.8486,0.0647783,174
43.4862,-45.9775,0.0624974,174
43.6738,-46.1593,0.06723,174
43.6352,-47.5425,0.221395,0
43.8803,-47.6294,0.21264,0
44.1284,-47.7102,0.203734,0
44.3794,-47.7849,0.194686,0
44.6329,-47.8534,0.185496,0
44.9893,-46.6001,0.0233645,174
45.2322,-46.371,-0.0169184,174
45.4564,-46.3976,-0.0268908,174
45.68,-46.6101,-0.0154167,174
45.9305,-47.9157,0.117508,0
46.1889,-47.8701,0.0996809,0
46.4452,-47.8185,0.0820148,0
46.6994,-47.761,0.0645148,0
46.9512,-47.6978,0.0471955,0
47.2006,-47.6288,0.030052,0
47.4475,-47.5542,0.0131232,0
47.6906,-47.4684,-0.00421562,0
47.5716,-45.6011,-0.205435,174
47.72,-45.3021,-0.242033,174
47.884,-45.1143,-0.266361,174
48.1076,-45.1681,-0.26535,174
48.824,-46.8471,-0.0990105,0
49.0379,-46.7113,-0.116852,0
49.2476,-46.572,-0.134308,0
49.4528,-46.4293,-0.151384,0
49.6537,-46.2834,-0.168073,0
49.8503,-46.1344,-0.184382,0
50.0425,-45.9823,-0.200319,0
50.2257,-45.818,-0.216804,0
50.4012,-45.6454,-0.233449,0
50.5719,-45.4711,-0.249636,0
50.7378,-45.2952,-0.265348,0
50.8991,-45.1177,-0.280597,0
51.0557,-44.9389,-0.295387,0
51.2078,-44.7587,-0.309723,0
51.3553,-44.5773,-0.32361,0
51.4983,-44.3947,-0.337053,0
50.369,-42.5724,-0.5198,174
51.7711,-44.0264,-0.362629,0
51.9009,-43.8407,-0.374777,0
52.0265,-43.6543,-0.386476,0
52.1479,-43.4672,-0.397761,0
52.2755,-43.2899,-0.407468,0
52.3993,-43.1114,-0.416774,0
52.5194,-42.9318,-0.42571,0
52.6326,-42.748,-0.434606,0
52.7375,-42.5596,-0.443561,0
52.8387,-42.3706,-0.452106,0
52.9365,-42.1813,-0.460241,0
53.0307,-41.9916,-0.467956,0
53.1214,-41.8016,-0.47529,0
53.2087,-41.6112,-0.482214,0
53.2927,-41.4205,-0.488747,0
53.3732,-41.2294,-0.494889,0
53.4504,-41.038,-0.500661,0
53.5358,-40.8526,-0.505114,0
53.621,-40.6678,-0.508971,0
53.7034,-40.4821,-0.512477,0
53.7827,-40.2954,-0.515612,0
53.8593,-40.1077,-0.518386,0
53.9329,-39.9191,-0.520807,0
54.0037,-39.7295,-0.522868,0
54.0715,-39.539,-0.524567,0
54.1292,-39.345,-0.526442,0
54.182,-39.1499,-0.528093,0
54.2317,-38.9542,-0.529401,0
54.2781,-38.7579,-0.530368,0
54.3212,-38.5609,-0.531003,0
54.3758,-38.3664,-0.530251,0
54.4302,-38.1712,-0.528962,0
54.4816,-37.9746,-0.527331,0
54.53,-37.7767,-0.525339,0
54.5753,-37.5774,-0.523005,0
54.6176,-37.3768,-0.5203,0
40.1609,-45.2414,0.325229,174
40.2189,-45.6,0.351634,0
41.4472,-43.9794,0.0564676,174
41.6876,-43.9518,0.026561,174
41.856,-44.0474,0.0171537,174
41.9811,-44.2315,0.0217113,174
42.1619,-44.3078,0.0101707,174
42.3212,-44.4321,0.00625198,174
42.4176,-44.7155,0.0254681,174
42.5512,-44.9309,0.0345596,174
42.4898,-45.7114,0.121693,174
42.6883,-45.8205,0.114738,174
42.7168,-46.4894,0.183061,174
43.1109,-45.9693,0.0930711,174
43.3671,-45.8725,0.0609658,174
43.5535,-46.0429,0.064142,174
43.6932,-46.4648,0.099045,174
43.7236,-47.5746,0.21824,0
43.9699,-47.6594,0.209432,0
44.219,-47.738,0.200472,0
44.4709,-47.8104,0.19137,0
44.7253,-47.8766,0.182137,0
45.0831,-46.451,0.0009692,174
45.3272,-46.0724,-0.0558263,174
45.5369,-46.4462,-0.0259529,174
45.7647,-47.9416,0.128958,0
46.0243,-47.8999,0.111033,0
46.282,-47.8521,0.09326,0
46.5375,-47.7984,0.0756525,0
46.7909,-47.7388,0.0582111,0
47.0419,-47.6734,0.040965,0
47.2904,-47.6024,0.0238996,0
47.5363,-47.5258,0.0070295,0
47.4961,-45.929,-0.167313,174
47.6455,-45.5815,-0.209623,174
47.7753,-45.2135,-0.25305,174
47.9585,-45.1111,-0.268365,174
48.3063,-45.5975,-0.223164,174
48.902,-46.7983,-0.105519,0
49.1144,-46.6613,-0.12322,0
49.3223,-46.5207,-0.140534,0
49.5261,-46.3769,-0.157472,0
49.7255,-46.2298,-0.17403,0
49.9204,-46.0797,-0.190197,0
50.111,-45.9266,-0.205988,0
50.2898,-45.7557,-0.222887,0
50.4635,-45.5824,-0.239372,0
50.6324,-45.4075,-0.255378,0
50.7967,-45.2311,-0.27092,0
50.9563,-45.0531,-0.286008,0
51.1113,-44.8738,-0.300637,0
51.2617,-44.6931,-0.314806,0
51.4076,-44.5113,-0.328537,0
50.3854,-42.7781,-0.501608,174
51.686,-44.1443,-0.354665,0
51.8186,-43.9592,-0.367082,0
51.9469,-43.7733,-0.379054,0
52.0709,-43.5865,-0.390627,0
52.1945,-43.4031,-0.401315,0
52.3207,-43.2254,-0.410876,0
52.4433,-43.0465,-0.420055,0
52.562,-42.8664,-0.428854,0
52.671,-42.6799,-0.437887,0
52.7746,-42.4912,-0.446706,0
52.8746,-42.3021,-0.455095,0
52.971,-42.1127,-0.463083,0
53.064,-41.9229,-0.470661,0
53.1535,-41.7327,-0.477839,0
53.2395,-41.5422,-0.484626,0
53.3222,-41.3513,-0.491022,0
53.4016,-41.1601,-0.497028,0
53.4798,-40.97,-0.502468,0
53.567,-40.7858,-0.506559,0
53.6512,-40.6007,-0.51029,0
53.7324,-40.4146,-0.513659,0
53.8108,-40.2275,-0.516667,0
53.8862,-40.0395,-0.519304,0
53.9589,-39.8505,-0.521589,0
54.0285,-39.6606,-0.523512,0
54.0938,-39.4691,-0.525212,0
54.1488,-39.2745,-0.527077,0
54.2005,-39.0791,-0.52861,0
54.2489,-38.8832,-0.529792,0
54.2941,-38.6866,-0.530641,0
54.3396,-38.4902,-0.530895,0
54.3959,-38.2959,-0.529831,0
54.4491,-38.1001,-0.528415,0
54.4995,-37.9031,-0.526647,0
54.5467,-37.7047,-0.524538,0
54.591,-37.5049,-0.522057,0
54.6322,-37.3038,-0.519235,0
43.4483,-45.813,0.116844,174
43.64,-45.9559,0.117461,174
43.6771,-46.8869,0.222654,0
43.9132,-46.9376,0.210389,0
44.1502,-46.9844,0.198309,0
44.3848,-47.0541,0.189857,0
44.6216,-47.1181,0.181273,0
44.8607,-47.1762,0.172567,0
45.1561,-46.3425,0.0552342,174
45.3959,-45.9392,-0.00691864,174
45.6027,-46.4615,0.0436354,174
45.8352,-47.2175,0.121278,0
46.0785,-47.1962,0.106517,0
46.3209,-47.1685,0.0917805,0
46.5612,-47.1263,0.0761311,0
46.7994,-47.0709,0.0597395,0
47.0353,-47.0101,0.0435188,0
47.2689,-46.9439,0.0274787,0
47.5001,-46.8725,0.0116193,0
47.5152,-45.6944,-0.126617,174
47.6728,-45.4194,-0.162795,174
47.8184,-45.1405,-0.198504,174
48.018,-45.1069,-0.206488,174
48.5842,-46.3288,-0.0769012,0
48.7888,-46.205,-0.0939861,0
48.9896,-46.0778,-0.11072,0
49.1862,-45.9472,-0.127096,0
49.379,-45.8133,-0.143132,0
49.5677,-45.6763,-0.158805,0
49.7523,-45.5363,-0.174128,0
49.933,-45.3934,-0.189094,0
50.1095,-45.2477,-0.203703,0
50.2752,-45.0866,-0.219333,0
50.436,-44.9231,-0.234592,0
50.5927,-44.7579,-0.249416,0
50.7448,-44.5912,-0.26381,0
50.8927,-44.4231,-0.277775,0
51.0363,-44.2535,-0.29132,0
51.1757,-44.0826,-0.30444,0
50.327,-42.6176,-0.462411,174
51.4419,-43.7373,-0.32944,0
51.5688,-43.5629,-0.341335,0
51.6959,-43.3924,-0.352253,0
51.8238,-43.226,-0.362165,0
51.9482,-43.0582,-0.371716,0
52.0691,-42.8891,-0.380895,0
52.1864,-42.7188,-0.389694,0
52.3002,-42.5474,-0.398141,0
52.4104,-42.3747,-0.406218,0
52.5171,-42.201,-0.413932,0
52.6183,-42.0244,-0.42153,0
52.7112,-41.8434,-0.429235,0
52.8006,-41.6619,-0.436559,0
52.8868,-41.48,-0.443483,0
52.9697,-41.2976,-0.450046,0
53.0493,-41.1149,-0.456208,0
53.1304,-40.9346,-0.461559,0
53.2167,-40.7582,-0.465817,0
53.3002,-40.5809,-0.469704,0
53.3808,-40.4026,-0.473239,0
53.4585,-40.2234,-0.476423,0
53.5327,-40.0428,-0.479323,0
53.5976,-39.8587,-0.482389,0
53.6592,-39.6739,-0.485134,0
53.7178,-39.4883,-0.487526,0
53.7732,-39.3021,-0.489596,0
53.8253,-39.1153,-0.491335,0
53.8744,-38.9278,-0.492741,0
53.9202,-38.7396,-0.493815,0
53.963,-38.5509,-0.494548,0
54.0167,-38.3647,-0.493845,0
54.0693,-38.1775,-0.492673,0
54.1191,-37.9892,-0.491149,0
54.1659,-37.7995,-0.489294,0
54.2096,-37.6086,-0.487087,0
54.2505,-37.4164,-0.484528,0
54.2883,-37.223,-0.481618,0
40.4474,-45.0761,0.348914,0
41.2993,-44.0946,0.148037,174
41.6259,-43.9246,0.0922321,174
41.8145,-43.9829,0.0764721,174
41.97,-44.1029,0.0714653,174
42.0986,-44.2831,0.0763733,174
42.2782,-44.3616,0.0655013,174
42.3983,-44.5812,0.0767043,174
42.5175,-44.8227,0.0910028,174
42.4305,-45.6495,0.191034,174
42.6371,-45.7312,0.18027,174
42.626,-46.5037,0.268256,174
43.5591,-44.1503,-0.0832742,174
43.3157,-45.7697,0.12318,174
43.5177,-45.8629,0.116788,174
43.7079,-46.02,0.119412,174
43.7625,-46.9059,0.218216,0
43.999,-46.9546,0.205941,0
44.2349,-47.0103,0.195267,0
44.4703,-47.078,0.186761,0
44.708,-47.1398,0.178133,0
44.992,-46.6137,0.0975659,174
45.2559,-45.9945,0.00787552,174
45.4723,-45.9891,-0.00534645,174
45.6841,-46.5551,0.0503611,174
45.9234,-47.2106,0.115931,0
46.1664,-47.1869,0.10118,0
46.4083,-47.157,0.0864582,0
46.6477,-47.1068,0.0701789,0
46.885,-47.0495,0.053841,0
47.1202,-46.9867,0.0376887,0
47.353,-46.9187,0.021717,0
47.5833,-46.8454,0.00591621,0
47.5781,-45.6168,-0.137387,174
47.7114,-45.2504,-0.183345,174
47.8833,-45.0994,-0.204645,174
48.1021,-45.1366,-0.204658,174
48.6588,-46.2844,-0.0831268,0
48.862,-46.1593,-0.100085,0
49.0612,-46.0309,-0.116691,0
49.2566,-45.8991,-0.132951,0
49.4477,-45.764,-0.148849,0
49.6351,-45.6259,-0.164396,0
49.8182,-45.4849,-0.179592,0
49.9973,-45.3409,-0.19443,0
50.1702,-45.1899,-0.209377,0
50.3339,-45.0275,-0.224914,0
50.4933,-44.8635,-0.240016,0
50.6482,-44.6977,-0.254679,0
50.7988,-44.5305,-0.268918,0
50.9452,-44.3618,-0.282731,0
51.0873,-44.1917,-0.296125,0
51.2252,-44.0204,-0.309094,0
50.3534,-42.5492,-0.468014,174
51.4884,-43.6742,-0.333791,0
51.6138,-43.4995,-0.345534,0
51.7426,-43.3322,-0.355895,0
51.8693,-43.1654,-0.365666,0
51.9923,-42.9971,-0.375085,0
52.112,-42.8276,-0.384128,0
52.228,-42.6569,-0.39279,0
52.3405,-42.485,-0.4011,0
52.4495,-42.3119,-0.40905,0
52.555,-42.1378,-0.416637,0
52.6523,-41.9589,-0.424372,0
52.7439,-41.7777,-0.43193,0
52.8322,-41.596,-0.439108,0
52.9172,-41.414,-0.445905,0
52.9988,-41.2315,-0.452321,0
53.0773,-41.0486,-0.458356,0
53.162,-40.8708,-0.463141,0
53.2473,-40.6941,-0.467262,0
53.3297,-40.5164,-0.471032,0
53.4092,-40.3378,-0.47443,0
53.486,-40.1582,-0.477487,0
53.5566,-39.9762,-0.480475,0
53.6202,-39.7918,-0.483425,0
53.6808,-39.6067,-0.486042,0
53.7382,-39.421,-0.488317,0
53.7924,-39.2345,-0.49027,0
53.8434,-39.0474,-0.491882,0
53.8913,-38.8597,-0.493161,0
53.936,-38.6714,-0.494118,0
53.9816,-38.4833,-0.49443,0
54.0361,-38.297,-0.493464,0
54.0877,-38.1095,-0.492155,0
54.1363,-37.9206,-0.490514,0
54.182,-37.7305,-0.488532,0
54.2248,-37.5391,-0.486198,0
54.2645,-37.3465,-0.483522,0
40.3326,-44.9828,0.353797,0
40.5133,-45.1285,0.346126,0
41.4738,-43.94,0.111679,174
41.7074,-43.9223,0.0825222,174
41.8727,-44.0224,0.0739674,174
42.0067,-44.1867,0.0762221,174
42.1713,-44.2952,0.0697945,174
42.3321,-44.4154,0.0656152,174
42.4308,-44.6922,0.0854843,174
42.5675,-44.8979,0.0942902,174
42.5255,-45.6226,0.178809,174
42.6921,-45.8207,0.185125,174
42.7143,-46.511,0.261014,174
43.6178,-44.1837,-0.0846614,174
43.3935,-45.7845,0.118218,174
43.587,-45.9151,0.117082,174
43.7763,-46.0851,0.121513,174
43.848,-46.9242,0.213773,0
44.085,-46.9708,0.201487,0
44.3199,-47.0355,0.192196,0
44.5561,-47.1011,0.183651,0
44.7946,-47.1607,0.174974,0
45.0888,-46.4216,0.0687495,174
45.3373,-45.9255,-0.00514385,174
45.5413,-46.4137,0.0413334,174
45.768,-47.2223,0.125345,0
46.0115,-47.2027,0.110589,0
46.2541,-47.1768,0.095843,0
46.4953,-47.1406,0.0806721,0
46.7339,-47.0867,0.0642316,0
46.9705,-47.0274,0.0479719,0
47.2047,-46.9627,0.0318781,0
47.4366,-46.8927,0.015965,0
47.5016,-45.9401,-0.097551,174
47.651,-45.5923,-0.142162,174
47.7707,-45.1803,-0.192838,174
47.9583,-45.0985,-0.20629,174
48.2108,-45.2501,-0.193601,174
48.7328,-46.2395,-0.0893133,0
48.9346,-46.1132,-0.106139,0
49.1324,-45.9835,-0.122614,0
49.3263,-45.8505,-0.138747,0
49.5161,-45.7144,-0.154513,0
49.7019,-45.5752,-0.169943,0
49.8835,-45.4331,-0.185007,0
50.0612,-45.2881,-0.199719,0
50.23,-45.1313,-0.215051,0
50.3922,-44.9683,-0.230427,0
50.5499,-44.8036,-0.245373,0
50.7034,-44.6373,-0.259889,0
50.8524,-44.4696,-0.273967,0
50.9972,-44.3004,-0.287629,0
51.1377,-44.1298,-0.300871,0
50.3109,-42.6756,-0.457445,174
50.4245,-42.5386,-0.467039,174
51.5342,-43.611,-0.338097,0
51.6599,-43.438,-0.34946,0
51.7889,-43.272,-0.359474,0
51.9143,-43.1046,-0.369123,0
52.0361,-42.9359,-0.378395,0
52.1544,-42.7659,-0.387302,0
52.2691,-42.5947,-0.395846,0
52.3804,-42.4224,-0.40402,0
52.4881,-42.249,-0.411843,0
52.592,-42.0742,-0.419333,0
52.6859,-41.8933,-0.427145,0
52.7762,-41.712,-0.434577,0
52.8634,-41.5302,-0.441608,0
52.9471,-41.3479,-0.448278,0
53.0277,-41.1653,-0.454548,0
53.1062,-40.983,-0.460339,0
53.1932,-40.8069,-0.464675,0
53.2774,-40.6299,-0.468669,0
53.3588,-40.4518,-0.472302,0
53.4373,-40.2729,-0.475583,0
53.513,-40.0929,-0.478512,0
53.58,-39.9095,-0.481579,0
53.6426,-39.7249,-0.484411,0
53.702,-39.5396,-0.486901,0
53.7582,-39.3535,-0.489059,0
53.8112,-39.1668,-0.490895,0
53.8612,-38.9795,-0.49238,0
53.9079,-38.7916,-0.493552,0
53.9515,-38.603,-0.494382,0
54.0016,-38.416,-0.494118,0
54.0551,-38.2292,-0.493034,0
54.1057,-38.0412,-0.491608,0
54.1532,-37.8519,-0.489831,0
54.1979,-37.6613,-0.487721,0
54.2396,-37.4695,-0.48527,0
54.2782,-37.2764,-0.482458,0
43.4814,-45.6958,0.168851,174
43.6651,-45.8613,0.173588,174
43.8359,-46.1192,0.191458,174
44.0176,-46.3732,0.208675,0
44.242,-46.4156,0.197064,0
44.4673,-46.4527,0.185418,0
44.693,-46.4907,0.174598,0
44.918,-46.5434,0.166395,0
45.1615,-46.3161,0.122504,174
45.4003,-45.9186,0.0581113,174
45.6068,-46.4414,0.11249,174
45.8339,-46.5754,0.117288,0
46.0625,-46.5564,0.103431,0
46.2902,-46.5314,0.089593,0
46.5169,-46.5006,0.0757795,0
46.7423,-46.4639,0.0620051,0
46.9663,-46.4215,0.0482746,0
47.1888,-46.3733,0.0346027,0
47.4079,-46.3095,0.0198127,0
47.5216,-45.7102,-0.057747,174
47.658,-45.3364,-0.107322,174
47.8159,-45.1172,-0.137717,174
48.0177,-45.0939,-0.144372,174
48.4396,-45.8205,-0.0629461,0
48.6344,-45.7061,-0.0792156,0
48.8255,-45.5882,-0.0951678,0
49.0131,-45.467,-0.110793,0
49.1968,-45.3427,-0.126091,0
49.377,-45.2152,-0.141061,0
49.5532,-45.0847,-0.155705,0
49.7258,-44.9514,-0.170016,0
49.8945,-44.8153,-0.183996,0
50.0596,-44.6766,-0.197638,0
50.2166,-44.5279,-0.211823,0
50.3671,-44.3731,-0.226095,0
50.5137,-44.2167,-0.239968,0
50.6561,-44.0588,-0.253434,0
50.7945,-43.8993,-0.266496,0
50.9289,-43.7385,-0.279162,0
50.3097,-42.5916,-0.411003,174
51.1886,-43.4163,-0.302912,0
51.3191,-43.2611,-0.313249,0
51.4462,-43.1043,-0.323224,0
51.5698,-42.9461,-0.332848,0
51.6901,-42.7866,-0.342116,0
51.8067,-42.6257,-0.351012,0
51.9202,-42.4635,-0.359557,0
52.0302,-42.3001,-0.367761,0
52.1368,-42.1355,-0.375612,0
52.2401,-41.9698,-0.383112,0
52.3399,-41.8029,-0.39028,0
52.4366,-41.635,-0.397087,0
52.5299,-41.4661,-0.403561,0
52.6177,-41.2946,-0.409938,0
52.6984,-41.1199,-0.416354,0
52.7797,-40.947,-0.422038,0
52.8661,-40.7783,-0.42653,0
52.9478,-40.6075,-0.430846,0
53.023,-40.434,-0.435173,0
53.0952,-40.2596,-0.439167,0
53.1642,-40.0844,-0.442819,0
53.2301,-39.9084,-0.446159,0
53.2929,-39.7317,-0.449157,0
53.3526,-39.5543,-0.451833,0
53.4092,-39.3762,-0.454177,0
53.4627,-39.1974,-0.456198,0
53.5132,-39.0179,-0.457897,0
53.5605,-38.8378,-0.459274,0
53.6048,-38.6571,-0.460319,0
53.6502,-38.4768,-0.46068,0
53.7033,-38.2979,-0.459821,0
53.7534,-38.1179,-0.45862,0
53.8006,-37.9366,-0.457096,0
53.8449,-37.7542,-0.455241,0
53.8864,-37.5705,-0.453044,0
53.9249,-37.3857,-0.450514,0
53.9605,-37.1997,-0.447643,0
40.7168,-44.6525,0.343568,0
41.4012,-43.9295,0.181594,174
41.6484,-43.891,0.147338,174
41.8312,-43.9581,0.132942,174
41.9858,-44.0784,0.128317,174
42.1072,-44.2725,0.136362,174
42.2886,-44.3461,0.124684,174
42.4123,-44.5562,0.135531,174
42.5305,-44.7988,0.151355,174
42.4641,-45.5687,0.248466,174
42.641,-45.7311,0.250243,174
42.7777,-46.0358,0.273543,0
43.5734,-44.1118,-0.0319397,174
43.7252,-44.2415,-0.0297943,174
43.5425,-45.7755,0.173361,174
43.7353,-45.9111,0.173924,174
43.8751,-46.3434,0.216077,0
44.0987,-46.3892,0.204466,0
44.3234,-46.4297,0.192845,0
44.5491,-46.4648,0.181195,0
44.7742,-46.5104,0.171639,0
44.9999,-46.5611,0.163397,0
45.261,-45.9647,0.0721508,174
45.4768,-45.955,0.0583131,174
45.6881,-46.5185,0.117801,174
45.9168,-46.5692,0.112264,0
46.1451,-46.548,0.0984211,0
46.3725,-46.5209,0.0845832,0
46.5987,-46.488,0.0707893,0
46.8236,-46.4492,0.0570295,0
47.047,-46.4047,0.0433234,0
47.2686,-46.352,0.0293732,0
47.4866,-46.2846,0.0144221,0
47.5854,-45.6369,-0.0684784,174
47.7052,-45.2091,-0.124072,174
47.8837,-45.0882,-0.14261,174
48.0997,-45.1165,-0.143003,174
48.5105,-45.7795,-0.0688787,0
48.7041,-45.6638,-0.085031,0
48.8939,-45.5447,-0.100861,0
49.0801,-45.4223,-0.116369,0
49.2625,-45.2968,-0.131554,0
49.4412,-45.1683,-0.146403,0
49.6162,-45.0368,-0.160925,0
49.7874,-44.9025,-0.175114,0
49.9548,-44.7654,-0.188981,0
50.1184,-44.6257,-0.202507,0
50.2716,-44.472,-0.217038,0
50.4207,-44.3167,-0.231164,0
50.5656,-44.1597,-0.244889,0
50.7066,-44.0012,-0.25821,0
50.8437,-43.8412,-0.271125,0
50.2958,-42.758,-0.394966,174
50.3469,-42.5377,-0.415129,174
51.2363,-43.3603,-0.306696,0
51.3655,-43.2045,-0.316906,0
51.4914,-43.0472,-0.326755,0
51.6138,-42.8885,-0.336247,0
51.7327,-42.7285,-0.345378,0
51.8482,-42.5671,-0.354157,0
51.9604,-42.4045,-0.362565,0
52.0691,-42.2407,-0.370641,0
52.1745,-42.0756,-0.378366,0
52.2766,-41.9095,-0.385739,0
52.3753,-41.7422,-0.39278,0
52.4708,-41.5739,-0.399479,0
52.5629,-41.4046,-0.405827,0
52.6473,-41.2314,-0.412302,0
52.7269,-41.0565,-0.418591,0
52.8112,-40.886,-0.423698,0
52.8966,-40.7169,-0.428063,0
52.9754,-40.5448,-0.432448,0
53.0495,-40.3709,-0.436657,0
53.1205,-40.1962,-0.440534,0
53.1884,-40.0208,-0.444069,0
53.2532,-39.8446,-0.447272,0
53.3149,-39.6676,-0.450163,0
53.3735,-39.4899,-0.452721,0
53.429,-39.3115,-0.454948,0
53.4814,-39.1324,-0.456852,0
53.5307,-38.9527,-0.458434,0
53.5769,-38.7724,-0.459694,0
53.62,-38.5915,-0.460622,0
53.6698,-38.4121,-0.460407,0
53.7217,-38.2329,-0.459421,0
53.7709,-38.0524,-0.458112,0
53.817,-37.8707,-0.456471,0
53.8603,-37.6878,-0.454489,0
53.9007,-37.5037,-0.452175,0
53.9381,-37.3184,-0.449518,0
40.6073,-44.5645,0.348211,0
40.7796,-44.7019,0.340911,0
41.5002,-43.901,0.166395,174
41.7228,-43.9009,0.139507,174
41.8892,-43.9974,0.130495,174
42.0321,-44.1424,0.130187,174
42.1806,-44.2826,0.129324,174
42.3424,-44.3997,0.124984,174
42.4439,-44.6689,0.145255,174
42.5804,-44.8736,0.154984,174
42.528,-45.6263,0.248898,174
42.644,-45.9776,0.2793,0
42.8559,-46.0625,0.269422,0
43.6287,-44.1559,-0.0316104,174
43.8144,-44.1588,-0.0476959,174
43.6121,-45.8236,0.173383,174
43.799,-45.9943,0.179002,174
43.9559,-46.3606,0.211878,0
44.18,-46.4045,0.200267,0
44.4051,-46.443,0.188631,0
44.6312,-46.4762,0.176981,0
44.8557,-46.5294,0.168665,0
45.0935,-46.4073,0.138175,174
45.3415,-45.9107,0.0605468,174
45.553,-46.0359,0.0642397,174
45.7708,-46.5795,0.121107,0
45.9996,-46.5622,0.107244,0
46.2276,-46.5389,0.0934016,0
46.4545,-46.5097,0.0795881,0
46.6803,-46.4746,0.0657941,0
46.9047,-46.4338,0.0520539,0
47.1277,-46.3872,0.0383723,0
47.3478,-46.3281,0.0239338,0
47.5138,-45.9866,-0.0232961,174
47.6584,-45.6117,-0.0734047,174
47.7683,-45.1568,-0.131875,174
47.9582,-45.0858,-0.144295,174
48.2021,-45.2082,-0.133488,174
48.5811,-45.738,-0.0747576,0
48.7733,-45.621,-0.0908025,0
48.9617,-45.5008,-0.10652,0
49.1466,-45.3772,-0.121906,0
49.3277,-45.2506,-0.136965,0
49.5051,-45.121,-0.151701,0
49.6786,-44.9885,-0.1661,0
49.8485,-44.8531,-0.180168,0
50.0145,-44.7151,-0.193913,0
50.1744,-44.5702,-0.207824,0
50.326,-44.4159,-0.222204,0
50.4737,-44.26,-0.236179,0
50.6173,-44.1025,-0.249758,0
50.7568,-43.9434,-0.262936,0
50.8923,-43.783,-0.275715,0
50.2914,-42.6465,-0.40615,174
50.4187,-42.5281,-0.41378,174
51.2835,-43.304,-0.310441,0
51.4116,-43.1477,-0.320514,0
51.5361,-42.9899,-0.330231,0
51.6573,-42.8307,-0.339587,0
51.7749,-42.6702,-0.348591,0
51.8892,-42.5084,-0.357233,0
52.0002,-42.3453,-0.365544,0
52.1077,-42.181,-0.373483,0
52.212,-42.0156,-0.381081,0
52.3127,-41.849,-0.388337,0
52.4103,-41.6814,-0.395251,0
52.5045,-41.5128,-0.401813,0
52.5949,-41.3427,-0.408102,0
52.6766,-41.1681,-0.414626,0
52.7554,-40.9933,-0.420729,0
52.8425,-40.8249,-0.425319,0
52.9265,-40.6552,-0.429596,0
53.0027,-40.4819,-0.434011,0
53.0756,-40.3077,-0.438102,0
53.1455,-40.1328,-0.441852,0
53.2123,-39.957,-0.44527,0
53.2759,-39.7805,-0.448366,0
53.3365,-39.6033,-0.45113,0
53.3939,-39.4254,-0.453571,0
53.4483,-39.2467,-0.455671,0
53.4995,-39.0674,-0.457468,0
53.5477,-38.8875,-0.458923,0
53.5929,-38.707,-0.460065,0
53.6352,-38.5259,-0.460856,0
53.689,-38.3474,-0.460095,0
53.7398,-38.1676,-0.458991,0
53.7879,-37.9867,-0.457555,0
53.833,-37.8046,-0.455788,0
53.8752,-37.6213,-0.453688,0
53.9146,-37.4368,-0.451247,0
53.9509,-37.2511,-0.448473,0
43.8699,-44.1532,0.00362194,174
43.6899,-45.7675,0.228538,0
43.9002,-45.8187,0.217742,0
44.1116,-45.8648,0.206893,0
44.3241,-45.9057,0.196009,0
44.5377,-45.9415,0.185091,0
44.7523,-45.9714,0.174046,0
44.9676,-45.9962,0.162996,0
45.183,-46.0229,0.152904,0
45.4036,-45.9244,0.126541,174
45.6166,-46.0169,0.12681,0
45.8328,-46.0055,0.113743,0
46.0484,-45.9884,0.100687,0
46.2631,-45.9658,0.0876496,0
46.4769,-45.9379,0.0746467,0
46.6897,-45.9058,0.0618586,0
46.9014,-45.8686,0.0491389,0
47.1117,-45.8262,0.0364973,0
47.3208,-45.7787,0.0239436,0
47.5281,-45.7262,0.0114875,0
47.6543,-45.3047,-0.0465285,174
47.8153,-45.1021,-0.076127,174
48.0174,-45.0812,-0.0822896,174
48.3091,-45.362,-0.0503582,0
48.495,-45.2556,-0.0658904,0
48.6774,-45.146,-0.0811199,0
48.8565,-45.0331,-0.0960516,0
49.0322,-44.917,-0.110685,0
49.2044,-44.7979,-0.125007,0
49.373,-44.676,-0.13902,0
49.5382,-44.5511,-0.152731,0
49.6998,-44.4235,-0.166135,0
49.858,-44.2934,-0.179216,0
50.0125,-44.1606,-0.191994,0
50.1616,-44.0224,-0.204836,0
50.3027,-43.8751,-0.21822,0
50.4402,-43.7263,-0.231213,0
50.5737,-43.5759,-0.243825,0
50.7055,-43.4268,-0.255715,0
50.3005,-42.5764,-0.358568,174
50.4859,-42.533,-0.356341,174
51.0938,-42.9885,-0.286852,0
51.2166,-42.8393,-0.29653,0
51.3361,-42.6886,-0.305856,0
51.4523,-42.5365,-0.31485,0
51.5652,-42.3831,-0.323493,0
51.6749,-42.2283,-0.331804,0
51.7813,-42.0723,-0.339772,0
51.8845,-41.915,-0.347399,0
51.9845,-41.7566,-0.354694,0
52.0812,-41.5971,-0.361657,0
52.1748,-41.4364,-0.368288,0
52.2645,-41.2742,-0.374675,0
52.3506,-41.1108,-0.380768,0
52.435,-40.9474,-0.386384,0
52.5195,-40.785,-0.391315,0
52.6005,-40.6213,-0.395964,0
52.6764,-40.4555,-0.400495,0
52.7494,-40.2889,-0.404714,0
52.8192,-40.1214,-0.40861,0
52.8861,-39.9531,-0.412194,0
52.9499,-39.784,-0.415446,0
53.0108,-39.6142,-0.418376,0
53.0686,-39.4436,-0.420983,0
53.1234,-39.2723,-0.423278,0
53.1752,-39.1003,-0.425261,0
53.2239,-38.9277,-0.426921,0
53.2697,-38.7544,-0.428259,0
53.3124,-38.5805,-0.429294,0
53.3619,-38.4083,-0.429108,0
53.4125,-38.236,-0.428229,0
53.4602,-38.0625,-0.427038,0
53.5052,-37.8879,-0.425514,0
53.5473,-37.7121,-0.423659,0
53.5866,-37.5352,-0.421481,0
53.616,-37.3565,-0.419626,0
53.642,-37.177,-0.417458,0
40.9609,-44.2686,0.338719,0
41.4281,-43.8902,0.236225,174
41.6695,-43.8597,0.202448,174
41.8479,-43.9335,0.189133,174
42.0016,-44.054,0.184901,174
42.1157,-44.2619,0.196293,174
42.299,-44.3306,0.183736,174
42.4262,-44.5315,0.194117,174
42.5434,-44.775,0.211466,174
42.5439,-45.3614,0.284217,0
42.7356,-45.4648,0.277772,0
42.9383,-45.5391,0.267293,0
43.6214,-43.9569,0.00089901,174
43.7642,-44.106,0.00693886,174
43.6129,-45.4987,0.20027,174
43.7659,-45.7866,0.224632,0
43.9766,-45.836,0.213821,0
44.1884,-45.8802,0.202957,0
44.4014,-45.9193,0.192059,0
44.6153,-45.9529,0.181097,0
44.8302,-45.981,0.170047,0
45.0456,-46.004,0.158997,0
45.2642,-45.973,0.141316,174
45.4804,-45.9538,0.126036,174
45.695,-46.0134,0.122083,0
45.911,-46,0.109022,0
46.1262,-45.9809,0.0959699,0
46.3407,-45.9563,0.0829328,0
46.5541,-45.9268,0.070008,0
46.7665,-45.8929,0.0572395,0
46.9777,-45.8538,0.0445539,0
47.1876,-45.8096,0.0319416,0
47.396,-45.7603,0.0194172,0
47.5987,-45.6855,0.00443439,174
47.7114,-45.2224,-0.0584713,174
47.8841,-45.0775,-0.0805668,174
48.0973,-45.0964,-0.0815277,174
48.3768,-45.3239,-0.0560125,0
48.5614,-45.2163,-0.0714373,0
48.7427,-45.1055,-0.0865643,0
48.9205,-44.9914,-0.101384,0
49.0949,-44.8743,-0.115905,0
49.2659,-44.7541,-0.130119,0
49.4333,-44.6311,-0.144025,0
49.5972,-44.5052,-0.157619,0
49.7576,-44.3767,-0.170905,0
49.9144,-44.2456,-0.183879,0
50.0676,-44.112,-0.196535,0
50.2132,-43.9692,-0.209728,0
50.353,-43.8214,-0.222966,0
50.489,-43.672,-0.235822,0
50.6212,-43.5211,-0.248298,0
50.2619,-42.7088,-0.346022,174
50.3446,-42.5316,-0.361659,174
51.0137,-43.0829,-0.280485,0
51.1386,-42.9346,-0.290397,0
51.2602,-42.7849,-0.299948,0
51.3785,-42.6337,-0.309157,0
51.4936,-42.4811,-0.318014,0
51.6053,-42.3272,-0.32654,0
51.7138,-42.1719,-0.334723,0
51.8191,-42.0155,-0.342565,0
51.9211,-41.8578,-0.350075,0
52.0199,-41.699,-0.357253,0
52.1155,-41.539,-0.364098,0
52.2079,-41.3779,-0.370612,0
52.2961,-41.2151,-0.376921,0
52.3809,-41.0513,-0.382897,0
52.4659,-40.8887,-0.38821,0
52.5493,-40.7259,-0.393014,0
52.6283,-40.5614,-0.397643,0
52.7031,-40.3953,-0.402067,0
52.775,-40.2283,-0.406169,0
52.8438,-40.0605,-0.409948,0
52.9096,-39.8919,-0.413405,0
52.9723,-39.7226,-0.41654,0
53.032,-39.5524,-0.419362,0
53.0887,-39.3816,-0.421852,0
53.1425,-39.2101,-0.42403,0
53.1931,-39.0379,-0.425895,0
53.2409,-38.865,-0.427438,0
53.2855,-38.6915,-0.428669,0
53.3282,-38.5176,-0.429499,0
53.3805,-38.3461,-0.428825,0
53.4301,-38.1733,-0.427839,0
53.4769,-37.9994,-0.42652,0
53.5208,-37.8244,-0.42487,0
53.5619,-37.6482,-0.422907,0
53.5978,-37.4706,-0.420827,0
53.6259,-37.2916,-0.418874,0
40.8563,-44.1854,0.343143,0
41.0209,-44.3153,0.336185,0
41.5263,-43.8622,0.220627,174
41.7381,-43.8795,0.19626,174
41.9056,-43.9726,0.186742,174
42.0493,-44.1148,0.186479,174
42.19,-44.27,0.188765,174
42.3526,-44.3846,0.18431,174
42.457,-44.6458,0.20479,174
42.5933,-44.8495,0.215431,174
42.6125,-45.4009,0.282142,0
42.8088,-45.4923,0.273997,0
43.4572,-44.1095,0.0358496,174
43.6375,-44.1359,0.0223243,174
43.828,-44.1178,0.00275532,174
43.6478,-45.6857,0.22152,174
43.8421,-45.8051,0.220721,0
44.0531,-45.8526,0.209891,0
44.2655,-45.895,0.199017,0
44.4787,-45.9322,0.188099,0
44.693,-45.9637,0.177088,0
44.9081,-45.9899,0.166048,0
45.1237,-46.0127,0.155233,0
45.3448,-45.9157,0.128843,174
45.5576,-45.9869,0.126099,174
45.7733,-46.0092,0.117347,0
45.989,-45.9937,0.104285,0
46.204,-45.9726,0.0912385,0
46.418,-45.946,0.0782111,0
46.6312,-45.9152,0.0653742,0
46.8432,-45.8793,0.052635,0
47.0539,-45.8384,0.0399787,0
47.2633,-45.7923,0.0274006,0
47.4711,-45.7412,0.0149104,0
47.626,-45.4433,-0.0278371,174
47.7682,-45.1432,-0.0699009,174
47.9583,-45.0745,-0.08221,174
48.1935,-45.167,-0.0737982,174
48.4441,-45.2853,-0.0616326,0
48.6274,-45.1765,-0.0769549,0
48.8075,-45.0645,-0.0919695,0
48.9841,-44.9493,-0.106681,0
49.1572,-44.8311,-0.121091,0
49.3269,-44.7099,-0.135187,0
49.493,-44.5858,-0.148986,0
49.6557,-44.459,-0.162468,0
49.8147,-44.3295,-0.175641,0
49.9702,-44.1975,-0.188498,0
50.122,-44.0627,-0.201086,0
50.2642,-43.9159,-0.214567,0
50.4027,-43.7675,-0.227673,0
50.5373,-43.6176,-0.240383,0
50.6683,-43.4664,-0.252692,0
50.2734,-42.6193,-0.355026,174
50.413,-42.518,-0.360581,174
51.0594,-43.0293,-0.284128,0
51.183,-42.8806,-0.293903,0
51.3034,-42.7303,-0.303317,0
51.4205,-42.5786,-0.312399,0
51.5345,-42.4255,-0.321149,0
51.6449,-42.2711,-0.329548,0
51.7523,-42.1154,-0.337614,0
51.8564,-41.9585,-0.345329,0
51.9573,-41.8004,-0.352712,0
52.0549,-41.6412,-0.359772,0
52.1494,-41.4808,-0.366491,0
52.2402,-41.3191,-0.372936,0
52.3272,-41.1559,-0.379118,0
52.4112,-40.9919,-0.384968,0
52.4965,-40.8299,-0.389977,0
52.5787,-40.6667,-0.394675,0
52.6558,-40.5013,-0.399284,0
52.7295,-40.3349,-0.403591,0
52.8002,-40.1676,-0.407575,0
52.868,-39.9996,-0.411237,0
52.9327,-39.8307,-0.414567,0
52.9942,-39.661,-0.417604,0
53.0529,-39.4907,-0.4203,0
53.1085,-39.3196,-0.422682,0
53.1612,-39.1478,-0.424743,0
53.2108,-38.9753,-0.426491,0
53.2573,-38.8023,-0.427917,0
53.3009,-38.6285,-0.42904,0
53.3474,-38.4557,-0.429294,0
53.3988,-38.2836,-0.428512,0
53.4473,-38.1105,-0.427399,0
53.493,-37.9361,-0.425964,0
53.5359,-37.7607,-0.424206,0
53.5761,-37.5841,-0.422116,0
53.6083,-37.4059,-0.420163,0
53.6352,-37.2266,-0.418083,0
43.8803,-44.1239,0.0556261,174
43.7976,-45.3055,0.224549,0
43.9971,-45.3539,0.214305,0
44.1979,-45.3974,0.204007,0
44.3998,-45.4361,0.19367,0
44.6026,-45.4699,0.183304,0
44.8062,-45.4988,0.172904,0
45.0105,-45.5227,0.162493,0
45.2157,-45.5383,0.151571,0
45.4216,-45.5342,0.138558,0
45.6271,-45.526,0.125701,0
45.832,-45.5163,0.113387,0
46.0364,-45.5015,0.101112,0
46.24,-45.4818,0.0888752,0
46.4429,-45.4571,0.0766877,0
46.6448,-45.4273,0.0645539,0
46.8456,-45.3928,0.0524885,0
47.0453,-45.3533,0.0404963,0
47.2436,-45.309,0.0285773,0
47.4405,-45.2599,0.0167512,0
47.6359,-45.2062,0.00501289,0
47.8217,-45.1154,-0.0108881,174
48.0072,-45.0309,-0.0252605,0
48.1881,-44.937,-0.0401482,0
48.366,-44.8395,-0.0547771,0
48.5409,-44.7386,-0.0691521,0
48.7127,-44.6343,-0.0832684,0
48.8812,-44.5269,-0.0971258,0
49.0464,-44.4163,-0.11072,0
49.2084,-44.3027,-0.12404,0
49.3673,-44.1862,-0.137092,0
49.5226,-44.0668,-0.149865,0
49.6743,-43.9442,-0.162433,0
49.8227,-43.8192,-0.174709,0
49.9677,-43.6917,-0.186686,0
50.1094,-43.5619,-0.198366,0
50.2441,-43.4246,-0.21047,0
50.3788,-43.2905,-0.221545,0
50.2836,-42.8425,-0.275416,174
50.2932,-42.5638,-0.305948,174
50.4708,-42.5111,-0.304484,174
50.7074,-42.524,-0.292866,174
51.0045,-42.5946,-0.271872,0
51.1199,-42.4505,-0.280964,0
51.232,-42.3048,-0.289762,0
51.3409,-42.1577,-0.298229,0
51.4465,-42.0093,-0.306374,0
51.549,-41.8596,-0.314196,0
51.6483,-41.7086,-0.321706,0
51.7444,-41.5563,-0.328893,0
51.8373,-41.403,-0.335768,0
51.9271,-41.2485,-0.342341,0
52.0137,-41.0929,-0.348581,0
52.0989,-40.9375,-0.354304,0
52.1836,-40.7828,-0.359411,0
52.2653,-40.6269,-0.364196,0
52.3441,-40.4699,-0.368688,0
52.4198,-40.3118,-0.372868,0
52.4925,-40.1528,-0.376755,0
52.5623,-39.9927,-0.380329,0
52.6278,-39.8311,-0.383737,0
52.6896,-39.6684,-0.386911,0
52.7486,-39.5049,-0.389772,0
52.8046,-39.3407,-0.392321,0
52.8577,-39.1758,-0.394567,0
52.9079,-39.0101,-0.396501,0
52.9552,-38.8438,-0.398132,0
52.9995,-38.6769,-0.39944,0
53.0423,-38.5098,-0.4003,0
53.0934,-38.3447,-0.399723,0
53.1418,-38.1784,-0.398845,0
53.1874,-38.011,-0.397643,0
53.2282,-37.8422,-0.396335,0
53.262,-37.6718,-0.395124,0
53.2927,-37.5006,-0.39362,0
53.3204,-37.3286,-0.391813,0
53.3451,-37.1559,-0.389694,0
41.1832,-43.9191,0.334295,0
41.4538,-43.8529,0.290674,174
42.0037,-43.2719,0.149628,174
41.8637,-43.9103,0.245305,174
42.0172,-44.0298,0.241222,174
42.1243,-44.2513,0.256169,174
42.3095,-44.3151,0.242662,174
42.4315,-44.5274,0.256059,174
42.5563,-44.7513,0.271341,174
42.7006,-44.9436,0.281077,0
42.891,-45.0192,0.271326,0
43.3966,-44.0942,0.0972163,174
43.6296,-43.9395,0.0538213,174
43.7813,-44.0534,0.05503,174
43.6709,-45.2721,0.231063,0
43.8697,-45.3236,0.220848,0
44.0698,-45.3702,0.210584,0
44.2709,-45.412,0.200267,0
44.4731,-45.4489,0.18992,0
44.6763,-45.4809,0.179544,0
44.8802,-45.508,0.169139,0
45.0847,-45.5302,0.158719,0
45.2903,-45.5374,0.146854,0
45.4962,-45.5315,0.133856,0
45.7014,-45.5231,0.121238,0
45.9061,-45.5115,0.108944,0
46.1102,-45.495,0.0966828,0
46.3136,-45.4734,0.0844514,0
46.5161,-45.4469,0.0722883,0
46.7177,-45.4154,0.060174,0
46.918,-45.379,0.0481428,0
47.1173,-45.3378,0.0361604,0
47.3151,-45.2918,0.0242805,0
47.5115,-45.241,0.0124885,0
47.7043,-45.1769,-0.000363083,0
47.8834,-45.0626,-0.0191127,174
48.073,-44.9973,-0.0306853,0
48.253,-44.9021,-0.0454754,0
48.4298,-44.8033,-0.0600115,0
48.6034,-44.7012,-0.0742937,0
48.774,-44.5958,-0.0883172,0
48.9414,-44.4872,-0.102077,0
49.1055,-44.3755,-0.115573,0
49.2663,-44.2608,-0.128796,0
49.4238,-44.1433,-0.14174,0
49.5779,-44.0227,-0.154445,0
49.7284,-43.8992,-0.166916,0
49.8756,-43.7733,-0.179074,0
50.0194,-43.6449,-0.190954,0
50.1581,-43.5116,-0.202878,0
50.2934,-43.3762,-0.214518,0
50.4269,-43.2414,-0.22548,0
50.2434,-42.6806,-0.294954,174
50.3425,-42.5259,-0.308136,174
50.548,-42.5068,-0.301667,174
50.9291,-42.6855,-0.265925,0
51.0468,-42.5426,-0.275202,0
51.1609,-42.3979,-0.284186,0
51.2718,-42.2517,-0.292858,0
51.3795,-42.1041,-0.301208,0
51.484,-41.9552,-0.309235,0
51.5853,-41.805,-0.31695,0
51.6835,-41.6536,-0.324352,0
51.7784,-41.5009,-0.331432,0
51.8702,-41.3471,-0.33819,0
51.9588,-41.1923,-0.344636,0
52.0442,-41.0363,-0.350768,0
52.1299,-40.8816,-0.356188,0
52.2135,-40.7264,-0.361179,0
52.2942,-40.5701,-0.365856,0
52.3718,-40.4128,-0.370231,0
52.4464,-40.2543,-0.374313,0
52.518,-40.0949,-0.378083,0
52.5867,-39.9345,-0.38155,0
52.6505,-39.7723,-0.384919,0
52.7113,-39.6093,-0.387985,0
52.7693,-39.4455,-0.390739,0
52.8242,-39.281,-0.393171,0
52.8762,-39.1158,-0.395309,0
52.9253,-38.95,-0.397126,0
52.9715,-38.7835,-0.398649,0
53.0148,-38.6163,-0.39985,0
53.0611,-38.4501,-0.400124,0
53.1112,-38.2846,-0.39945,0
53.1587,-38.1179,-0.398444,0
53.2034,-37.9501,-0.397126,0
53.2408,-37.7806,-0.395934,0
53.2734,-37.6099,-0.394606,0
53.3031,-37.4384,-0.392995,0
53.3297,-37.2662,-0.391071,0
41.083,-43.8401,0.338533,0
41.2405,-43.9633,0.331878,0
41.5497,-43.8283,0.275252,174
41.7533,-43.8582,0.252786,174
41.922,-43.9479,0.242718,174
42.0649,-44.0902,0.243014,174
42.1993,-44.2575,0.248122,174
42.3621,-44.3707,0.243735,174
42.4628,-44.6402,0.267155,174
42.6061,-44.8254,0.27564,174
42.7691,-44.972,0.27764,0
42.9605,-45.0452,0.267733,0
43.5092,-43.9496,0.0667934,174
43.671,-44.0274,0.0617689,174
43.8415,-44.0772,0.0527563,174
43.7427,-45.2913,0.227371,0
43.942,-45.341,0.217137,0
44.1424,-45.3859,0.206849,0
44.3441,-45.4259,0.196522,0
44.5466,-45.4611,0.186165,0
44.7499,-45.4913,0.175779,0
44.9541,-45.5166,0.165364,0
45.1589,-45.537,0.15494,0
45.3649,-45.5358,0.142142,0
45.5705,-45.5282,0.129158,0
45.7755,-45.5195,0.11678,0
45.9802,-45.5061,0.10449,0
46.1839,-45.4877,0.0922443,0
46.387,-45.4644,0.0800422,0
46.5892,-45.436,0.0678938,0
46.7904,-45.4028,0.0558137,0
46.9904,-45.3646,0.0437873,0
47.1891,-45.3217,0.0318586,0
47.3864,-45.2739,0.0200031,0
47.5822,-45.2215,0.00823555,0
47.772,-45.1455,-0.00592949,0
47.9559,-45.053,-0.0215225,174
48.1385,-44.9632,-0.0360711,0
48.3173,-44.8667,-0.0507684,0
48.493,-44.7667,-0.0652166,0
48.6656,-44.6634,-0.0794012,0
48.835,-44.5568,-0.0933318,0
49.0012,-44.4471,-0.106994,0
49.1641,-44.3343,-0.120392,0
49.3238,-44.2186,-0.133517,0
49.4801,-44.1,-0.146374,0
49.6329,-43.9783,-0.158996,0
49.7821,-43.8539,-0.171349,0
49.9281,-43.7271,-0.18341,0
50.0707,-43.5979,-0.195178,0
50.2065,-43.4613,-0.207341,0
50.342,-43.3276,-0.218522,0
50.4745,-43.1922,-0.229352,0
50.265,-42.6049,-0.302519,174
50.4096,-42.5106,-0.307074,174
50.6381,-42.5167,-0.296698,174
50.972,-42.634,-0.269323,0
51.0884,-42.4904,-0.278483,0
51.2014,-42.3451,-0.28737,0
51.3112,-42.1984,-0.295915,0
51.4177,-42.0504,-0.304157,0
51.5211,-41.901,-0.312067,0
51.6212,-41.7503,-0.319665,0
51.7182,-41.5984,-0.32694,0
51.812,-41.4454,-0.333903,0
51.9027,-41.2912,-0.340553,0
51.9902,-41.1359,-0.346891,0
52.075,-40.98,-0.352848,0
52.1605,-40.8255,-0.358024,0
52.243,-40.6699,-0.362907,0
52.3227,-40.5133,-0.367487,0
52.3991,-40.3555,-0.371745,0
52.4727,-40.1967,-0.37571,0
52.5433,-40.0369,-0.379382,0
52.6102,-39.8758,-0.382809,0
52.6729,-39.7133,-0.386071,0
52.7327,-39.5501,-0.38902,0
52.7895,-39.386,-0.391657,0
52.8434,-39.2213,-0.393981,0
52.8944,-39.0558,-0.396003,0
52.9423,-38.8898,-0.397712,0
52.9875,-38.723,-0.399108,0
53.0297,-38.5557,-0.400202,0
53.0796,-38.3903,-0.399919,0
53.1287,-38.2244,-0.399118,0
53.1752,-38.0573,-0.398005,0
53.2184,-37.889,-0.396618,0
53.253,-37.7189,-0.395485,0
53.2845,-37.5479,-0.394059,0
53.3131,-37.3761,-0.392331,0
53.3386,-37.2036,-0.390309,0
43.884,-44.1214,0.111758,174
43.895,-44.887,0.22095,0
44.085,-44.9329,0.211185,0
44.2761,-44.9741,0.20139,0
44.4683,-45.0108,0.191551,0
44.6613,-45.0428,0.181678,0
44.8552,-45.0701,0.171785,0
45.0496,-45.0928,0.161878,0
45.245,-45.105,0.151087,0
45.4409,-45.1019,0.138704,0
45.6364,-45.094,0.126361,0
45.8314,-45.0815,0.11408,0
46.0256,-45.0643,0.101849,0
46.2192,-45.0455,0.0901252,0
46.4121,-45.0225,0.0785383,0
46.6042,-44.9949,0.0669953,0
46.7952,-44.9626,0.0555158,0
46.9852,-44.9257,0.0441047,0
47.174,-44.8842,0.0327717,0
47.3613,-44.8382,0.021507,0
47.5473,-44.7877,0.0103303,0
47.7289,-44.7211,-0.00238457,0
47.9046,-44.6369,-0.0168377,0
48.0777,-44.5491,-0.0310613,0
48.2479,-44.458,-0.0450603,0
48.4152,-44.3635,-0.0588201,0
48.5796,-44.2658,-0.0723309,0
48.7411,-44.165,-0.0856023,0
48.8995,-44.0611,-0.0986248,0
49.0548,-43.9543,-0.111403,0
49.207,-43.8446,-0.123923,0
49.3562,-43.7321,-0.136179,0
49.5021,-43.6171,-0.148185,0
49.6449,-43.4994,-0.159924,0
49.7879,-43.3849,-0.170593,0
49.9289,-43.2697,-0.180734,0
50.0672,-43.1521,-0.190617,0
50.1992,-43.0273,-0.200925,0
50.2259,-42.7597,-0.23165,174
50.3005,-42.5701,-0.250631,174
50.4565,-42.4902,-0.252763,174
50.6808,-42.4894,-0.242116,174
50.8035,-42.3627,-0.249841,0
50.9152,-42.2249,-0.258688,0
51.0236,-42.0857,-0.267214,0
51.129,-41.9451,-0.275436,0
51.2314,-41.803,-0.283356,0
51.3307,-41.6597,-0.290954,0
51.4269,-41.5151,-0.298259,0
51.52,-41.3692,-0.305251,0
51.6102,-41.2222,-0.31193,0
51.6972,-41.0741,-0.318317,0
51.7831,-40.9263,-0.324137,0
51.868,-40.7787,-0.329401,0
51.9502,-40.6299,-0.334352,0
52.0292,-40.48,-0.33902,0
52.1055,-40.329,-0.343386,0
52.1788,-40.177,-0.347458,0
52.2493,-40.0239,-0.351237,0
52.3168,-39.8698,-0.354723,0
52.3815,-39.7149,-0.357917,0
52.4432,-39.5589,-0.360807,0
52.502,-39.4021,-0.363415,0
52.558,-39.2445,-0.365739,0
52.6102,-39.0858,-0.367829,0
52.6589,-38.9261,-0.369714,0
52.7047,-38.7657,-0.371305,0
52.7476,-38.6048,-0.372585,0
52.7938,-38.4448,-0.372897,0
52.8429,-38.2853,-0.372311,0
52.8845,-38.1236,-0.37194,0
52.9227,-37.961,-0.371325,0
52.9579,-37.7976,-0.370427,0
52.9902,-37.6334,-0.369235,0
53.0195,-37.4684,-0.367751,0
53.0459,-37.3027,-0.365973,0
53.0693,-37.1363,-0.363913,0
41.3865,-43.5994,0.330262,0
41.5394,-43.7147,0.323851,0
42.0282,-43.234,0.197916,174
41.8793,-43.8874,0.301289,174
42.0325,-44.0064,0.29742,174
42.1763,-44.149,0.298514,0
42.3387,-44.2575,0.293548,0
42.5041,-44.3627,0.288519,0
42.6723,-44.4647,0.283406,0
42.8502,-44.5445,0.274891,0
43.0317,-44.6155,0.265482,0
43.4251,-44.0135,0.140622,174
43.6362,-43.9273,0.107481,174
43.7917,-44.0255,0.106583,174
43.7744,-44.8554,0.227147,0
43.9637,-44.9042,0.21742,0
44.1541,-44.9484,0.20765,0
44.3456,-44.9879,0.197825,0
44.538,-45.0229,0.187977,0
44.7314,-45.0533,0.178109,0
44.9255,-45.0789,0.168206,0
45.1202,-45.0999,0.158289,0
45.3159,-45.1045,0.146595,0
45.5118,-45.0996,0.134227,0
45.707,-45.09,0.121912,0
45.9018,-45.0758,0.109642,0
46.0958,-45.0576,0.0975422,0
46.2891,-45.0377,0.085926,0
46.4818,-45.0131,0.0743537,0
46.6734,-44.9837,0.0628352,0
46.8641,-44.9498,0.0513801,0
47.0537,-44.9112,0.0399934,0
47.242,-44.8681,0.0286799,0
47.4288,-44.8204,0.0174445,0
47.6143,-44.7683,0.00630684,0
47.7928,-44.691,-0.00765312,0
47.9677,-44.6055,-0.0220184,0
48.1396,-44.5165,-0.0361639,0
48.3088,-44.4242,-0.0500652,0
48.4751,-44.3285,-0.063742,0
48.6384,-44.2296,-0.0771746,0
48.7987,-44.1277,-0.0903533,0
48.956,-44.0227,-0.103278,0
49.1103,-43.9149,-0.115964,0
49.2615,-43.8042,-0.128386,0
49.4094,-43.6908,-0.140558,0
49.5542,-43.5747,-0.152463,0
49.6963,-43.457,-0.163986,0
49.8393,-43.3434,-0.174299,0
49.9794,-43.2274,-0.184347,0
50.1166,-43.1089,-0.194123,0
50.2456,-42.9806,-0.204733,0
50.2479,-42.6833,-0.239714,174
50.3388,-42.5181,-0.25494,174
50.5201,-42.4695,-0.252116,174
50.7308,-42.4498,-0.24404,0
50.8443,-42.313,-0.253073,0
50.9548,-42.1747,-0.261813,0
51.0621,-42.035,-0.270231,0
51.1665,-41.8938,-0.278337,0
51.2677,-41.7513,-0.286139,0
51.3659,-41.6075,-0.29363,0
51.461,-41.4624,-0.300827,0
51.553,-41.3161,-0.307712,0
51.642,-41.1687,-0.314284,0
51.728,-41.0201,-0.320563,0
51.8142,-40.8729,-0.326071,0
51.8981,-40.7249,-0.331227,0
51.9791,-40.5757,-0.336081,0
52.0572,-40.4254,-0.340632,0
52.1324,-40.2741,-0.344899,0
52.2047,-40.1216,-0.348864,0
52.2741,-39.9682,-0.352536,0
52.3405,-39.8138,-0.355915,0
52.4042,-39.6585,-0.359001,0
52.4648,-39.5023,-0.361784,0
52.5226,-39.3451,-0.364294,0
52.5774,-39.1872,-0.366491,0
52.6282,-39.0281,-0.368542,0
52.6758,-38.8681,-0.370329,0
52.7205,-38.7075,-0.371803,0
52.7624,-38.5463,-0.372985,0
52.812,-38.3871,-0.372721,0
52.8586,-38.2269,-0.372175,0
52.8987,-38.0648,-0.371745,0
52.9357,-37.9019,-0.371032,0
52.9699,-37.7382,-0.370026,0
53.0011,-37.5737,-0.368737,0
53.0294,-37.4085,-0.367145,0
53.0547,-37.2425,-0.365261,0
41.2904,-43.5243,0.334315,0
41.4415,-43.6415,0.327947,0
41.913,-43.2095,0.210054,174
42.0628,-43.3029,0.202218,174
41.938,-43.9239,0.298534,174
42.0739,-44.0789,0.3018,0
42.2348,-44.1886,0.296727,0
42.3982,-44.296,0.291732,0
42.5646,-44.4001,0.286673,0
42.7354,-44.497,0.280848,0
42.9157,-44.5707,0.271488,0
43.263,-44.1404,0.174992,174
43.5237,-43.9122,0.116426,174
43.6849,-43.9891,0.111542,174
43.8461,-44.0712,0.108047,174
43.8428,-44.8736,0.223631,0
44.0325,-44.9207,0.21388,0
44.2233,-44.9632,0.204095,0
44.4152,-45.0012,0.194266,0
44.608,-45.0344,0.184403,0
44.8016,-45.0631,0.17452,0
44.9959,-45.087,0.164613,0
45.1909,-45.1051,0.15451,0
45.3869,-45.1032,0.142117,0
45.5826,-45.0967,0.129759,0
45.7777,-45.0854,0.117464,0
45.9721,-45.0695,0.105208,0
46.1659,-45.051,0.0933283,0
46.3591,-45.0293,0.0817268,0
46.5513,-45.003,0.070174,0
46.7427,-44.972,0.058675,0
46.9329,-44.9363,0.0472395,0
47.122,-44.8961,0.0358869,0
47.3098,-44.8513,0.0246027,0
47.4962,-44.8021,0.0134016,0
47.6799,-44.7436,0.00163887,0
47.8564,-44.6604,-0.0128777,0
48.0302,-44.5737,-0.0271697,0
48.2012,-44.4834,-0.0412273,0
48.3694,-44.3899,-0.0550506,0
48.5345,-44.2931,-0.0686297,0
48.6968,-44.1931,-0.0819695,0
48.856,-44.09,-0.0950603,0
49.0123,-43.984,-0.107907,0
49.1654,-43.8751,-0.120495,0
49.3154,-43.7634,-0.132829,0
49.4623,-43.649,-0.144899,0
49.6059,-43.5321,-0.156721,0
49.7484,-43.4162,-0.167741,0
49.8903,-43.3017,-0.177966,0
50.0294,-43.1847,-0.187912,0
50.1637,-43.0627,-0.197995,0
50.2916,-42.9337,-0.208503,0
50.2726,-42.6119,-0.246995,174
50.3998,-42.4951,-0.25481,174
50.5923,-42.4584,-0.249897,174
50.7723,-42.4004,-0.247341,0
50.8847,-42.2631,-0.256286,0
50.9941,-42.1243,-0.264899,0
51.1003,-41.984,-0.27321,0
51.2035,-41.8423,-0.281198,0
51.3037,-41.6993,-0.288893,0
51.4007,-41.5551,-0.296266,0
51.4947,-41.4095,-0.303346,0
51.5856,-41.2629,-0.310124,0
51.6735,-41.115,-0.316589,0
51.7592,-40.9667,-0.322643,0
51.845,-40.8195,-0.327975,0
51.9277,-40.671,-0.333014,0
52.0077,-40.5214,-0.33777,0
52.0848,-40.3707,-0.342214,0
52.1589,-40.219,-0.346374,0
52.2302,-40.0662,-0.350231,0
52.2985,-39.9124,-0.353796,0
52.3639,-39.7577,-0.357067,0
52.4265,-39.602,-0.360046,0
52.4861,-39.4455,-0.362721,0
52.5428,-39.288,-0.365124,0
52.5964,-39.1297,-0.367253,0
52.6458,-38.9702,-0.369216,0
52.6923,-38.81,-0.370895,0
52.736,-38.6492,-0.372262,0
52.7799,-38.4886,-0.373014,0
52.8297,-38.3293,-0.372507,0
52.8734,-38.1683,-0.372057,0
52.9124,-38.0059,-0.37152,0
52.9485,-37.8427,-0.3707,0
52.9816,-37.6787,-0.369587,0
53.0117,-37.514,-0.36819,0
53.0389,-37.3485,-0.366491,0
53.0631,-37.1822,-0.364509,0
43.8035,-44.4583,0.226932,0
43.9836,-44.5062,0.217664,0
44.1648,-44.5498,0.208358,0
44.3473,-44.589,0.199007,0
44.5305,-44.6238,0.189627,0
44.7148,-44.6542,0.180208,0
44.8996,-44.6802,0.17077,0
45.0852,-44.7016,0.161317,0
45.2716,-44.7111,0.150648,0
45.4584,-44.7087,0.138841,0
45.6448,-44.7019,0.127078,0
45.8308,-44.6905,0.11535,0
46.0161,-44.6748,0.10368,0
46.2006,-44.6545,0.0920734,0
46.3844,-44.63,0.0805207,0
46.5673,-44.6021,0.0692121,0
46.7495,-44.5718,0.0582697,0
46.9305,-44.5372,0.0473859,0
47.1105,-44.4982,0.0365705,0
47.2893,-44.4549,0.0258283,0
47.4667,-44.4073,0.015174,0
47.6427,-44.3555,0.00460274,0
47.8111,-44.2773,-0.00915215,0
47.9769,-44.1951,-0.0227752,0
48.1399,-44.1096,-0.0361834,0
48.3004,-44.0208,-0.0493768,0
48.458,-43.9289,-0.0623406,0
48.6129,-43.834,-0.0750701,0
48.765,-43.7361,-0.087575,0
48.9141,-43.6354,-0.0998357,0
49.0605,-43.5318,-0.111867,0
49.2052,-43.4284,-0.123234,0
49.3491,-43.3262,-0.133781,0
49.4905,-43.2214,-0.144069,0
49.6291,-43.1141,-0.154113,0
49.7652,-43.0043,-0.163903,0
49.8984,-42.8922,-0.173444,0
50.0289,-42.7778,-0.182721,0
50.1552,-42.659,-0.192077,0
50.2751,-42.5337,-0.201872,0
50.392,-42.4066,-0.211364,0
50.506,-42.2779,-0.220544,0
50.6171,-42.1476,-0.22943,0
50.7252,-42.0158,-0.238014,0
50.8303,-41.8824,-0.246305,0
50.9324,-41.7477,-0.254294,0
51.0317,-41.6116,-0.261979,0
51.128,-41.4741,-0.269382,0
51.2213,-41.3354,-0.276471,0
51.3116,-41.1954,-0.283268,0
51.399,-41.0543,-0.289792,0
51.4857,-40.9136,-0.29568,0
51.5709,-40.7728,-0.301081,0
51.6532,-40.6307,-0.306198,0
51.7327,-40.4875,-0.311032,0
51.8095,-40.3432,-0.315573,0
51.8834,-40.1978,-0.319821,0
51.9545,-40.0513,-0.323796,0
52.0227,-39.9038,-0.327477,0
52.0882,-39.7554,-0.330866,0
52.1509,-39.606,-0.333971,0
52.2106,-39.4557,-0.336794,0
52.2677,-39.3045,-0.339333,0
52.3219,-39.1525,-0.341589,0
52.3731,-38.9996,-0.343561,0
52.4216,-38.8461,-0.345241,0
52.4673,-38.6917,-0.346647,0
52.508,-38.5361,-0.348014,0
52.5534,-38.3818,-0.34821,0
52.5962,-38.2267,-0.348112,0
52.6356,-38.0707,-0.34778,0
52.6723,-37.9137,-0.347175,0
52.7061,-37.7561,-0.346286,0
52.737,-37.5976,-0.345104,0
52.7651,-37.4384,-0.343659,0
52.7902,-37.2786,-0.341911,0
52.8124,-37.118,-0.339889,0
41.578,-43.298,0.324827,0
41.7215,-43.4131,0.319832,0
42.0408,-43.2173,0.250124,174
42.0216,-43.6263,0.307913,0
42.1764,-43.7268,0.301575,0
42.3337,-43.8242,0.295179,0
42.4898,-43.9263,0.290296,0
42.6484,-44.0259,0.285472,0
42.8151,-44.1089,0.278045,0
42.9866,-44.1805,0.269144,0
43.1789,-44.1917,0.249882,174
43.4534,-43.9332,0.182961,174
43.6427,-43.9153,0.161113,174
43.795,-44.0246,0.162558,174
43.8686,-44.4761,0.223582,0
44.0491,-44.5225,0.2143,0
44.2308,-44.5645,0.204974,0
44.4135,-44.6021,0.195609,0
44.5971,-44.6353,0.186224,0
44.7816,-44.6641,0.17679,0
44.9667,-44.6885,0.167342,0
45.1525,-44.7083,0.157884,0
45.3393,-44.7108,0.14637,0
45.526,-44.7068,0.134578,0
45.7123,-44.6983,0.122821,0
45.898,-44.6853,0.111116,0
46.083,-44.6679,0.0994709,0
46.2673,-44.6462,0.0878889,0
46.4507,-44.62,0.0763703,0
46.6334,-44.5916,0.0652424,0
46.8152,-44.5598,0.0543195,0
46.9959,-44.5236,0.0434602,0
47.1755,-44.483,0.032674,0
47.3537,-44.4381,0.0219611,0
47.5306,-44.389,0.0113361,0
47.7041,-44.3279,-0.000348434,0
47.8714,-44.2479,-0.0141082,0
48.0362,-44.1645,-0.027658,0
48.1984,-44.0778,-0.0409881,0
48.3577,-43.9879,-0.0540936,0
48.5145,-43.8949,-0.0669744,0
48.6683,-43.7989,-0.0796307,0
48.8193,-43.7,-0.0920379,0
48.9675,-43.5982,-0.104221,0
49.1127,-43.4936,-0.116159,0
49.2576,-43.3917,-0.127072,0
49.4006,-43.2885,-0.137526,0
49.541,-43.1828,-0.147736,0
49.6787,-43.0746,-0.157692,0
49.8137,-42.964,-0.167389,0
49.9459,-42.851,-0.176833,0
50.0755,-42.7358,-0.186022,0
