55.0818,-47.4616,-0.776589,0
55.1158,-47.3368,-0.780173,0
55.1473,-47.2114,-0.783464,0
54.788,-46.9873,-0.833916,174
54.7623,-46.8583,-0.842526,174
54.8998,-46.7654,-0.830862,174
54.9473,-46.6508,-0.829576,174
55.0104,-46.5375,-0.825941,174
46.0628,-50.3493,0.0350622,174
46.2458,-50.328,-0.00694012,174
46.3802,-50.3666,-0.0284541,174
46.4926,-50.4345,-0.0400423,174
46.5836,-50.536,-0.0410905,174
46.6631,-50.6602,-0.035378,174
46.784,-50.717,-0.0486403,174
46.9032,-50.7759,-0.0605977,174
47.0088,-50.8611,-0.0647838,174
47.108,-50.9625,-0.0642604,174
47.2186,-51.0441,-0.0687076,174
47.3583,-51.0597,-0.0896078,174
47.4798,-51.1164,-0.0992284,174
47.5918,-51.1997,-0.101691,174
47.6836,-51.3471,-0.0882584,174
47.7804,-51.4952,-0.0748059,174
47.8727,-51.6765,-0.0536644,174
47.9437,-51.9633,-0.00843925,0
48.0852,-52.01,-0.0190447,0
48.228,-52.0537,-0.0297039,0
48.6824,-50.5106,-0.392125,174
48.8104,-50.429,-0.424272,174
48.9139,-50.4807,-0.426507,174
48.9763,-50.8713,-0.356006,174
48.9567,-52.2301,-0.0826287,0
49.1048,-52.26,-0.0924627,0
49.2538,-52.2865,-0.102365,0
49.4037,-52.3096,-0.112321,0
49.5545,-52.3294,-0.122326,0
49.706,-52.3457,-0.132385,0
49.858,-52.3585,-0.142487,0
50.0107,-52.3678,-0.152629,0
50.1632,-52.365,-0.164474,0
50.3137,-52.3387,-0.180182,0
50.4631,-52.309,-0.195773,0
50.6115,-52.2761,-0.211257,0
50.7588,-52.2398,-0.226628,0
50.9049,-52.2002,-0.241877,0
51.0498,-52.1575,-0.256999,0
51.1934,-52.1115,-0.271979,0
51.3355,-52.0625,-0.286808,0
51.4769,-52.0126,-0.301086,0
51.6198,-51.9691,-0.313483,0
51.7615,-51.9218,-0.32589,0
51.9019,-51.8707,-0.338273,0
52.0407,-51.816,-0.350637,0
52.178,-51.7576,-0.362961,0
52.3137,-51.6956,-0.375256,0
52.4475,-51.6301,-0.387492,0
52.5795,-51.5611,-0.39967,0
52.6949,-51.4614,-0.416721,0
52.8065,-51.3578,-0.433805,0
52.9151,-51.2525,-0.450549,0
53.0207,-51.1455,-0.46695,0
53.1234,-51.0369,-0.483014,0
53.2231,-50.9268,-0.498727,0
53.3216,-50.8178,-0.513649,0
53.4185,-50.7089,-0.527922,0
53.5126,-50.5986,-0.541867,0
53.6039,-50.487,-0.555461,0
53.6924,-50.3742,-0.568727,0
53.7782,-50.2601,-0.581657,0
53.8612,-50.145,-0.594235,0
53.9415,-50.0288,-0.606476,0
54.019,-49.9116,-0.618381,0
54.0938,-49.7934,-0.629943,0
54.1658,-49.6743,-0.641169,0
54.2352,-49.5545,-0.652048,0
54.3017,-49.4338,-0.66259,0
54.3656,-49.3125,-0.67279,0
54.4268,-49.1905,-0.682658,0
54.4853,-49.0678,-0.692184,0
54.5412,-48.9446,-0.701374,0
54.595,-48.8213,-0.710129,0
54.6464,-48.6976,-0.718522,0
54.6952,-48.5735,-0.726574,0
54.7416,-48.449,-0.734294,0
54.7903,-48.3267,-0.740983,0
54.8388,-48.2049,-0.747038,0
54.885,-48.0825,-0.752785,0
54.9287,-47.9595,-0.758205,0
54.9702,-47.8359,-0.763317,0
55.0091,-47.7119,-0.768097,0
55.0458,-47.5873,-0.772575,0
55.0815,-47.4628,-0.776554,0
55.1155,-47.338,-0.780143,0
55.147,-47.2127,-0.783439,0
54.7878,-46.9885,-0.833888,174
54.7615,-46.8594,-0.842568,174
54.899,-46.7665,-0.830911,174
54.9471,-46.652,-0.829567,174
55.009,-46.5385,-0.826066,174
46.0721,-50.3466,0.0775063,174
46.2466,-50.3366,0.0382668,174
46.3676,-50.3947,0.0225033,174
46.4795,-50.4649,0.0113661,174
46.5762,-50.5588,0.00810333,174
46.6601,-50.6767,0.0123,174
46.7978,-50.7046,-0.00953567,174
46.9199,-50.7572,-0.0232486,174
47.0381,-50.8162,-0.0344002,174
47.1461,-50.8967,-0.0390249,174
47.2456,-50.9989,-0.0374259,174
47.3767,-51.0318,-0.0538452,174
47.492,-51.1023,-0.0597092,174
47.6037,-51.1853,-0.0619142,174
47.6993,-51.321,-0.050555,174
47.7936,-51.4752,-0.0346866,174
47.8839,-51.6622,-0.0110088,174
48.0082,-51.7488,-0.0117791,0
48.1451,-51.7936,-0.0220184,0
48.283,-51.8355,-0.0323113,0
48.6948,-50.4747,-0.36403,174
48.8176,-50.4182,-0.39116,174
48.9203,-50.4731,-0.392393,174
48.9895,-50.8115,-0.330622,174
48.9873,-51.9988,-0.0845721,0
49.1302,-52.0266,-0.0941521,0
49.2741,-52.0516,-0.103708,0
49.4188,-52.0734,-0.113317,0
49.5641,-52.0919,-0.12297,0
49.7102,-52.1071,-0.132663,0
49.8569,-52.1189,-0.142404,0
50.0041,-52.1274,-0.152179,0
50.1511,-52.1263,-0.16322,0
50.2962,-52.1014,-0.178351,0
50.4404,-52.0732,-0.193405,0
50.5836,-52.0419,-0.208342,0
50.7257,-52.0073,-0.223176,0
50.8667,-51.9696,-0.237892,0
51.0066,-51.9288,-0.252482,0
51.1452,-51.8849,-0.26694,0
51.2823,-51.838,-0.281271,0
51.4183,-51.7881,-0.295446,0
51.5527,-51.7353,-0.309479,0
51.6858,-51.6796,-0.323361,0
51.8172,-51.621,-0.337067,0
51.9488,-51.5644,-0.349728,0
52.0805,-51.5084,-0.361559,0
52.2106,-51.4491,-0.373346,0
52.3391,-51.3864,-0.385085,0
52.4656,-51.3203,-0.396769,0
52.5902,-51.2505,-0.408473,0
52.6983,-51.1519,-0.424987,0
52.8036,-51.0514,-0.441183,0
52.9061,-50.9494,-0.457043,0
53.0066,-50.847,-0.472341,0
53.1061,-50.7456,-0.486833,0
53.2028,-50.6426,-0.501003,0
53.297,-50.5382,-0.51487,0
53.3884,-50.4324,-0.528405,0
53.4773,-50.3253,-0.541608,0
53.5634,-50.2169,-0.554489,0
53.647,-50.1073,-0.567053,0
53.7278,-49.9966,-0.579284,0
53.8059,-49.8848,-0.591193,0
53.8815,-49.772,-0.60277,0
53.9545,-49.6582,-0.614015,0
54.0247,-49.5436,-0.624943,0
54.0923,-49.4281,-0.635539,0
54.1574,-49.3118,-0.645807,0
54.2203,-49.1952,-0.655646,0
54.2808,-49.078,-0.665153,0
54.3387,-48.9601,-0.674338,0
54.3941,-48.8416,-0.683185,0
54.4469,-48.7225,-0.691711,0
54.4972,-48.6029,-0.699904,0
54.5451,-48.4829,-0.707775,0
54.5931,-48.3639,-0.714914,0
54.6428,-48.2465,-0.721135,0
54.6902,-48.1285,-0.727043,0
54.7352,-48.0098,-0.732643,0
54.7778,-47.8905,-0.737946,0
54.8182,-47.7706,-0.742931,0
54.8563,-47.6503,-0.747604,0
54.892,-47.5295,-0.75197,0
54.9255,-47.4082,-0.756027,0
54.9566,-47.2865,-0.759777,0
54.9855,-47.1644,-0.763224,0
54.7416,-46.9736,-0.801428,174
54.7612,-46.8562,-0.804547,174
54.9256,-46.7689,-0.788604,174
54.9405,-46.6478,-0.791301,174
55.0226,-46.5377,-0.784937,174
46.0699,-50.3474,0.0781229,174
46.2452,-50.3362,0.0384879,174
46.3665,-50.394,0.0226238,174
46.4784,-50.4641,0.0114677,174
46.5753,-50.5577,0.00809876,174
46.6593,-50.6755,0.0122329,174
46.7962,-50.7046,-0.00923698,174
46.9187,-50.7566,-0.0231346,174
47.037,-50.8157,-0.0342914,174
47.1451,-50.8957,-0.0390335,174
47.2437,-50.9998,-0.036927,174
47.3754,-51.0314,-0.0537071,174
47.4909,-51.1015,-0.0596844,174
47.6026,-51.1845,-0.0618951,174
47.6985,-51.3192,-0.0507912,174
47.7924,-51.4743,-0.0346868,174
47.883,-51.66,-0.0113152,174
48.0069,-51.7483,-0.0116766,0
48.1436,-51.7932,-0.0219158,0
48.2816,-51.8351,-0.0322088,0
48.6935,-50.4758,-0.363635,174
48.8165,-50.4179,-0.391085,174
48.9193,-50.4722,-0.392458,174
48.9886,-50.8086,-0.331128,174
48.9859,-51.9985,-0.0844695,0
49.1288,-52.0263,-0.0940643,0
49.2727,-52.0514,-0.10361,0
49.4173,-52.0732,-0.113215,0
49.5627,-52.0918,-0.122873,0
49.7087,-52.107,-0.13257,0
49.8553,-52.1188,-0.142311,0
50.0025,-52.1273,-0.152082,0
50.1497,-52.1266,-0.163063,0
50.2948,-52.1017,-0.17821,0
50.439,-52.0736,-0.193254,0
50.5822,-52.0422,-0.208195,0
50.7243,-52.0076,-0.223029,0
50.8654,-51.97,-0.237751,0
51.0052,-51.9292,-0.252341,0
51.1438,-51.8853,-0.266808,0
51.281,-51.8385,-0.281125,0
51.417,-51.7886,-0.295314,0
51.5514,-51.7358,-0.309338,0
51.6844,-51.6802,-0.32322,0
51.8158,-51.6216,-0.33694,0
51.9474,-51.5649,-0.349616,0
52.0791,-51.509,-0.361442,0
52.2093,-51.4497,-0.373229,0
52.3377,-51.387,-0.384972,0
52.4645,-51.321,-0.396657,0
52.5891,-51.2515,-0.408307,0
52.6972,-51.1529,-0.424821,0
52.8025,-51.0524,-0.441017,0
52.9051,-50.9504,-0.456887,0
53.0056,-50.848,-0.472194,0
53.1051,-50.7466,-0.486696,0
53.2019,-50.6437,-0.500866,0
53.2961,-50.5393,-0.514723,0
53.3875,-50.4335,-0.528259,0
53.4764,-50.3263,-0.541476,0
53.5626,-50.218,-0.554362,0
53.6461,-50.1084,-0.566921,0
53.727,-49.9977,-0.579162,0
53.8052,-49.8859,-0.591071,0
53.8808,-49.7731,-0.602648,0
53.9538,-49.6594,-0.613913,0
54.024,-49.5447,-0.624831,0
54.0917,-49.4292,-0.635431,0
54.1568,-49.313,-0.64571,0
54.2198,-49.1964,-0.655549,0
54.2802,-49.0791,-0.665065,0
54.3381,-48.9612,-0.67425,0
54.3935,-48.8427,-0.683102,0
54.4464,-48.7237,-0.691628,0
54.4967,-48.6041,-0.699831,0
54.5446,-48.4841,-0.707692,0
54.5927,-48.3651,-0.714845,0
54.6423,-48.2477,-0.721071,0
54.6897,-48.1296,-0.726989,0
54.7347,-48.0109,-0.732594,0
54.7774,-47.8917,-0.737892,0
54.8178,-47.7718,-0.742883,0
54.8559,-47.6515,-0.747551,0
54.8916,-47.5307,-0.751926,0
54.9252,-47.4094,-0.755993,0
54.9563,-47.2877,-0.759743,0
54.9852,-47.1656,-0.76319,0
54.742,-46.9749,-0.801313,174
54.7604,-46.8573,-0.804601,174
54.9259,-46.7702,-0.788514,174
54.9401,-46.649,-0.791306,174
55.0213,-46.5388,-0.785072,174
46.0676,-50.3481,0.0787368,174
46.2439,-50.3358,0.038709,174
46.3653,-50.3933,0.0227456,174
46.4773,-50.4634,0.0115694,174
46.5744,-50.5567,0.00809402,174
46.6585,-50.6742,0.0121671,174
46.7947,-50.7046,-0.00893784,174
46.9175,-50.756,-0.0230206,174
47.0358,-50.8151,-0.0341832,174
47.1441,-50.8947,-0.0390425,174
47.2418,-51.0007,-0.0364277,174
47.3742,-51.031,-0.0535686,174
47.4898,-51.1007,-0.0596599,174
47.6015,-51.1837,-0.0618752,174
47.6977,-51.3173,-0.0510275,174
47.7912,-51.4734,-0.0346867,174
47.8822,-51.6579,-0.0116201,174
48.0054,-51.7478,-0.0115789,0
48.1423,-51.7928,-0.0218133,0
48.2802,-51.8347,-0.0321062,0
48.6921,-50.4768,-0.36324,174
48.8154,-50.4176,-0.39101,174
48.9184,-50.4713,-0.392524,174
48.9878,-50.8057,-0.331633,174
48.9845,-51.9983,-0.0843621,0
49.1274,-52.0261,-0.0939666,0
49.2712,-52.0512,-0.103512,0
49.4158,-52.073,-0.113122,0
49.5612,-52.0916,-0.12277,0
49.7073,-52.1068,-0.132472,0
49.8539,-52.1187,-0.142209,0
50.0011,-52.1273,-0.151979,0
50.1482,-52.1268,-0.162917,0
50.2934,-52.1019,-0.178058,0
50.4375,-52.0738,-0.193107,0
50.5807,-52.0425,-0.208049,0
50.7229,-52.008,-0.222878,0
50.8639,-51.9704,-0.237604,0
51.0037,-51.9296,-0.252194,0
51.1423,-51.8858,-0.266662,0
51.2797,-51.8389,-0.280983,0
51.4156,-51.7891,-0.295168,0
51.5501,-51.7364,-0.309206,0
51.6831,-51.6807,-0.323083,0
51.8145,-51.6222,-0.336799,0
51.9462,-51.5655,-0.349494,0
52.0779,-51.5096,-0.361315,0
52.208,-51.4503,-0.373112,0
52.3365,-51.3877,-0.38485,0
52.4631,-51.3217,-0.396535,0
52.588,-51.2524,-0.408151,0
52.6961,-51.1538,-0.42466,0
52.8016,-51.0535,-0.440861,0
52.9041,-50.9514,-0.456735,0
53.0046,-50.849,-0.472048,0
53.1041,-50.7476,-0.48655,0
53.2009,-50.6447,-0.500734,0
53.2951,-50.5403,-0.514592,0
53.3866,-50.4345,-0.528132,0
53.4755,-50.3274,-0.541349,0
53.5617,-50.2191,-0.55424,0
53.6453,-50.1095,-0.566804,0
53.7262,-49.9988,-0.57904,0
53.8045,-49.887,-0.590959,0
53.8801,-49.7743,-0.602541,0
53.953,-49.6605,-0.613796,0
54.0234,-49.5459,-0.624733,0
54.091,-49.4304,-0.635329,0
54.1561,-49.3141,-0.645607,0
54.2191,-49.1976,-0.655456,0
54.2796,-49.0803,-0.664963,0
54.3376,-48.9624,-0.674162,0
54.393,-48.8439,-0.68301,0
54.4459,-48.7249,-0.691545,0
54.4963,-48.6053,-0.699748,0
54.5441,-48.4853,-0.707624,0
54.5921,-48.3663,-0.714782,0
54.6418,-48.2489,-0.721008,0
54.6891,-48.1308,-0.726926,0
54.7342,-48.0121,-0.732546,0
54.777,-47.8929,-0.737839,0
54.8174,-47.773,-0.742829,0
54.8555,-47.6527,-0.747512,0
54.8914,-47.5319,-0.751886,0
54.9248,-47.4106,-0.755954,0
54.9561,-47.289,-0.759704,0
54.9849,-47.1669,-0.763161,0
54.7425,-46.9763,-0.801197,174
54.7596,-46.8583,-0.804655,174
54.9263,-46.7715,-0.788424,174
54.9398,-46.6502,-0.79131,174
55.0199,-46.5398,-0.785206,174
46.1346,-50.2696,0.0954572,0
46.2381,-50.3534,0.087155,174
46.3505,-50.4248,0.07539,174
46.4619,-50.4973,0.0647271,174
46.5566,-50.5961,0.062961,174
46.6478,-50.7038,0.0641974,174
46.8085,-50.6922,0.0300777,174
46.9342,-50.7374,0.0141461,174
47.052,-50.7962,0.00300896,174
47.1698,-50.8547,-0.00754818,174
47.2566,-50.9825,0.00174614,174
47.3908,-51.0073,-0.0170171,174
47.5019,-51.0867,-0.0202478,174
47.6134,-51.1693,-0.0222087,174
47.7132,-51.2914,-0.0135883,174
47.8047,-51.4521,0.00489082,0
47.9347,-51.501,-0.00486992,0
48.0659,-51.547,-0.0147088,0
48.1983,-51.5902,-0.0246111,0
48.3317,-51.6304,-0.0345672,0
48.7037,-50.445,-0.334615,174
48.8217,-50.412,-0.356739,174
48.9248,-50.4637,-0.358433,174
48.9969,-50.7783,-0.299669,174
49.0127,-51.787,-0.0850799,0
49.1512,-51.8093,-0.0952947,0
49.2902,-51.8319,-0.104777,0
49.4299,-51.8525,-0.114054,0
49.5703,-51.8699,-0.123371,0
49.7113,-51.8841,-0.132741,0
49.8528,-51.8951,-0.142136,0
49.9948,-51.9029,-0.151574,0
50.137,-51.9039,-0.16175,0
50.2771,-51.8803,-0.176369,0
50.4164,-51.8536,-0.190905,0
50.5547,-51.8237,-0.205334,0
50.692,-51.7908,-0.21966,0
50.8284,-51.7548,-0.233879,0
50.9634,-51.7158,-0.24799,0
51.0974,-51.6739,-0.261965,0
51.2302,-51.629,-0.275812,0
51.3616,-51.5812,-0.289523,0
51.4916,-51.5306,-0.303093,0
51.6202,-51.4772,-0.316511,0
51.7473,-51.4211,-0.329772,0
51.8728,-51.3622,-0.342883,0
51.9968,-51.3006,-0.355822,0
52.1192,-51.2365,-0.368591,0
52.2398,-51.1697,-0.381188,0
52.3588,-51.1004,-0.393595,0
52.478,-51.0327,-0.405026,0
52.5952,-50.9616,-0.416442,0
52.6979,-50.8663,-0.432004,0
52.7996,-50.7723,-0.446677,0
52.8988,-50.6766,-0.461052,0
52.9955,-50.5793,-0.475124,0
53.0896,-50.4805,-0.488893,0
53.1812,-50.3802,-0.502355,0
53.2703,-50.2785,-0.51551,0
53.3567,-50.1756,-0.528351,0
53.4408,-50.0713,-0.540886,0
53.5221,-49.9659,-0.553102,0
53.601,-49.8594,-0.564987,0
53.6776,-49.7521,-0.576511,0
53.7517,-49.6437,-0.587717,0
53.8232,-49.5344,-0.598605,0
53.8923,-49.4242,-0.609172,0
53.9588,-49.3132,-0.619411,0
54.0229,-49.2013,-0.629338,0
54.0845,-49.0887,-0.638947,0
54.1436,-48.9754,-0.648224,0
54.2003,-48.8614,-0.657199,0
54.2545,-48.7468,-0.665842,0
54.3062,-48.6316,-0.674181,0
54.3555,-48.516,-0.682189,0
54.4031,-48.4002,-0.689787,0
54.4538,-48.287,-0.696164,0
54.5023,-48.173,-0.702248,0
54.5486,-48.0585,-0.708024,0
54.5926,-47.9433,-0.713508,0
54.6343,-47.8275,-0.718678,0
54.6737,-47.7112,-0.723552,0
54.7109,-47.5944,-0.728122,0
54.7459,-47.4771,-0.732399,0
54.7786,-47.3593,-0.736374,0
54.8091,-47.2411,-0.740036,0
54.8373,-47.1226,-0.74341,0
54.7325,-46.9706,-0.764384,174
54.7592,-46.8552,-0.76659,174
54.9083,-46.7648,-0.751706,0
54.9274,-46.645,-0.753874,0
54.9444,-46.5249,-0.755744,0
46.1336,-50.2686,0.0954963,0
46.237,-50.3527,0.0872858,174
46.3494,-50.4241,0.0755004,174
46.4608,-50.4965,0.0648299,174
46.5557,-50.5951,0.0629536,174
46.6469,-50.7027,0.0641808,174
46.8069,-50.6922,0.0303821,174
46.933,-50.7368,0.0142601,174
47.0508,-50.7956,0.00311703,174
47.1686,-50.8541,-0.00744549,174
47.2544,-50.9842,0.00246563,174
47.3896,-51.0067,-0.0169341,174
47.5008,-51.0858,-0.0202254,174
47.6123,-51.1685,-0.0221915,174
47.7124,-51.2896,-0.0138321,174
47.8034,-51.4516,0.00498848,0
47.9334,-51.5005,-0.00477715,0
48.0646,-51.5466,-0.0146111,0
48.197,-51.5897,-0.0245086,0
48.3304,-51.63,-0.0344598,0
48.7024,-50.4459,-0.334253,174
48.8206,-50.4117,-0.356665,174
48.9238,-50.4628,-0.358503,174
48.996,-50.7754,-0.300188,174
49.0113,-51.7868,-0.0849822,0
49.1498,-51.8091,-0.0951922,0
49.2888,-51.8317,-0.104684,0
49.4285,-51.8523,-0.113962,0
49.5688,-51.8698,-0.123278,0
49.7098,-51.884,-0.132638,0
49.8514,-51.895,-0.142043,0
49.9934,-51.9028,-0.151471,0
50.1356,-51.9041,-0.161594,0
50.2758,-51.8806,-0.176222,0
50.415,-51.8539,-0.190759,0
50.5534,-51.824,-0.205192,0
50.6906,-51.7911,-0.219528,0
50.827,-51.7552,-0.233742,0
50.9621,-51.7162,-0.247844,0
51.0961,-51.6743,-0.261828,0
51.2287,-51.6295,-0.275671,0
51.3602,-51.5817,-0.289387,0
51.4902,-51.5311,-0.302956,0
51.6189,-51.4778,-0.316379,0
51.746,-51.4216,-0.329645,0
51.8716,-51.3628,-0.342751,0
51.9956,-51.3013,-0.355695,0
52.118,-51.2371,-0.368469,0
52.2387,-51.1704,-0.381056,0
52.3576,-51.1011,-0.393469,0
52.4769,-51.0334,-0.404909,0
52.5942,-50.9625,-0.416286,0
52.6968,-50.8672,-0.431852,0
52.7986,-50.7732,-0.44653,0
52.8978,-50.6775,-0.46091,0
52.9945,-50.5802,-0.474992,0
53.0887,-50.4814,-0.488757,0
53.1803,-50.3812,-0.502223,0
53.2694,-50.2796,-0.515378,0
53.3559,-50.1766,-0.52822,0
53.4399,-50.0724,-0.540763,0
53.5212,-49.967,-0.55298,0
53.6002,-49.8605,-0.56487,0
53.6768,-49.7532,-0.576403,0
53.7509,-49.6448,-0.587604,0
53.8225,-49.5355,-0.598498,0
53.8916,-49.4253,-0.609064,0
53.9582,-49.3143,-0.619318,0
54.0223,-49.2024,-0.629245,0
54.0839,-49.0898,-0.638849,0
54.143,-48.9765,-0.648136,0
54.1998,-48.8625,-0.657111,0
54.254,-48.748,-0.665759,0
54.3058,-48.6328,-0.674094,0
54.3551,-48.5171,-0.682111,0
54.4026,-48.4013,-0.689719,0
54.4533,-48.2881,-0.6961,0
54.5019,-48.1742,-0.702189,0
54.5482,-48.0596,-0.707975,0
54.5921,-47.9445,-0.713449,0
54.6339,-47.8287,-0.71863,0
54.6734,-47.7124,-0.723508,0
54.7105,-47.5956,-0.728083,0
54.7455,-47.4783,-0.732355,0
54.7783,-47.3605,-0.73633,0
54.8088,-47.2423,-0.740002,0
54.837,-47.1237,-0.743366,0
54.733,-46.9719,-0.764263,174
54.7584,-46.8562,-0.766648,174
54.908,-46.766,-0.751686,0
54.9273,-46.6462,-0.753854,0
54.9442,-46.5261,-0.755729,0
46.1327,-50.2676,0.0955402,0
46.2358,-50.3521,0.087418,174
46.3483,-50.4233,0.0756112,174
46.4597,-50.4958,0.0649318,174
46.5548,-50.594,0.0629452,174
46.646,-50.7016,0.0641642,174
46.8054,-50.6922,0.0306853,174
46.9318,-50.7362,0.0143742,174
47.0496,-50.795,0.00322529,174
47.1675,-50.8535,-0.00734261,174
47.2523,-50.9858,0.00318565,174
47.3884,-51.006,-0.0168517,174
47.4997,-51.085,-0.020203,174
47.6111,-51.1677,-0.022175,174
47.7116,-51.2878,-0.014077,174
47.8021,-51.4511,0.0050959,0
47.9321,-51.5,-0.00467949,0
48.0634,-51.5461,-0.0145135,0
48.1956,-51.5893,-0.0244061,0
48.3291,-51.6296,-0.034367,0
48.7011,-50.4468,-0.333891,174
48.8196,-50.4115,-0.356591,174
48.9228,-50.4619,-0.358574,174
48.9952,-50.7725,-0.300706,174
49.0099,-51.7866,-0.0848797,0
49.1485,-51.8089,-0.0950994,0
49.2875,-51.8314,-0.104592,0
49.4271,-51.8521,-0.113864,0
49.5674,-51.8696,-0.12319,0
49.7084,-51.8839,-0.132551,0
49.85,-51.895,-0.14195,0
49.992,-51.9028,-0.151384,0
50.1342,-51.9044,-0.161447,0
50.2743,-51.8808,-0.176076,0
50.4136,-51.8541,-0.190617,0
50.552,-51.8244,-0.205041,0
50.6893,-51.7915,-0.219382,0
50.8256,-51.7556,-0.233605,0
50.9608,-51.7166,-0.247707,0
51.0948,-51.6747,-0.261686,0
51.2275,-51.6299,-0.275534,0
51.3589,-51.5822,-0.28925,0
51.489,-51.5317,-0.302824,0
51.6176,-51.4783,-0.316247,0
51.7447,-51.4222,-0.329513,0
51.8703,-51.3634,-0.342619,0
51.9944,-51.3019,-0.355563,0
52.1168,-51.2378,-0.368332,0
52.2375,-51.1711,-0.380929,0
52.3565,-51.1018,-0.393346,0
52.4757,-51.034,-0.404802,0
52.5932,-50.9635,-0.416125,0
52.6958,-50.8682,-0.431701,0
52.7976,-50.7742,-0.446384,0
52.8969,-50.6785,-0.460768,0
52.9936,-50.5812,-0.474845,0
53.0877,-50.4824,-0.488625,0
53.1795,-50.3822,-0.502092,0
53.2685,-50.2806,-0.515246,0
53.3551,-50.1777,-0.528097,0
53.4391,-50.0734,-0.540641,0
53.5205,-49.968,-0.552858,0
53.5995,-49.8616,-0.564753,0
53.6761,-49.7542,-0.576281,0
53.7502,-49.6459,-0.587492,0
53.8218,-49.5366,-0.598395,0
53.8909,-49.4264,-0.608967,0
53.9575,-49.3154,-0.619211,0
54.0216,-49.2035,-0.629152,0
54.0833,-49.0909,-0.638757,0
54.1424,-48.9776,-0.648049,0
54.1991,-48.8637,-0.657023,0
54.2534,-48.7491,-0.665676,0
54.3052,-48.634,-0.674011,0
54.3546,-48.5183,-0.682038,0
54.402,-48.4024,-0.689655,0
54.4529,-48.2892,-0.696037,0
54.5014,-48.1753,-0.702131,0
54.5477,-48.0608,-0.707917,0
54.5917,-47.9456,-0.7134,0
54.6335,-47.8299,-0.718581,0
54.673,-47.7135,-0.723464,0
54.7102,-47.5967,-0.728039,0
54.7452,-47.4794,-0.732321,0
54.778,-47.3617,-0.736291,0
54.8084,-47.2435,-0.739963,0
54.8367,-47.1249,-0.743342,0
54.7334,-46.9733,-0.764142,174
54.7576,-46.8572,-0.766705,174
54.9079,-46.7672,-0.751652,0
54.927,-46.6473,-0.75383,0
54.944,-46.5273,-0.755705,0
46.2497,-50.1232,0.0878791,0
46.3414,-50.2161,0.0838313,0
46.4355,-50.3072,0.0796418,0
46.5317,-50.3966,0.0753107,0
46.6302,-50.4841,0.0708479,0
46.731,-50.5698,0.0662434,0
46.8339,-50.6535,0.0615022,0
46.9484,-50.7176,0.0513634,174
47.0657,-50.7763,0.0402411,174
47.1822,-50.8364,0.0302596,174
47.2688,-50.9636,0.0400422,0
47.402,-50.9894,0.0214183,174
47.5118,-51.071,0.0191071,174
47.623,-51.1533,0.0173883,174
47.7425,-51.2164,0.0109064,0
47.8672,-51.2662,0.00152168,0
47.9931,-51.3133,-0.00792656,0
48.1202,-51.3577,-0.0174529,0
48.2483,-51.3992,-0.027033,0
48.5689,-50.5575,-0.255071,174
48.71,-50.4284,-0.302319,174
48.8258,-50.4058,-0.322301,174
48.9292,-50.4546,-0.324414,174
49.0042,-50.7453,-0.26902,174
49.0366,-51.5885,-0.0855584,0
49.1706,-51.6097,-0.0954412,0
49.3052,-51.628,-0.105353,0
49.4404,-51.6457,-0.114743,0
49.576,-51.6622,-0.123752,0
49.7123,-51.6755,-0.132804,0
49.8491,-51.6857,-0.141887,0
49.9863,-51.6928,-0.151003,0
50.1238,-51.6957,-0.160368,0
50.2593,-51.6733,-0.174504,0
50.3939,-51.6479,-0.188552,0
50.5277,-51.6194,-0.202516,0
50.6605,-51.588,-0.216374,0
50.7923,-51.5536,-0.230129,0
50.9231,-51.5163,-0.243771,0
51.0527,-51.4762,-0.257297,0
51.1811,-51.4332,-0.2707,0
51.3083,-51.3873,-0.283971,0
51.4341,-51.3388,-0.297106,0
51.5586,-51.2875,-0.310095,0
51.6817,-51.2335,-0.322941,0
51.8034,-51.1769,-0.335632,0
51.9234,-51.1178,-0.348161,0
52.042,-51.056,-0.360529,0
52.1588,-50.9918,-0.372721,0
52.2741,-50.9251,-0.384758,0
52.3869,-50.8546,-0.396872,0
52.4966,-50.7796,-0.409274,0
52.6033,-50.7006,-0.421833,0
52.7023,-50.6102,-0.436115,0
52.7987,-50.5182,-0.45009,0
52.8927,-50.4247,-0.463771,0
52.9845,-50.3298,-0.47715,0
53.0738,-50.2334,-0.490231,0
53.1606,-50.1357,-0.502995,0
53.245,-50.0367,-0.515466,0
53.327,-49.9365,-0.527624,0
53.4066,-49.8351,-0.539479,0
53.4838,-49.7326,-0.551022,0
53.5586,-49.629,-0.562258,0
53.6309,-49.5244,-0.573185,0
53.7008,-49.4189,-0.583805,0
53.7683,-49.3124,-0.594108,0
53.8334,-49.2051,-0.604108,0
53.896,-49.097,-0.613805,0
53.9562,-48.9881,-0.62318,0
54.0141,-48.8785,-0.632253,0
54.0695,-48.7682,-0.641012,0
54.1227,-48.6573,-0.649474,0
54.1734,-48.5458,-0.657614,0
54.2217,-48.4338,-0.665451,0
54.2723,-48.3239,-0.672184,0
54.322,-48.214,-0.67842,0
54.3693,-48.1034,-0.684367,0
54.4145,-47.9922,-0.690012,0
54.4576,-47.8804,-0.695373,0
54.4984,-47.7679,-0.700431,0
54.5369,-47.6549,-0.705197,0
54.5733,-47.5414,-0.709675,0
54.6074,-47.4274,-0.713854,0
54.6394,-47.313,-0.717731,0
54.6691,-47.1981,-0.721325,0
54.6967,-47.0829,-0.724616,0
54.7221,-46.9673,-0.727624,0
54.7452,-46.8513,-0.730329,0
54.7663,-46.7351,-0.732741,0
54.7849,-46.6185,-0.734865,0
54.8015,-46.5018,-0.736696,0
46.2487,-50.1223,0.087923,0
46.3405,-50.2151,0.0838654,0
46.4345,-50.3063,0.0796857,0
46.5308,-50.3957,0.0753547,0
46.6293,-50.4832,0.0708967,0
46.73,-50.5689,0.0662873,0
46.833,-50.6526,0.0615461,0
46.9473,-50.717,0.0514775,174
47.0645,-50.7757,0.0403487,174
47.1811,-50.8357,0.0303323,174
47.2677,-50.9629,0.0401057,0
47.4009,-50.9886,0.0214446,174
47.5107,-51.0702,0.0191274,174
47.6219,-51.1525,0.0174027,174
47.7413,-51.2159,0.0110041,0
47.866,-51.2657,0.00161446,0
47.9919,-51.3129,-0.00783379,0
48.1189,-51.3572,-0.0173553,0
48.247,-51.3988,-0.0269353,0
48.5669,-50.5611,-0.254004,174
48.7088,-50.4289,-0.302053,174
48.8247,-50.4056,-0.322228,174
48.9282,-50.454,-0.324421,174
49.0034,-50.7425,-0.269552,174
49.0352,-51.5882,-0.0854559,0
49.1692,-51.6095,-0.0953436,0
49.3039,-51.6279,-0.105256,0
49.439,-51.6455,-0.114655,0
49.5746,-51.662,-0.123664,0
49.7109,-51.6754,-0.132707,0
49.8477,-51.6857,-0.141794,0
49.9849,-51.6928,-0.15091,0
50.1225,-51.6959,-0.160231,0
50.258,-51.6736,-0.174362,0
50.3927,-51.6482,-0.18842,0
50.5264,-51.6197,-0.20237,0
50.6592,-51.5883,-0.216237,0
50.791,-51.554,-0.229992,0
50.9217,-51.5167,-0.243635,0
51.0514,-51.4766,-0.257165,0
51.1798,-51.4336,-0.270558,0
51.307,-51.3878,-0.28384,0
51.4329,-51.3393,-0.296974,0
51.5574,-51.288,-0.309963,0
51.6805,-51.2341,-0.322814,0
51.8022,-51.1775,-0.335505,0
51.9223,-51.1183,-0.348044,0
52.0408,-51.0566,-0.360412,0
52.1577,-50.9924,-0.372604,0
52.273,-50.9258,-0.384631,0
52.3858,-50.8554,-0.396755,0
52.4955,-50.7804,-0.409147,0
52.6023,-50.7015,-0.421691,0
52.7012,-50.6111,-0.435969,0
52.7977,-50.5191,-0.449958,0
52.8919,-50.4257,-0.463635,0
52.9835,-50.3307,-0.477018,0
53.0729,-50.2344,-0.490099,0
53.1598,-50.1367,-0.502873,0
53.2442,-50.0377,-0.515344,0
53.3263,-49.9375,-0.527512,0
53.4059,-49.8361,-0.539362,0
53.483,-49.7336,-0.55091,0
53.5578,-49.6301,-0.56215,0
53.6302,-49.5255,-0.573073,0
53.7001,-49.42,-0.583698,0
53.7676,-49.3135,-0.594015,0
53.8327,-49.2062,-0.604015,0
53.8954,-49.0981,-0.613708,0
53.9556,-48.9892,-0.623088,0
54.0135,-48.8796,-0.632165,0
54.0691,-48.7693,-0.640929,0
54.1221,-48.6584,-0.649387,0
54.1728,-48.5469,-0.657536,0
54.2212,-48.4349,-0.665373,0
54.2719,-48.325,-0.672116,0
54.3215,-48.2151,-0.678356,0
54.3689,-48.1045,-0.684308,0
54.4141,-47.9933,-0.689958,0
54.4571,-47.8815,-0.695319,0
54.4979,-47.769,-0.700387,0
54.5365,-47.6561,-0.705153,0
54.5729,-47.5426,-0.709621,0
54.6071,-47.4286,-0.713805,0
54.6391,-47.3141,-0.717692,0
54.6689,-47.1993,-0.721286,0
54.6965,-47.084,-0.724587,0
54.7218,-46.9684,-0.727594,0
54.745,-46.8525,-0.730304,0
54.766,-46.7362,-0.732726,0
54.7848,-46.6197,-0.734845,0
54.8013,-46.503,-0.736677,0
46.248,-50.1214,0.0879621,0
46.3395,-50.2142,0.0839094,0
46.4336,-50.3054,0.0797248,0
46.5298,-50.3948,0.0754035,0
46.6282,-50.4824,0.0709357,0
46.729,-50.5681,0.0663361,0
46.8319,-50.6518,0.0615949,0
46.9461,-50.7165,0.0515917,174
47.0634,-50.7751,0.0404571,174
47.18,-50.835,0.0304059,174
47.2666,-50.9622,0.040174,0
47.3998,-50.9878,0.0214709,174
47.5096,-51.0694,0.0191469,174
47.6208,-51.1517,0.0174167,174
47.74,-51.2154,0.011092,0
47.8648,-51.2652,0.00170723,0
47.9905,-51.3124,-0.0077459,0
48.1176,-51.3568,-0.0172576,0
48.2457,-51.3984,-0.0268426,0
48.5638,-50.57,-0.25163,174
48.7075,-50.4294,-0.301787,174
48.8237,-50.4053,-0.322154,174
48.9271,-50.4534,-0.324428,174
49.0026,-50.7397,-0.270084,174
49.0338,-51.588,-0.0853631,0
49.1679,-51.6093,-0.0952508,0
49.3026,-51.6277,-0.105148,0
49.4377,-51.6453,-0.114562,0
49.5733,-51.6619,-0.123576,0
49.7095,-51.6753,-0.132619,0
49.8463,-51.6856,-0.141706,0
49.9835,-51.6927,-0.150812,0
50.1211,-51.6961,-0.160085,0
50.2566,-51.6738,-0.174225,0
50.3913,-51.6484,-0.188273,0
50.525,-51.62,-0.202228,0
50.6579,-51.5887,-0.2161,0
50.7898,-51.5543,-0.229855,0
50.9205,-51.5171,-0.243498,0
51.0501,-51.477,-0.257028,0
51.1785,-51.434,-0.270431,0
51.3058,-51.3883,-0.283703,0
51.4316,-51.3398,-0.296847,0
51.5562,-51.2885,-0.309841,0
51.6793,-51.2346,-0.322682,0
51.8009,-51.1781,-0.335373,0
51.9211,-51.119,-0.347917,0
52.0396,-51.0573,-0.36028,0
52.1565,-50.9931,-0.372487,0
52.2718,-50.9264,-0.384513,0
52.3847,-50.8561,-0.396628,0
52.4945,-50.7811,-0.40903,0
52.6013,-50.7023,-0.421559,0
52.7003,-50.612,-0.435832,0
52.7968,-50.5201,-0.449816,0
52.8909,-50.4266,-0.463503,0
52.9827,-50.3317,-0.476887,0
53.072,-50.2354,-0.489963,0
53.1589,-50.1377,-0.502751,0
53.2434,-50.0387,-0.515221,0
53.3255,-49.9385,-0.527385,0
53.4051,-49.8372,-0.53924,0
53.4823,-49.7347,-0.550793,0
53.5571,-49.6311,-0.562033,0
53.6295,-49.5265,-0.572975,0
53.6995,-49.421,-0.583591,0
53.7669,-49.3146,-0.593913,0
53.832,-49.2073,-0.603918,0
53.8948,-49.0991,-0.613615,0
53.955,-48.9903,-0.623,0
54.0129,-48.8807,-0.632077,0
54.0685,-48.7704,-0.640846,0
54.1216,-48.6595,-0.649299,0
54.1724,-48.548,-0.657453,0
54.2207,-48.436,-0.6653,0
54.2714,-48.3261,-0.672053,0
54.321,-48.2162,-0.678303,0
54.3684,-48.1057,-0.684245,0
54.4137,-47.9944,-0.689904,0
54.4567,-47.8826,-0.695265,0
54.4975,-47.7702,-0.700329,0
54.5361,-47.6572,-0.705104,0
54.5725,-47.5437,-0.709582,0
54.6067,-47.4297,-0.713766,0
54.6388,-47.3153,-0.717653,0
54.6686,-47.2004,-0.721257,0
54.6962,-47.0852,-0.724553,0
54.7216,-46.9696,-0.72756,0
54.7448,-46.8536,-0.730275,0
54.7658,-46.7374,-0.732697,0
54.7846,-46.6209,-0.734826,0
54.8012,-46.5041,-0.736662,0
46.358,-49.9855,0.0807551,0
46.4472,-50.075,0.0768,0
46.5387,-50.1629,0.0727229,0
46.6323,-50.249,0.0685139,0
46.728,-50.3334,0.0641682,0
46.8259,-50.4158,0.0596906,0
46.9259,-50.4964,0.0550764,0
47.0278,-50.5751,0.0503352,0
47.132,-50.6517,0.0454719,0
47.238,-50.7262,0.040467,0
47.3462,-50.7986,0.0353449,0
47.5973,-50.532,-0.0669442,174
47.5691,-50.9342,0.0239875,0
47.6855,-50.9925,0.016468,0
47.8052,-51.0433,0.00744942,0
47.926,-51.0914,-0.00164238,0
48.048,-51.1368,-0.0108123,0
48.1712,-51.1796,-0.0200359,0
48.2953,-51.2197,-0.0293133,0
48.5833,-50.506,-0.230719,174
48.716,-50.4134,-0.269775,174
48.8299,-50.3997,-0.287845,174
48.9335,-50.4462,-0.290271,174
49.0259,-50.5948,-0.267407,174
49.0589,-51.4018,-0.0860027,0
49.1887,-51.4222,-0.0955779,0
49.3191,-51.4397,-0.105173,0
49.45,-51.4543,-0.114787,0
49.5814,-51.4673,-0.124113,0
49.7132,-51.4799,-0.132868,0
49.8455,-51.4894,-0.141652,0
49.9783,-51.4959,-0.150461,0
50.1113,-51.4994,-0.159304,0
50.2425,-51.4791,-0.172751,0
50.3729,-51.4549,-0.186349,0
50.5023,-51.4277,-0.19987,0
50.6309,-51.3977,-0.213288,0
50.7585,-51.3648,-0.226598,0
50.8852,-51.329,-0.239811,0
51.0107,-51.2905,-0.252917,0
51.1351,-51.2492,-0.265895,0
51.2583,-51.2052,-0.278752,0
51.3802,-51.1586,-0.291476,0
51.5009,-51.1093,-0.304064,0
51.6202,-51.0573,-0.316515,0
51.738,-51.0029,-0.32882,0
51.8544,-50.9459,-0.340964,0
51.9693,-50.8864,-0.352946,0
52.0812,-50.8216,-0.365407,0
52.1913,-50.7541,-0.377746,0
52.2996,-50.6843,-0.389924,0
52.4059,-50.6121,-0.40193,0
52.5103,-50.5377,-0.413761,0
52.6112,-50.4587,-0.425949,0
52.7052,-50.3702,-0.439538,0
52.7968,-50.2803,-0.452858,0
52.8861,-50.1888,-0.465876,0
52.9731,-50.096,-0.478605,0
53.0578,-50.0018,-0.491047,0
53.1402,-49.9064,-0.50319,0
53.2202,-49.8097,-0.515041,0
53.2979,-49.7118,-0.526594,0
53.3732,-49.6129,-0.537848,0
53.4462,-49.5128,-0.548805,0
53.5168,-49.4118,-0.559465,0
53.5852,-49.3098,-0.569826,0
53.6511,-49.2068,-0.579885,0
53.7148,-49.103,-0.58965,0
53.776,-48.9984,-0.599118,0
53.8349,-48.893,-0.608278,0
53.8916,-48.7869,-0.61714,0
53.9459,-48.6801,-0.62571,0
53.9979,-48.5726,-0.633967,0
54.0476,-48.4646,-0.64194,0
54.0977,-48.3577,-0.649103,0
54.1484,-48.2516,-0.655485,0
54.1968,-48.1449,-0.661594,0
54.2432,-48.0374,-0.667399,0
54.2873,-47.9293,-0.672927,0
54.3294,-47.8206,-0.678166,0
54.3692,-47.7114,-0.683112,0
54.407,-47.6015,-0.687785,0
54.4426,-47.4912,-0.692155,0
54.476,-47.3803,-0.696242,0
54.5073,-47.269,-0.700046,0
54.5364,-47.1573,-0.703556,0
54.5634,-47.0452,-0.706789,0
54.5881,-46.9327,-0.709719,0
54.6109,-46.8199,-0.71237,0
54.6313,-46.7068,-0.714738,0
54.6497,-46.5935,-0.716818,0
54.6659,-46.4799,-0.71861,0
46.3572,-49.9846,0.0807893,0
46.4463,-50.0742,0.0768488,0
46.5377,-50.162,0.0727619,0
46.6312,-50.2482,0.0685529,0
46.727,-50.3325,0.0642121,0
46.8248,-50.415,0.0597248,0
46.9248,-50.4956,0.0551203,0
47.0269,-50.5743,0.050384,0
47.1309,-50.6509,0.0455158,0
47.237,-50.7255,0.0405207,0
47.3451,-50.7979,0.0354035,0
47.596,-50.532,-0.0667158,174
47.568,-50.9336,0.0240559,0
47.6844,-50.992,0.0165559,0
47.804,-51.0428,0.00753731,0
47.9248,-51.0909,-0.00155449,0
48.0468,-51.1364,-0.0107146,0
48.1699,-51.1792,-0.0199432,0
48.2941,-51.2193,-0.0292205,0
48.5814,-50.5091,-0.229764,174
48.7148,-50.4139,-0.269504,174
48.8288,-50.3994,-0.287772,174
48.9325,-50.4456,-0.290281,174
49.0256,-50.5886,-0.268795,174
49.0576,-51.4016,-0.0859148,0
49.1874,-51.422,-0.0954852,0
49.3178,-51.4396,-0.10507,0
49.4487,-51.4542,-0.114689,0
49.5801,-51.4671,-0.124025,0
49.7119,-51.4798,-0.13278,0
49.8442,-51.4893,-0.141564,0
49.977,-51.4959,-0.150383,0
50.11,-51.4993,-0.159221,0
50.2412,-51.4793,-0.172614,0
50.3716,-51.4551,-0.186222,0
50.501,-51.428,-0.199738,0
50.6297,-51.398,-0.213151,0
50.7573,-51.3651,-0.226471,0
50.8839,-51.3294,-0.239684,0
51.0095,-51.2909,-0.252785,0
51.1338,-51.2497,-0.265768,0
51.257,-51.2057,-0.27863,0
51.3791,-51.159,-0.291354,0
51.4997,-51.1098,-0.303942,0
51.6189,-51.0579,-0.316393,0
51.7369,-51.0034,-0.328693,0
51.8533,-50.9465,-0.340846,0
51.9682,-50.887,-0.352829,0
52.0802,-50.8222,-0.365285,0
52.1903,-50.7548,-0.377619,0
52.2985,-50.685,-0.389797,0
52.4048,-50.6129,-0.401813,0
52.5093,-50.5385,-0.413649,0
52.6102,-50.4596,-0.425807,0
52.7042,-50.3711,-0.439411,0
52.7959,-50.2812,-0.452721,0
52.8852,-50.1898,-0.465749,0
52.9723,-50.0969,-0.478478,0
53.057,-50.0028,-0.490915,0
53.1394,-49.9073,-0.503068,0
53.2194,-49.8107,-0.514924,0
53.2971,-49.7128,-0.526476,0
53.3724,-49.6139,-0.537736,0
53.4455,-49.5138,-0.548693,0
53.5162,-49.4128,-0.559357,0
53.5845,-49.3108,-0.569723,0
53.6504,-49.2078,-0.579792,0
53.7141,-49.1041,-0.589557,0
53.7755,-48.9994,-0.59902,0
53.8344,-48.894,-0.608195,0
53.891,-48.7879,-0.617057,0
53.9454,-48.6811,-0.625622,0
53.9974,-48.5737,-0.633898,0
54.0471,-48.4657,-0.641867,0
54.0972,-48.3587,-0.64903,0
54.1479,-48.2527,-0.655427,0
54.1964,-48.1459,-0.66153,0
54.2427,-48.0385,-0.667341,0
54.287,-47.9304,-0.672873,0
54.329,-47.8217,-0.678117,0
54.3689,-47.7124,-0.683068,0
54.4066,-47.6026,-0.687736,0
54.4423,-47.4923,-0.692111,0
54.4757,-47.3814,-0.696208,0
54.507,-47.2701,-0.700002,0
54.5361,-47.1584,-0.703527,0
54.5631,-47.0463,-0.706755,0
54.5879,-46.9339,-0.709689,0
54.6106,-46.8211,-0.712355,0
54.6311,-46.708,-0.714719,0
54.6495,-46.5946,-0.716799,0
54.6657,-46.481,-0.718596,0
46.3563,-49.9837,0.0808332,0
46.4454,-50.0733,0.076883,0
46.5368,-50.1612,0.0728059,0
46.6303,-50.2473,0.0685969,0
46.726,-50.3317,0.0642512,0
46.8239,-50.4142,0.0597785,0
46.9237,-50.4948,0.0551691,0
47.0258,-50.5735,0.0504328,0
47.1298,-50.6502,0.0455647,0
47.2359,-50.7247,0.0405695,0
47.344,-50.7972,0.0354475,0
47.5919,-50.5388,-0.0645219,174
47.5669,-50.9329,0.0241145,0
47.6832,-50.9915,0.0166438,0
47.8027,-51.0423,0.00763008,0
47.9236,-51.0904,-0.0014666,0
48.0456,-51.136,-0.0106219,0
48.1687,-51.1788,-0.0198504,0
48.2928,-51.2189,-0.0291326,0
48.5796,-50.5122,-0.228822,174
48.7136,-50.4144,-0.269234,174
48.8278,-50.3991,-0.287699,174
48.9314,-50.445,-0.290291,174
49.0251,-50.5834,-0.269924,174
49.0563,-51.4014,-0.0858172,0
49.1861,-51.4218,-0.0953875,0
49.3166,-51.4394,-0.104982,0
49.4474,-51.4541,-0.114592,0
49.5788,-51.467,-0.123937,0
49.7106,-51.4796,-0.132687,0
49.8429,-51.4893,-0.141481,0
49.9756,-51.4958,-0.150295,0
50.1087,-51.4993,-0.159133,0
50.2399,-51.4796,-0.172482,0
50.3702,-51.4554,-0.186081,0
50.4998,-51.4283,-0.199596,0
50.6284,-51.3983,-0.213024,0
50.756,-51.3654,-0.22634,0
50.8827,-51.3298,-0.239553,0
51.0082,-51.2913,-0.252653,0
51.1327,-51.2501,-0.265637,0
51.2559,-51.2061,-0.278498,0
51.3778,-51.1595,-0.291222,0
51.4984,-51.1103,-0.30382,0
51.6178,-51.0584,-0.316266,0
51.7356,-51.004,-0.328566,0
51.8521,-50.947,-0.34072,0
51.967,-50.8876,-0.352712,0
52.0791,-50.8229,-0.365158,0
52.1891,-50.7555,-0.377497,0
52.2974,-50.6857,-0.389675,0
52.4038,-50.6136,-0.401686,0
52.5083,-50.5392,-0.413532,0
52.6093,-50.4605,-0.425671,0
52.7033,-50.372,-0.439269,0
52.795,-50.2821,-0.452595,0
52.8844,-50.1907,-0.465617,0
52.9714,-50.0979,-0.478351,0
53.0562,-50.0037,-0.490793,0
53.1386,-49.9083,-0.502946,0
53.2186,-49.8116,-0.514802,0
53.2963,-49.7138,-0.526364,0
53.3717,-49.6149,-0.537629,0
53.4448,-49.5148,-0.548591,0
53.5155,-49.4138,-0.559255,0
53.5837,-49.3118,-0.569621,0
53.6498,-49.2089,-0.579694,0
53.7134,-49.1051,-0.589455,0
53.7748,-49.0005,-0.598932,0
53.8337,-48.8951,-0.608102,0
53.8905,-48.789,-0.61697,0
53.9448,-48.6822,-0.625534,0
53.9969,-48.5748,-0.63381,0
54.0466,-48.4668,-0.641784,0
54.0967,-48.3598,-0.648967,0
54.1473,-48.2537,-0.655368,0
54.1959,-48.147,-0.661467,0
54.2423,-48.0396,-0.667287,0
54.2865,-47.9315,-0.672819,0
54.3286,-47.8228,-0.678058,0
54.3685,-47.7135,-0.683014,0
54.4062,-47.6037,-0.687682,0
54.4419,-47.4934,-0.692072,0
54.4753,-47.3825,-0.696164,0
54.5066,-47.2713,-0.699968,0
54.5358,-47.1595,-0.703493,0
54.5628,-47.0474,-0.706725,0
54.5877,-46.935,-0.70967,0
54.6104,-46.8222,-0.712326,0
54.6309,-46.7091,-0.714694,0
54.6493,-46.5957,-0.716779,0
54.6655,-46.4821,-0.718581,0
46.4602,-49.8557,0.0740266,0
46.547,-49.9421,0.0701838,0
46.6359,-50.0269,0.0662043,0
46.727,-50.11,0.0621027,0
46.82,-50.1913,0.0578742,0
46.9152,-50.2709,0.053509,0
47.0123,-50.3485,0.0490217,0
47.1115,-50.4243,0.0444123,0
47.2127,-50.4981,0.039676,0
47.3157,-50.5698,0.0348127,0
47.4206,-50.6395,0.0298322,0
47.6168,-50.4936,-0.0384894,174
47.7365,-50.5162,-0.055139,174
47.7496,-50.8272,0.0118098,0
47.8643,-50.88,0.00413399,0
47.9815,-50.9266,-0.00463554,0
48.0998,-50.9706,-0.0135223,0
48.2191,-51.0119,-0.0224676,0
48.3396,-51.0506,-0.0314666,0
48.5974,-50.4554,-0.206801,174
48.722,-50.3984,-0.237329,174
48.834,-50.3935,-0.253364,174
48.9378,-50.4378,-0.256137,174
49.0306,-50.5824,-0.233237,174
49.08,-51.226,-0.0864275,0
49.2058,-51.2456,-0.0957049,0
49.3323,-51.2624,-0.105007,0
49.4591,-51.2764,-0.114323,0
49.5864,-51.2875,-0.123649,0
49.7141,-51.296,-0.132922,0
49.8423,-51.3049,-0.141432,0
49.9707,-51.3109,-0.149963,0
50.0995,-51.3139,-0.158522,0
50.2267,-51.2965,-0.17111,0
50.353,-51.2734,-0.184284,0
50.4785,-51.2474,-0.19738,0
50.6031,-51.2186,-0.210383,0
50.7268,-51.1871,-0.223283,0
50.8495,-51.1528,-0.236091,0
50.9712,-51.1158,-0.248791,0
51.0918,-51.0762,-0.261379,0
51.2112,-51.0339,-0.273845,0
51.3295,-50.9889,-0.286183,0
51.4465,-50.9415,-0.298386,0
51.5622,-50.8915,-0.31047,0
51.6756,-50.8368,-0.322883,0
51.7873,-50.7791,-0.335275,0
51.8975,-50.719,-0.347521,0
52.0059,-50.6564,-0.359626,0
52.1127,-50.5915,-0.371589,0
52.2176,-50.5243,-0.383386,0
52.3207,-50.4548,-0.395026,0
52.422,-50.3832,-0.406501,0
52.5213,-50.3094,-0.4178,0
52.6169,-50.2306,-0.429587,0
52.7062,-50.1439,-0.442546,0
52.7933,-50.0558,-0.455226,0
52.8781,-49.9662,-0.467629,0
52.9608,-49.8754,-0.479743,0
53.0411,-49.7832,-0.491584,0
53.1192,-49.6899,-0.503132,0
53.195,-49.5953,-0.514401,0
53.2686,-49.4997,-0.525378,0
53.3398,-49.4029,-0.536076,0
53.4089,-49.3052,-0.546481,0
53.4756,-49.2065,-0.556598,0
53.5402,-49.1069,-0.566418,0
53.6024,-49.0064,-0.575959,0
53.6624,-48.905,-0.585207,0
53.7201,-48.8029,-0.594157,0
53.7755,-48.7001,-0.602829,0
53.8288,-48.5966,-0.611198,0
53.8797,-48.4924,-0.619289,0
53.9295,-48.3883,-0.626857,0
53.9811,-48.286,-0.633386,0
54.0306,-48.183,-0.639631,0
54.078,-48.0792,-0.645597,0
54.1233,-47.9747,-0.651286,0
54.1666,-47.8696,-0.656696,0
54.2077,-47.7639,-0.661818,0
54.2466,-47.6576,-0.666667,0
54.2836,-47.5508,-0.671227,0
54.3184,-47.4434,-0.67551,0
54.3511,-47.3355,-0.679513,0
54.3817,-47.2272,-0.683229,0
54.4102,-47.1185,-0.686672,0
54.4366,-47.0094,-0.689831,0
54.4609,-46.8999,-0.692717,0
54.483,-46.7901,-0.695309,0
54.503,-46.68,-0.697624,0
54.521,-46.5696,-0.69966,0
54.5368,-46.459,-0.701432,0
46.4593,-49.8548,0.0740705,0
46.546,-49.9413,0.0702277,0
46.635,-50.0261,0.0662434,0
46.7259,-50.1092,0.0621418,0
46.8191,-50.1905,0.0579133,0
46.9142,-50.2701,0.0535578,0
47.0113,-50.3478,0.0490656,0
47.1105,-50.4235,0.0444514,0
47.2116,-50.4973,0.039715,0
47.3146,-50.5691,0.0348615,0
47.4196,-50.6388,0.0298859,0
47.6155,-50.4936,-0.0382591,174
47.7353,-50.516,-0.0549911,174
47.7484,-50.8266,0.0118879,0
47.8631,-50.8795,0.004217,0
47.9802,-50.9262,-0.00454765,0
48.0986,-50.9701,-0.0134344,0
48.218,-51.0115,-0.0223748,0
48.3384,-51.0502,-0.0313738,0
48.5956,-50.4585,-0.205839,174
48.7207,-50.3989,-0.237054,174
48.833,-50.3932,-0.253293,174
48.9368,-50.4372,-0.25615,174
49.0302,-50.5762,-0.234665,174
49.0787,-51.2258,-0.0863348,0
49.2046,-51.2454,-0.095617,0
49.3309,-51.2623,-0.104909,0
49.4579,-51.2762,-0.11423,0
49.5852,-51.2874,-0.123566,0
49.7128,-51.2959,-0.132844,0
49.8409,-51.3048,-0.141349,0
49.9695,-51.3109,-0.14988,0
50.0983,-51.3139,-0.158434,0
50.2255,-51.2967,-0.170983,0
50.3517,-51.2736,-0.184157,0
50.4772,-51.2477,-0.197248,0
50.6019,-51.2189,-0.210246,0
50.7255,-51.1874,-0.223156,0
50.8483,-51.1532,-0.235964,0
50.9699,-51.1162,-0.248664,0
51.0905,-51.0766,-0.261252,0
51.2101,-51.0343,-0.273718,0
51.3283,-50.9894,-0.286056,0
51.4453,-50.942,-0.298263,0
51.561,-50.892,-0.310344,0
51.6745,-50.8373,-0.322761,0
51.7862,-50.7797,-0.335148,0
51.8964,-50.7196,-0.347399,0
52.0049,-50.6571,-0.359513,0
52.1116,-50.5922,-0.371471,0
52.2166,-50.525,-0.383268,0
52.3197,-50.4555,-0.394919,0
52.421,-50.3839,-0.406388,0
52.5204,-50.3101,-0.417692,0
52.616,-50.2315,-0.42945,0
52.7053,-50.1448,-0.442414,0
52.7924,-50.0566,-0.455099,0
52.8773,-49.9671,-0.467502,0
52.9599,-49.8763,-0.479631,0
53.0403,-49.7841,-0.491462,0
53.1184,-49.6908,-0.503024,0
53.1943,-49.5963,-0.514289,0
53.2679,-49.5006,-0.52527,0
53.3392,-49.4039,-0.535969,0
53.4083,-49.3062,-0.546384,0
53.4751,-49.2075,-0.556496,0
53.5395,-49.1079,-0.56632,0
53.6018,-49.0074,-0.575866,0
53.6618,-48.906,-0.585114,0
53.7195,-48.8039,-0.594079,0
53.775,-48.7011,-0.602746,0
53.8282,-48.5976,-0.611115,0
53.8791,-48.4934,-0.619206,0
53.929,-48.3894,-0.626784,0
53.9806,-48.287,-0.633317,0
54.0302,-48.184,-0.639572,0
54.0776,-48.0802,-0.645544,0
54.123,-47.9758,-0.651232,0
54.1662,-47.8707,-0.656642,0
54.2073,-47.7649,-0.661769,0
54.2463,-47.6587,-0.666613,0
54.2832,-47.5518,-0.671183,0
54.318,-47.4445,-0.675475,0
54.3508,-47.3366,-0.679479,0
54.3814,-47.2283,-0.6832,0
54.4099,-47.1196,-0.686647,0
54.4362,-47.0105,-0.689802,0
54.4606,-46.901,-0.692687,0
54.4828,-46.7912,-0.69528,0
54.5029,-46.6811,-0.697604,0
54.5209,-46.5708,-0.699636,0
54.5366,-46.4601,-0.701408,0
46.4584,-49.8539,0.0741047,0
46.5452,-49.9404,0.070257,0
46.6341,-50.0252,0.0662873,0
46.7251,-50.1083,0.0621906,0
46.8181,-50.1897,0.0579523,0
46.9132,-50.2693,0.0535969,0
47.0104,-50.347,0.0491096,0
47.1095,-50.4228,0.0445051,0
47.2106,-50.4966,0.0397639,0
47.3137,-50.5684,0.0349104,0
47.4185,-50.6381,0.0299348,0
47.6142,-50.4936,-0.0380289,174
47.7341,-50.5157,-0.0548442,174
47.7473,-50.8261,0.011966,0
47.862,-50.8789,0.00429512,0
47.9791,-50.9257,-0.00445976,0
48.0974,-50.9697,-0.0133416,0
48.2168,-51.0111,-0.0222869,0
48.3372,-51.0498,-0.0312859,0
48.5938,-50.4614,-0.204891,174
48.7195,-50.3994,-0.23678,174
48.8319,-50.3929,-0.25322,174
48.9358,-50.4366,-0.256162,174
49.0299,-50.57,-0.236086,174
49.0775,-51.2256,-0.086242,0
49.2033,-51.2453,-0.0955193,0
49.3297,-51.2621,-0.104816,0
49.4566,-51.2761,-0.114137,0
49.5839,-51.2873,-0.123464,0
49.7116,-51.2958,-0.132761,0
49.8397,-51.3048,-0.141266,0
49.9681,-51.3108,-0.149797,0
50.097,-51.3139,-0.158351,0
50.2243,-51.2969,-0.170846,0
50.3505,-51.2739,-0.184025,0
50.476,-51.248,-0.197121,0
50.6006,-51.2193,-0.210114,0
50.7243,-51.1878,-0.223034,0
50.847,-51.1535,-0.235837,0
50.9688,-51.1166,-0.248542,0
51.0894,-51.077,-0.261125,0
51.2088,-51.0347,-0.273591,0
51.3272,-50.9899,-0.285929,0
51.4441,-50.9424,-0.298146,0
51.5599,-50.8925,-0.310226,0
51.6734,-50.8379,-0.322638,0
51.7852,-50.7803,-0.335021,0
51.8953,-50.7202,-0.347282,0
52.0037,-50.6577,-0.359396,0
52.1105,-50.5928,-0.371354,0
52.2155,-50.5257,-0.383156,0
52.3187,-50.4563,-0.394797,0
52.42,-50.3846,-0.406276,0
52.5194,-50.3109,-0.417585,0
52.6151,-50.2323,-0.429323,0
52.7045,-50.1456,-0.442292,0
52.7916,-50.0575,-0.454977,0
52.8765,-49.968,-0.467389,0
52.9591,-49.8772,-0.479509,0
53.0395,-49.7851,-0.491345,0
53.1177,-49.6917,-0.502907,0
53.1935,-49.5972,-0.514181,0
53.2671,-49.5016,-0.525173,0
53.3385,-49.4049,-0.535866,0
53.4076,-49.3072,-0.546276,0
53.4744,-49.2085,-0.556398,0
53.5389,-49.1089,-0.566227,0
53.6012,-49.0084,-0.575773,0
53.6612,-48.9071,-0.585021,0
53.719,-48.805,-0.593991,0
53.7745,-48.7021,-0.602658,0
53.8277,-48.5986,-0.611042,0
53.8787,-48.4945,-0.619133,0
53.9285,-48.3904,-0.62672,0
53.9802,-48.2881,-0.633259,0
54.0297,-48.185,-0.639504,0
54.0771,-48.0813,-0.64548,0
54.1225,-47.9768,-0.651174,0
54.1657,-47.8717,-0.656584,0
54.2069,-47.766,-0.661711,0
54.2459,-47.6597,-0.666569,0
54.2828,-47.5529,-0.671139,0
54.3177,-47.4455,-0.675431,0
54.3505,-47.3377,-0.679435,0
54.3811,-47.2294,-0.683166,0
54.4096,-47.1207,-0.686608,0
54.436,-47.0116,-0.689772,0
54.4604,-46.9021,-0.692658,0
54.4826,-46.7923,-0.695265,0
54.5027,-46.6822,-0.697585,0
54.5207,-46.5718,-0.699631,0
54.5366,-46.4612,-0.701393,0
46.5566,-49.733,0.0676838,0
46.6411,-49.8166,0.063924,0
46.7277,-49.8985,0.060052,0
46.8162,-49.9787,0.0560481,0
46.9069,-50.0573,0.051927,0
46.9995,-50.134,0.047674,0
47.094,-50.209,0.0433039,0
47.1904,-50.2821,0.0388215,0
47.2887,-50.3532,0.0342072,0
47.3889,-50.4223,0.0294709,0
47.4909,-50.4894,0.0246272,0
47.6297,-50.4708,-0.00581623,174
47.7496,-50.4913,-0.0231713,174
47.8126,-50.6642,0.00533516,0
47.9239,-50.7144,-0.00229179,0
48.0364,-50.7627,-0.00986504,0
48.1501,-50.8083,-0.0175603,0
48.2651,-50.8513,-0.0253777,0
48.3813,-50.8909,-0.0334978,0
48.5945,-50.4832,-0.162283,174
48.7274,-50.3862,-0.204243,174
48.8381,-50.3873,-0.218858,174
48.9421,-50.4293,-0.222008,174
49.0353,-50.5701,-0.199124,174
49.0998,-51.0602,-0.0868279,0
49.222,-51.079,-0.0958172,0
49.3446,-51.0951,-0.104846,0
49.4677,-51.1085,-0.113879,0
49.5912,-51.1191,-0.122931,0
49.715,-51.1269,-0.131984,0
49.8391,-51.132,-0.141047,0
49.9636,-51.1367,-0.149494,0
50.0884,-51.1394,-0.157785,0
50.2119,-51.1245,-0.169562,0
50.3344,-51.1024,-0.182341,0
50.456,-51.0775,-0.195031,0
50.5769,-51.0499,-0.207643,0
50.6969,-51.0197,-0.220158,0
50.8159,-50.9867,-0.232585,0
50.9339,-50.9512,-0.244899,0
51.0509,-50.913,-0.257121,0
51.1667,-50.8717,-0.269333,0
51.2808,-50.8263,-0.281804,0
51.3935,-50.7783,-0.294177,0
51.5048,-50.7277,-0.306428,0
51.6146,-50.6747,-0.318571,0
51.723,-50.6192,-0.330573,0
51.8298,-50.5613,-0.342453,0
51.935,-50.501,-0.354196,0
52.0386,-50.4385,-0.365793,0
52.1405,-50.3737,-0.377243,0
52.2405,-50.3068,-0.388537,0
52.3388,-50.2377,-0.399665,0
52.4353,-50.1665,-0.410637,0
52.5299,-50.0933,-0.421437,0
52.6205,-50.015,-0.432804,0
52.7055,-49.9299,-0.445158,0
52.7883,-49.8434,-0.457243,0
52.8688,-49.7557,-0.469054,0
52.9473,-49.6666,-0.480602,0
53.0236,-49.5764,-0.491872,0
53.0977,-49.485,-0.502863,0
53.1695,-49.3924,-0.513581,0
53.2392,-49.2988,-0.52402,0
53.3067,-49.2042,-0.534177,0
53.372,-49.1086,-0.544059,0
53.435,-49.0121,-0.553659,0
53.4959,-48.9147,-0.56298,0
53.5547,-48.8165,-0.572013,0
53.6112,-48.7175,-0.580768,0
53.6654,-48.6177,-0.58925,0
53.7175,-48.5173,-0.597443,0
53.7675,-48.4162,-0.605348,0
53.8198,-48.3174,-0.612053,0
53.8702,-48.2179,-0.618439,0
53.9186,-48.1176,-0.624548,0
53.9651,-48.0167,-0.630392,0
54.0093,-47.9151,-0.635959,0
54.0516,-47.8128,-0.641242,0
54.0919,-47.7099,-0.646266,0
54.13,-47.6064,-0.651008,0
54.1662,-47.5024,-0.655475,0
54.2002,-47.3979,-0.65967,0
54.2322,-47.2929,-0.663586,0
54.2622,-47.1875,-0.667228,0
54.29,-47.0816,-0.670602,0
54.3159,-46.9753,-0.673698,0
54.3396,-46.8687,-0.676515,0
54.3613,-46.7617,-0.679059,0
54.381,-46.6545,-0.681335,0
54.3973,-46.5467,-0.683522,0
54.4109,-46.4387,-0.685563,0
46.5558,-49.7322,0.0677131,0
46.6403,-49.8157,0.0639631,0
46.7269,-49.8977,0.060091,0
46.8154,-49.9779,0.056092,0
46.906,-50.0565,0.051966,0
46.9985,-50.1333,0.047718,0
47.093,-50.2083,0.0433576,0
47.1894,-50.2813,0.0388605,0
47.2877,-50.3525,0.0342561,0
47.3879,-50.4216,0.0295246,0
47.4899,-50.4888,0.024676,0
47.6285,-50.4705,-0.00564617,174
47.7486,-50.4907,-0.0231287,174
47.8114,-50.6637,0.00541817,0
47.9228,-50.7139,-0.00222343,0
48.0353,-50.7622,-0.00979179,0
48.149,-50.8079,-0.0174822,0
48.264,-50.8509,-0.0252947,0
48.3802,-50.8906,-0.03341,0
48.5931,-50.4846,-0.161754,174
48.7262,-50.3868,-0.203943,174
