50.6418,-19.5803,0.15931,0
50.693,-19.2439,0.163265,0
50.7407,-18.9055,0.167415,0
50.7903,-18.565,0.172161,0
50.8402,-18.2219,0.177386,0
50.8898,-17.8758,0.18306,0
50.9409,-17.5263,0.189329,0
50.9886,-17.1735,0.195833,0
51.0329,-16.817,0.202611,0
51.0737,-16.4569,0.209652,0
51.1111,-16.0929,0.216966,0
49.6356,-16.0349,0.11868,174
49.4079,-15.758,0.107809,174
49.3653,-15.4418,0.110371,174
48.7974,-15.2699,0.0758681,174
48.5625,-15.0211,0.0652525,174
48.4322,-14.7454,0.0624668,174
31.5168,-42.8907,0.433568,0
32.08,-42.9126,0.435208,0
32.6417,-42.9221,0.436917,0
33.2064,-42.8789,0.436556,0
33.7676,-42.8203,0.436077,0
34.3238,-42.7611,0.436263,0
34.9186,-41.7268,0.384825,174
35.4248,-42.5915,0.43598,0
35.9682,-42.4362,0.43303,0
36.5043,-42.2701,0.43014,0
36.9496,-40.3436,0.331639,174
37.5516,-41.8741,0.422698,0
38.0571,-41.6046,0.415911,0
38.5471,-41.2886,0.407073,0
38.8839,-39.9637,0.342067,174
39.3702,-39.9128,0.348714,174
39.9309,-40.2519,0.378265,0
40.3605,-39.8729,0.367571,0
40.7668,-39.4509,0.35473,0
40.7195,-37.338,0.242819,174
41.0487,-36.8958,0.228245,174
41.4548,-36.7549,0.231914,174
41.8857,-36.6904,0.240773,174
42.626,-37.476,0.302581,0
42.9524,-37.0627,0.291761,0
43.2628,-36.6426,0.280677,0
43.562,-36.2276,0.270062,0
43.8574,-35.833,0.260892,0
44.1481,-35.4527,0.252835,0
44.4296,-35.0756,0.245159,0
44.702,-34.7014,0.237825,0
44.9658,-34.3301,0.230843,0
45.2188,-33.9579,0.223948,0
45.4533,-33.5724,0.216214,0
45.6797,-33.1911,0.20887,0
45.8963,-32.8109,0.201673,0
46.101,-32.4287,0.194378,0
46.298,-32.0504,0.187425,0
46.4877,-31.6759,0.180804,0
46.6704,-31.3049,0.174476,0
46.8499,-30.9415,0.168821,0
47.0269,-30.5854,0.163802,0
47.1976,-30.2318,0.159066,0
47.362,-29.8807,0.154583,0
47.5208,-29.532,0.150364,0
47.6725,-29.1845,0.146312,0
47.8134,-28.8347,0.142054,0
47.9556,-28.4929,0.138616,0
48.1009,-28.1594,0.136087,0
48.2414,-27.8273,0.133782,0
48.3772,-27.4965,0.131722,0
48.5083,-27.1668,0.129876,0
48.635,-26.8383,0.128255,0
48.7573,-26.5108,0.126868,0
48.8753,-26.1841,0.125687,0
48.9963,-25.8621,0.125267,0
49.1136,-25.5405,0.125062,0
49.227,-25.2191,0.125071,0
49.3364,-24.8977,0.125286,0
49.442,-24.5764,0.125706,0
49.5426,-24.2545,0.126234,0
49.6293,-23.9286,0.126243,0
49.7172,-23.6047,0.12681,0
49.8127,-23.2843,0.128363,0
49.9045,-22.9631,0.130111,0
49.9927,-22.641,0.132034,0
50.0771,-22.318,0.134154,0
50.1559,-21.9936,0.136331,0
50.2294,-21.6676,0.138568,0
50.2995,-21.3407,0.140999,0
50.3772,-21.0143,0.144407,0
50.4459,-20.6855,0.14763,0
50.509,-20.3548,0.150911,0
50.5685,-20.0225,0.154398,0
50.6245,-19.6886,0.15807,0
50.677,-19.3528,0.161966,0
50.7257,-19.015,0.166048,0
50.7734,-18.6753,0.170521,0
50.8245,-18.333,0.175677,0
50.8726,-17.988,0.181097,0
50.9248,-17.6396,0.187269,0
50.9735,-17.2878,0.193695,0
51.0189,-16.9326,0.200394,0
51.0609,-16.5736,0.207357,0
51.0994,-16.2109,0.214583,0
49.7388,-16.1201,0.124337,174
49.4648,-15.8503,0.110115,174
49.3642,-15.5477,0.108443,174
48.9749,-15.3244,0.0865933,174
48.7122,-15.0789,0.073948,174
48.4679,-14.8363,0.0628667,174
44.1895,-33.2707,0.270364,0
44.4314,-32.9348,0.263304,0
44.6655,-32.6005,0.256546,0
44.8918,-32.2676,0.250062,0
45.1107,-31.936,0.243841,0
45.3143,-31.5949,0.236966,0
45.5072,-31.2515,0.229993,0
45.697,-30.9155,0.223743,0
45.8828,-30.5848,0.218079,0
46.0623,-30.256,0.212679,0
46.2329,-29.9262,0.207298,0
46.397,-29.5978,0.202103,0
46.5548,-29.2713,0.197181,0
46.707,-28.9465,0.192503,0
46.8548,-28.6248,0.188206,0
47.0159,-28.3206,0.185882,0
47.172,-28.0168,0.183763,0
47.3233,-27.7134,0.181868,0
47.4698,-27.4102,0.180179,0
47.6116,-27.1073,0.178695,0
47.7424,-26.8001,0.176849,0
47.8667,-26.4922,0.175032,0
47.9866,-26.185,0.17345,0
48.1087,-25.8819,0.172611,0
48.2259,-25.5788,0.171937,0
48.3313,-25.2716,0.170823,0
48.4326,-24.9648,0.169905,0
48.5296,-24.6582,0.169183,0
48.6225,-24.3519,0.168646,0
48.7113,-24.0458,0.168304,0
48.7962,-23.7397,0.168148,0
48.8901,-23.4382,0.169202,0
48.9819,-23.1367,0.17057,0
49.0699,-22.8344,0.172132,0
49.1545,-22.5312,0.17387,0
49.2353,-22.227,0.175804,0
49.3095,-21.9212,0.177708,0
49.3772,-21.6139,0.179564,0
49.4411,-21.3056,0.181614,0
49.5075,-20.9974,0.1843,0
49.572,-20.6881,0.187318,0
49.6327,-20.3774,0.190521,0
49.6899,-20.0651,0.193909,0
49.7434,-19.7512,0.197493,0
49.7933,-19.4357,0.201273,0
49.8395,-19.1185,0.205257,0
49.8765,-18.7994,0.209017,0
49.9309,-18.4781,0.214573,0
49.9846,-18.1539,0.22057,0
50.0345,-17.8268,0.22678,0
50.0809,-17.4967,0.233236,0
50.123,-17.1636,0.239886,0
50.1588,-16.8275,0.246575,0
50.191,-16.4882,0.253529,0
50.2196,-16.1455,0.260755,0
49.5307,-15.9514,0.212858,174
49.3507,-15.6664,0.204633,174
49.3396,-15.3425,0.210047,174
48.6885,-15.1982,0.165408,174
48.4239,-14.9619,0.151385,174
48.3339,-14.6757,0.151605,174
32.1733,-40.1908,0.44553,0
32.6673,-40.2416,0.448665,0
33.1664,-40.2449,0.449652,0
33.666,-40.2168,0.449466,0
34.1646,-40.157,0.44807,0
34.6591,-40.0865,0.446732,0
35.1495,-40.0053,0.445433,0
35.6359,-39.8802,0.442142,0
36.1162,-39.7315,0.43805,0
36.5896,-39.5741,0.434056,0
37.0563,-39.4168,0.430696,0
37.517,-39.2568,0.427786,0
37.9659,-39.0376,0.421761,0
38.3988,-38.7532,0.412181,0
38.8209,-38.4679,0.40303,0
39.2339,-38.1892,0.394769,0
39.6366,-37.9071,0.386741,0
40.0293,-37.6216,0.378958,0
40.4085,-37.3184,0.370423,0
40.7731,-36.9968,0.361068,0
41.1271,-36.6744,0.352005,0
41.4708,-36.3513,0.343245,0
41.8048,-36.0289,0.334857,0
42.133,-35.7166,0.327493,0
42.452,-35.4036,0.320394,0
42.7596,-35.0842,0.313148,0
43.0475,-34.7402,0.304407,0
43.3262,-34.3977,0.295989,0
43.5959,-34.0567,0.287913,0
43.857,-33.7174,0.28015,0
44.1097,-33.3795,0.272698,0
44.3541,-33.0432,0.26555,0
44.5907,-32.7083,0.258695,0
44.8195,-32.3749,0.252113,0
45.0409,-32.0429,0.245814,0
45.2505,-31.7064,0.23929,0
45.4456,-31.3621,0.23221,0
45.6356,-31.0228,0.225648,0
45.8235,-30.6914,0.219876,0
46.005,-30.362,0.214388,0
46.1787,-30.0327,0.209017,0
46.3446,-29.7037,0.203753,0
46.5045,-29.3766,0.198743,0
46.6584,-29.0512,0.193978,0
46.8067,-28.7276,0.189466,0
46.9645,-28.4188,0.186605,0
47.1222,-28.1149,0.184427,0
47.275,-27.8114,0.182454,0
47.423,-27.5081,0.180696,0
47.5663,-27.2051,0.179144,0
47.7014,-26.8998,0.177484,0
47.827,-26.5916,0.175599,0
47.9484,-26.2841,0.173939,0
48.0696,-25.9798,0.172855,0
48.189,-25.677,0.172181,0
48.2978,-25.3708,0.171165,0
48.4003,-25.0638,0.170179,0
48.4987,-24.7572,0.169398,0
48.5929,-24.4508,0.168802,0
48.683,-24.1446,0.168392,0
48.7692,-23.8385,0.168177,0
48.8596,-23.5355,0.168802,0
48.9527,-23.2342,0.170101,0
49.0419,-22.9321,0.171605,0
49.1276,-22.6292,0.173294,0
49.2096,-22.3254,0.175159,0
49.2869,-22.0203,0.177142,0
49.3558,-21.7132,0.178948,0
49.4209,-21.4053,0.180931,0
49.4859,-21.097,0.183372,0
49.5515,-20.7882,0.186321,0
49.6134,-20.4779,0.189466,0
49.6718,-20.1662,0.192796,0
49.7266,-19.8528,0.196321,0
49.7776,-19.5378,0.200032,0
49.825,-19.2211,0.203939,0
49.8656,-18.9026,0.207835,0
49.9128,-18.5822,0.212679,0
49.9676,-18.2589,0.218607,0
50.0188,-17.9328,0.224759,0
50.0663,-17.6037,0.231126,0
50.1101,-17.2715,0.237728,0
50.1477,-16.9364,0.244388,0
50.181,-16.5981,0.251243,0
50.2108,-16.2566,0.258392,0
49.6157,-16.0391,0.217677,174
49.3893,-15.7624,0.20572,174
49.3458,-15.4468,0.20844,174
48.7642,-15.2792,0.169218,174
48.4711,-15.0489,0.152845,174
48.3557,-14.7705,0.150905,174
32.0138,-40.1718,0.444525,0
32.5077,-40.2266,0.447659,0
33.0047,-40.2504,0.449652,0
33.5048,-40.2293,0.449652,0
34.0039,-40.1775,0.448519,0
34.4999,-40.1104,0.447161,0
34.9916,-40.0327,0.445853,0
35.4795,-39.9262,0.44348,0
35.9618,-39.7805,0.439359,0
36.4374,-39.6259,0.435335,0
36.9062,-39.4665,0.431644,0
37.3689,-39.3095,0.428714,0
37.8237,-39.1286,0.424905,0
38.2602,-38.8455,0.415247,0
38.6855,-38.5585,0.405823,0
39.1016,-38.2796,0.397415,0
39.5077,-37.9986,0.38931,0
39.9036,-37.7141,0.381439,0
40.2884,-37.4221,0.373509,0
40.6565,-37.1008,0.364056,0
41.0138,-36.7786,0.354896,0
41.3609,-36.4557,0.346048,0
41.6977,-36.1323,0.337484,0
42.0279,-35.8176,0.329837,0
42.3499,-35.5048,0.322659,0
42.6629,-35.1913,0.315736,0
42.9556,-34.8512,0.307191,0
43.2372,-34.5081,0.298675,0
43.5098,-34.1666,0.290482,0
43.7736,-33.8268,0.28262,0
44.0289,-33.4885,0.275081,0
44.2761,-33.1516,0.267825,0
44.5152,-32.8163,0.260882,0
44.7464,-32.4824,0.254212,0
44.9701,-32.15,0.247825,0
45.1859,-31.8183,0.241644,0
45.3834,-31.473,0.234456,0
45.5738,-31.1306,0.227591,0
45.7635,-30.7982,0.221712,0
45.9471,-30.4681,0.216136,0
46.1237,-30.1394,0.210775,0
46.2916,-29.8098,0.205423,0
46.4534,-29.482,0.200335,0
46.6094,-29.1561,0.195491,0
46.7595,-28.832,0.190902,0
46.9124,-28.5171,0.187347,0
47.0717,-28.213,0.185101,0
47.2261,-27.9094,0.18307,0
47.3757,-27.606,0.181243,0
47.5205,-27.303,0.179632,0
47.6598,-26.9995,0.178138,0
47.787,-26.691,0.176175,0
47.9096,-26.3834,0.174456,0
48.0302,-26.0776,0.173118,0
48.1509,-25.7747,0.172366,0
48.2638,-25.47,0.171527,0
48.3677,-25.1629,0.170472,0
48.4673,-24.8562,0.169622,0
48.5629,-24.5497,0.168968,0
48.6544,-24.2435,0.168499,0
48.7418,-23.9374,0.168226,0
48.8288,-23.6327,0.168421,0
48.923,-23.3316,0.169661,0
49.0134,-23.0298,0.171107,0
49.1003,-22.7271,0.172718,0
49.1835,-22.4236,0.174544,0
49.263,-22.1191,0.176546,0
49.3339,-21.8125,0.178343,0
49.4002,-21.5048,0.180267,0
49.4639,-21.1964,0.182454,0
49.5307,-20.8881,0.185345,0
49.5939,-20.5783,0.188431,0
49.6534,-20.267,0.191702,0
49.7093,-19.9542,0.195159,0
49.7616,-19.6398,0.198812,0
49.81,-19.3236,0.202659,0
49.8544,-19.0057,0.206663,0
49.8943,-18.6859,0.210814,0
49.9503,-18.3637,0.216673,0
50.0027,-18.0385,0.222747,0
50.0514,-17.7103,0.229036,0
50.0964,-17.3791,0.235579,0
50.136,-17.0449,0.24221,0
50.1705,-16.7078,0.249007,0
50.2016,-16.3672,0.256058,0
49.7245,-16.123,0.224375,174
49.4472,-15.8543,0.20836,174
49.3419,-15.5533,0.206103,174
48.9068,-15.3429,0.178327,174
48.5559,-15.125,0.157325,174
48.3824,-14.8637,0.150642,174
43.5865,-32.2208,0.299886,0
43.8166,-31.919,0.29306,0
44.0395,-31.6177,0.286507,0
44.2553,-31.3171,0.280218,0
44.4644,-31.017,0.274183,0
44.6666,-30.7176,0.268392,0
44.8625,-30.4188,0.262864,0
45.052,-30.1207,0.257552,0
45.233,-29.8206,0.25222,0
45.4034,-29.5162,0.246605,0
45.5679,-29.213,0.241243,0
45.7264,-28.9111,0.236126,0
45.8814,-28.6124,0.231487,0
46.0461,-28.329,0.228675,0
46.2058,-28.0456,0.226087,0
46.3606,-27.7623,0.223714,0
46.5108,-27.479,0.221546,0
46.6562,-27.1958,0.219583,0
46.7947,-26.9107,0.217591,0
46.9279,-26.6251,0.215726,0
47.0564,-26.3396,0.214056,0
47.1805,-26.054,0.212562,0
47.3,-25.7683,0.211273,0
47.4152,-25.4826,0.21014,0
47.5259,-25.1967,0.209212,0
47.6324,-24.9106,0.20845,0
47.7309,-24.6225,0.207513,0
47.8245,-24.3341,0.206722,0
47.9141,-24.0457,0.206116,0
47.9998,-23.7574,0.205706,0
48.0922,-23.4729,0.20639,0
48.1831,-23.1887,0.207474,0
48.2663,-22.9024,0.208372,0
48.3452,-22.6153,0.209427,0
48.4202,-22.3274,0.210657,0
48.4916,-22.0389,0.212054,0
48.5591,-21.7496,0.213636,0
48.6229,-21.4594,0.215394,0
48.6847,-21.1687,0.217474,0
48.7481,-20.8778,0.220189,0
48.8081,-20.5857,0.223079,0
48.8643,-20.2922,0.226155,0
48.9169,-19.9973,0.229417,0
48.9604,-19.7006,0.232425,0
48.9993,-19.4026,0.23554,0
49.0343,-19.1033,0.238831,0
49.0654,-18.8026,0.242298,0
49.113,-18.5001,0.24764,0
49.1599,-18.1951,0.253431,0
49.2031,-17.8874,0.259427,0
49.2426,-17.5771,0.265657,0
49.2784,-17.2641,0.272112,0
49.3061,-16.9489,0.27845,0
49.3263,-16.6315,0.2847,0
49.3424,-16.3116,0.291175,0
49.3625,-15.9873,0.298568,0
49.3788,-15.6598,0.306234,0
49.2677,-15.3613,0.303569,174
48.6653,-15.2049,0.258865,174
48.3365,-14.9891,0.237895,174
48.2586,-14.701,0.239141,174
32.5564,-38.0042,0.453001,0
33.0094,-37.987,0.451361,0
33.4567,-37.9833,0.45138,0
33.9023,-37.9694,0.451419,0
34.346,-37.9454,0.451487,0
34.7874,-37.9114,0.451605,0
35.2266,-37.8675,0.451741,0
35.6637,-37.7648,0.448558,0
36.0958,-37.6446,0.444837,0
36.5223,-37.5161,0.441204,0
36.943,-37.3795,0.43764,0
37.358,-37.2351,0.434163,0
37.7669,-37.0827,0.430736,0
38.1616,-36.8563,0.422718,0
38.5476,-36.6255,0.414905,0
38.9248,-36.3904,0.407298,0
39.2934,-36.1513,0.399896,0
39.6547,-35.914,0.393109,0
40.0086,-35.6766,0.386771,0
40.3523,-35.427,0.380003,0
40.6834,-35.1587,0.372279,0
41.0059,-34.8885,0.364808,0
41.32,-34.6165,0.357591,0
41.626,-34.3429,0.350609,0
41.924,-34.0677,0.34387,0
42.2139,-33.7911,0.337366,0
42.4962,-33.5131,0.331087,0
42.7681,-33.2281,0.324564,0
43.0234,-32.9243,0.31681,0
43.2709,-32.6211,0.309329,0
43.5107,-32.3184,0.302152,0
43.743,-32.0164,0.295228,0
43.9683,-31.7149,0.288597,0
44.1863,-31.4141,0.28222,0
44.3976,-31.1139,0.276107,0
44.602,-30.8142,0.270238,0
44.7999,-30.5153,0.264622,0
44.9915,-30.2169,0.259241,0
45.1767,-29.9192,0.254095,0
45.3491,-29.6143,0.248392,0
45.5154,-29.3108,0.242952,0
45.6759,-29.0085,0.237757,0
45.8306,-28.7074,0.232806,0
45.9934,-28.4205,0.229564,0
46.1548,-28.1371,0.226898,0
46.3112,-27.8538,0.224456,0
46.4628,-27.5705,0.22222,0
46.6098,-27.2873,0.220189,0
46.7507,-27.0029,0.218226,0
46.8853,-26.7174,0.216312,0
47.0154,-26.4318,0.214573,0
47.1409,-26.1462,0.21303,0
47.2619,-25.8606,0.211673,0
47.3784,-25.5749,0.210491,0
47.4906,-25.289,0.209495,0
47.5985,-25.0031,0.208675,0
47.6997,-24.7157,0.207816,0
47.7947,-24.4272,0.206956,0
47.8856,-24.1389,0.206292,0
47.9726,-23.8505,0.205814,0
48.062,-23.5646,0.206077,0
48.1541,-23.2806,0.207093,0
48.24,-22.995,0.208079,0
48.3201,-22.7081,0.209066,0
48.3963,-22.4205,0.210228,0
48.4689,-22.1322,0.211585,0
48.5377,-21.8431,0.213109,0
48.6027,-21.5532,0.214808,0
48.6641,-21.2625,0.216702,0
48.7281,-20.9719,0.21929,0
48.7891,-20.6802,0.222112,0
48.8466,-20.3871,0.22514,0
48.9003,-20.0927,0.228343,0
48.947,-19.7966,0.231448,0
48.9872,-19.499,0.234515,0
49.0234,-19.2001,0.237747,0
49.0558,-18.8999,0.241165,0
49.0971,-18.5981,0.245814,0
49.1452,-18.2939,0.251536,0
49.1896,-17.9871,0.257474,0
49.2302,-17.6776,0.263626,0
49.2672,-17.3655,0.270003,0
49.2987,-17.0508,0.276468,0
49.3202,-16.7343,0.282659,0
49.3377,-16.4152,0.289066,0
49.3564,-16.0924,0.296136,0
49.374,-15.7659,0.303724,0
49.3875,-15.4362,0.311556,0
48.7311,-15.2884,0.262189,174
48.3809,-15.0762,0.239273,174
48.2804,-14.7953,0.238384,174
32.4085,-38.013,0.453909,0
32.8646,-37.986,0.45137,0
33.3125,-37.9856,0.45137,0
33.7587,-37.975,0.451409,0
34.2029,-37.9543,0.451458,0
34.6452,-37.9235,0.451566,0
35.0851,-37.8828,0.451693,0
35.523,-37.8019,0.449778,0
35.9569,-37.6844,0.446029,0
36.3851,-37.5585,0.442376,0
36.8077,-37.4245,0.438782,0
37.2246,-37.2825,0.435277,0
37.6355,-37.133,0.431859,0
38.0351,-36.9299,0.425286,0
38.4239,-36.7005,0.417405,0
38.8039,-36.4668,0.40973,0
39.1752,-36.2289,0.402269,0
39.5387,-35.9899,0.395189,0
39.8952,-35.7537,0.388792,0
40.2436,-35.5132,0.382552,0
40.5773,-35.2456,0.374749,0
40.9027,-34.976,0.367191,0
41.2195,-34.7046,0.359896,0
41.528,-34.4315,0.352835,0
41.8286,-34.1568,0.346019,0
42.1211,-33.8806,0.339437,0
42.4059,-33.6031,0.333099,0
42.683,-33.3242,0.326966,0
42.9418,-33.0223,0.31928,0
43.1917,-32.719,0.311702,0
43.434,-32.4161,0.304427,0
43.6688,-32.1139,0.297435,0
43.8962,-31.8122,0.290716,0
44.1166,-31.5112,0.284251,0
44.3301,-31.2108,0.27805,0
44.5367,-30.911,0.272112,0
44.7368,-30.6118,0.266409,0
44.9303,-30.3132,0.26095,0
45.1175,-30.0153,0.255736,0
45.294,-29.7126,0.250198,0
45.4623,-29.4087,0.244681,0
45.6246,-29.106,0.239407,0
45.7812,-28.8045,0.234378,0
45.9403,-28.512,0.230462,0
46.1032,-28.2286,0.227738,0
46.2612,-27.9453,0.225218,0
46.4143,-27.662,0.222913,0
46.5628,-27.3787,0.220823,0
46.7062,-27.0952,0.2189,0
46.8423,-26.8096,0.216907,0
46.9738,-26.524,0.215111,0
47.1008,-26.2385,0.213509,0
47.2233,-25.9529,0.212083,0
47.3412,-25.6672,0.210843,0
47.4548,-25.3814,0.209788,0
47.5641,-25.0954,0.208919,0
47.6682,-24.8088,0.208138,0
47.7645,-24.5204,0.20722,0
47.8567,-24.232,0.206487,0
47.9449,-23.9436,0.20595,0
48.0314,-23.6562,0.205794,0
48.1248,-23.3724,0.206751,0
48.2133,-23.0875,0.207796,0
48.2946,-22.8008,0.208734,0
48.3722,-22.5135,0.209837,0
48.4459,-22.2254,0.211126,0
48.5159,-21.9365,0.212591,0
48.5821,-21.647,0.214241,0
48.6446,-21.3565,0.216068,0
48.7076,-21.0659,0.218421,0
48.7698,-20.7746,0.221185,0
48.8284,-20.4819,0.224144,0
48.8834,-20.1879,0.227288,0
48.9333,-19.8924,0.230501,0
48.9745,-19.5952,0.233499,0
49.0121,-19.2968,0.236683,0
49.0457,-18.997,0.240032,0
49.0808,-18.6958,0.244007,0
49.13,-18.3924,0.249661,0
49.1756,-18.0864,0.25553,0
49.2175,-17.7779,0.261614,0
49.2557,-17.4666,0.267923,0
49.29,-17.1526,0.274456,0
49.3137,-16.8368,0.280638,0
49.3326,-16.5185,0.286976,0
49.3498,-16.1972,0.293734,0
49.3688,-15.8718,0.301253,0
49.3837,-15.5431,0.308997,0
48.8867,-15.3483,0.273295,174
48.4631,-15.1524,0.24397,174
48.302,-14.8894,0.237676,174
43.0648,-31.3126,0.325423,0
43.284,-31.0389,0.318831,0
43.4964,-30.7653,0.312503,0
43.7025,-30.4916,0.306419,0
43.9022,-30.2179,0.30057,0
44.0958,-29.9443,0.294945,0
44.2834,-29.6707,0.289564,0
44.4649,-29.3973,0.284398,0
44.6407,-29.1239,0.279456,0
44.8108,-28.8507,0.274739,0
44.9779,-28.5803,0.27053,0
45.1471,-28.3177,0.267425,0
45.3088,-28.0521,0.264232,0
45.4649,-27.7859,0.261185,0
45.6162,-27.5194,0.258333,0
45.7628,-27.2528,0.255677,0
45.9047,-26.986,0.253226,0
46.0419,-26.719,0.25096,0
46.1746,-26.4518,0.24889,0
46.3027,-26.1843,0.246995,0
46.4265,-25.9166,0.245296,0
46.5459,-25.6487,0.243773,0
46.6609,-25.3805,0.242435,0
46.7717,-25.112,0.241282,0
46.8784,-24.8432,0.240296,0
46.9808,-24.5741,0.239486,0
47.0791,-24.3046,0.238861,0
47.1734,-24.0347,0.238402,0
47.2636,-23.7645,0.238109,0
47.3546,-23.4958,0.238431,0
47.443,-23.2269,0.239046,0
47.5275,-22.9573,0.239837,0
47.6082,-22.6869,0.240794,0
47.6843,-22.4155,0.241839,0
47.7558,-22.1431,0.242982,0
47.8236,-21.8699,0.2443,0
47.8877,-21.596,0.245794,0
47.948,-21.3212,0.247464,0
48.0091,-21.0464,0.24971,0
48.0676,-20.7706,0.25221,0
48.1181,-20.4932,0.254515,0
48.165,-20.2147,0.256995,0
48.2081,-19.9351,0.259642,0
48.2474,-19.6544,0.262464,0
48.283,-19.3726,0.265452,0
48.3148,-19.0897,0.268626,0
48.3427,-18.8056,0.271966,0
48.3846,-18.5197,0.277093,0
48.4259,-18.2316,0.282689,0
48.4632,-17.9413,0.28846,0
48.4906,-17.6492,0.29389,0
48.514,-17.3551,0.299505,0
48.5334,-17.0588,0.305335,0
48.5488,-16.7604,0.311351,0
48.5601,-16.4598,0.317581,0
48.5707,-16.1561,0.324339,0
48.5813,-15.849,0.331702,0
48.5877,-15.5392,0.3393,0
48.5789,-15.2297,0.346144,174
48.2528,-15.0152,0.323552,174
48.1841,-14.726,0.325724,174
32.8734,-36.1951,0.457034,0
33.2795,-36.2066,0.456995,0
33.6845,-36.2088,0.456986,0
34.0881,-36.2016,0.457005,0
34.4904,-36.1853,0.457054,0
34.8909,-36.1598,0.457142,0
35.2894,-36.1254,0.457259,0
35.6865,-36.0336,0.453734,0
36.079,-35.9303,0.450023,0
36.4668,-35.8189,0.446331,0
36.8495,-35.6996,0.442708,0
37.2271,-35.5727,0.439124,0
37.5996,-35.4384,0.435589,0
37.9648,-35.2808,0.430862,0
38.3219,-35.104,0.425218,0
38.6723,-34.9215,0.419671,0
39.0161,-34.7334,0.414241,0
39.3521,-34.5352,0.408519,0
39.6801,-34.3278,0.402571,0
40.0011,-34.1166,0.3968,0
40.3138,-33.8964,0.390775,0
40.6149,-33.6582,0.383714,0
40.9087,-33.4178,0.376878,0
41.1951,-33.1751,0.370257,0
41.4744,-32.9303,0.363851,0
41.7466,-32.6837,0.357669,0
42.0119,-32.4351,0.351693,0
42.2704,-32.1849,0.345921,0
42.5221,-31.9329,0.340345,0
42.7647,-31.6745,0.334525,0
42.9927,-31.401,0.327601,0
43.2139,-31.1273,0.320931,0
43.4285,-30.8537,0.314525,0
43.6366,-30.58,0.308362,0
43.8384,-30.3063,0.302425,0
44.0339,-30.0327,0.296741,0
44.2234,-29.7591,0.291282,0
44.4069,-29.4856,0.286048,0
44.5846,-29.2122,0.281038,0
44.7565,-28.939,0.276243,0
44.9228,-28.6658,0.271654,0
45.093,-28.4026,0.268411,0
45.2572,-28.1381,0.265267,0
45.415,-27.8719,0.262152,0
45.568,-27.6055,0.259232,0
45.716,-27.339,0.256517,0
45.8594,-27.0722,0.253987,0
45.998,-26.8053,0.251673,0
46.1322,-26.5381,0.249534,0
46.2618,-26.2708,0.247591,0
46.387,-26.0032,0.245833,0
46.5077,-25.7353,0.244251,0
46.6242,-25.4672,0.242855,0
46.7364,-25.1988,0.241634,0
46.8444,-24.93,0.240599,0
46.9481,-24.661,0.23973,0
47.0478,-24.3917,0.239046,0
47.1434,-24.1219,0.238529,0
47.2349,-23.8518,0.238177,0
47.3252,-23.5825,0.238265,0
47.4148,-23.3138,0.238821,0
47.5005,-23.0445,0.239573,0
47.5825,-22.7743,0.240462,0
47.6604,-22.5033,0.241507,0
47.7331,-22.2311,0.242591,0
47.8021,-21.9582,0.243861,0
47.8673,-21.6845,0.245296,0
47.929,-21.41,0.246907,0
47.9891,-21.1351,0.2489,0
48.0498,-20.8599,0.251439,0
48.1023,-20.5829,0.253753,0
48.1502,-20.3047,0.256175,0
48.1946,-20.0255,0.258763,0
48.2352,-19.7452,0.261527,0
48.272,-19.4638,0.264466,0
48.3049,-19.1812,0.267581,0
48.3341,-18.8975,0.270872,0
48.3705,-18.6123,0.275325,0
48.413,-18.325,0.280853,0
48.4517,-18.0353,0.286585,0
48.4822,-17.7438,0.292112,0
48.5069,-17.4503,0.297679,0
48.5277,-17.1547,0.303431,0
48.5443,-16.857,0.309388,0
48.557,-16.5571,0.31555,0
48.5664,-16.2548,0.322005,0
48.5784,-15.9485,0.3293,0
48.5861,-15.6396,0.33682,0
48.589,-15.328,0.344525,0
48.2919,-15.1032,0.324568,174
48.2058,-14.8197,0.32491,174
32.7409,-36.1961,0.457552,0
33.1485,-36.204,0.457005,0
33.5538,-36.2091,0.456986,0
33.958,-36.2049,0.456995,0
34.3606,-36.1916,0.457044,0
34.7616,-36.169,0.457112,0
35.1609,-36.1374,0.45721,0
35.5587,-36.065,0.454925,0
35.9527,-35.9646,0.451214,0
36.342,-35.8557,0.447523,0
36.7264,-35.739,0.44388,0
37.1058,-35.6145,0.440277,0
37.4798,-35.4826,0.436732,0
37.848,-35.3367,0.432708,0
38.2073,-35.1618,0.427025,0
38.5598,-34.9811,0.421458,0
38.9059,-34.7947,0.41598,0
39.2447,-34.6014,0.410482,0
39.5749,-34.3952,0.404476,0
39.8982,-34.1852,0.398646,0
40.2146,-33.9714,0.393001,0
40.5185,-33.7354,0.38597,0
40.8145,-33.4957,0.379066,0
41.1034,-33.2537,0.372376,0
41.3849,-33.0096,0.365902,0
41.6594,-32.7635,0.359642,0
41.927,-32.5156,0.353597,0
42.1876,-32.2659,0.347757,0
42.4416,-32.0145,0.342122,0
42.6888,-31.7615,0.336683,0
42.9198,-31.4894,0.329808,0
43.1432,-31.2157,0.32306,0
43.3599,-30.942,0.316566,0
43.5701,-30.6684,0.310316,0
43.7739,-30.3947,0.30432,0
43.9715,-30.121,0.298558,0
44.1629,-29.8474,0.293021,0
44.3484,-29.5739,0.287708,0
44.5278,-29.3005,0.28263,0
44.7016,-29.0272,0.277757,0
44.8698,-28.754,0.273118,0
45.0384,-28.4874,0.269407,0
45.2052,-28.224,0.266312,0
45.3646,-27.9579,0.263128,0
45.5191,-27.6916,0.26015,0
45.6687,-27.4251,0.257366,0
45.8136,-27.1584,0.254779,0
45.9538,-26.8915,0.252396,0
46.0894,-26.6244,0.250208,0
46.2204,-26.3572,0.248196,0
46.347,-26.0896,0.24638,0
46.4692,-25.8218,0.244739,0
46.587,-25.5538,0.243294,0
46.7006,-25.2855,0.242015,0
46.8099,-25.0169,0.240911,0
46.9151,-24.7479,0.239993,0
47.0161,-24.4787,0.239251,0
47.113,-24.2091,0.238675,0
47.2058,-23.9391,0.238275,0
47.2954,-23.6691,0.238118,0
47.3862,-23.4007,0.238626,0
47.4734,-23.1315,0.23931,0
47.5565,-22.8617,0.24015,0
47.6359,-22.591,0.241175,0
47.71,-22.3191,0.24222,0
47.7802,-22.0464,0.243421,0
47.8466,-21.773,0.244808,0
47.9095,-21.4988,0.24637,0
47.9688,-21.2238,0.248118,0
48.0306,-20.9489,0.250599,0
48.0859,-20.6725,0.253001,0
48.1352,-20.3947,0.255374,0
48.1807,-20.1158,0.257904,0
48.2225,-19.8358,0.260618,0
48.2605,-19.5548,0.263499,0
48.2946,-19.2726,0.266556,0
48.3251,-18.9892,0.269779,0
48.356,-18.7046,0.273577,0
48.3996,-18.418,0.279046,0
48.4395,-18.1291,0.28471,0
48.4734,-17.8381,0.290364,0
48.4994,-17.5453,0.295862,0
48.5213,-17.2505,0.301556,0
48.5394,-16.9534,0.307445,0
48.5534,-16.6542,0.313538,0
48.5631,-16.3528,0.319837,0
48.575,-16.0477,0.326917,0
48.5841,-15.7397,0.334368,0
48.5889,-15.4288,0.342044,0
48.3715,-15.1795,0.329453,174
48.2274,-14.9133,0.324151,174
42.6034,-30.5092,0.346712,0
42.818,-30.2692,0.34138,0
43.0209,-30.0188,0.335267,0
43.2178,-29.7679,0.329378,0
43.409,-29.5166,0.323724,0
43.5943,-29.2649,0.318284,0
43.7741,-29.0129,0.31305,0
43.9482,-28.7605,0.30804,0
44.1216,-28.5133,0.30387,0
44.2935,-28.2698,0.300423,0
44.4606,-28.0256,0.297171,0
44.6228,-27.7807,0.294114,0
44.7803,-27.5352,0.291234,0
44.9333,-27.289,0.288558,0
45.0814,-27.0421,0.286058,0
45.2242,-26.7938,0.283636,0
45.3608,-26.5436,0.281185,0
45.4929,-26.293,0.278919,0
45.6206,-26.0419,0.276849,0
45.7441,-25.7905,0.274945,0
45.8634,-25.5386,0.273236,0
45.9783,-25.2863,0.271702,0
46.0891,-25.0335,0.270335,0
46.1959,-24.7803,0.269144,0
46.2985,-24.5267,0.268138,0
46.3971,-24.2726,0.267298,0
46.4918,-24.018,0.266624,0
46.5825,-23.763,0.266126,0
46.6734,-23.5093,0.266214,0
46.7617,-23.2554,0.266595,0
46.8462,-23.0008,0.267161,0
46.927,-22.7453,0.267864,0
47.004,-22.4891,0.268753,0
47.0773,-22.232,0.269798,0
47.147,-21.9741,0.271019,0
47.213,-21.7154,0.272396,0
47.2717,-21.4551,0.273607,0
47.3266,-21.1939,0.274964,0
47.3827,-20.933,0.276956,0
47.4351,-20.671,0.279114,0
47.4836,-20.4081,0.281429,0
47.5284,-20.1441,0.283909,0
47.5695,-19.879,0.286536,0
47.6067,-19.6129,0.289329,0
47.6402,-19.3458,0.292278,0
47.6693,-19.0775,0.295345,0
47.6945,-18.8082,0.298577,0
47.7283,-18.5374,0.303157,0
47.7591,-18.2649,0.308021,0
47.7862,-17.9906,0.31306,0
47.8095,-17.7145,0.318294,0
47.8288,-17.4366,0.323704,0
47.8443,-17.1569,0.32931,0
47.8558,-16.8753,0.335111,0
47.8631,-16.5918,0.341107,0
47.8665,-16.3063,0.347298,0
47.8709,-16.0176,0.354232,0
47.8657,-15.728,0.360823,0
47.8562,-15.4365,0.367611,0
47.842,-15.1429,0.374593,0
47.8234,-14.8474,0.38179,0
33.1423,-34.6615,0.457464,0
33.5116,-34.6767,0.457454,0
33.8804,-34.683,0.457464,0
34.2481,-34.6805,0.457464,0
34.6147,-34.6693,0.457454,0
34.9799,-34.6495,0.457464,0
35.3439,-34.6153,0.456986,0
35.7062,-34.5369,0.453548,0
36.0646,-34.4508,0.45015,0
36.419,-34.3571,0.44679,0
36.7691,-34.2561,0.44347,0
37.1151,-34.148,0.440189,0
37.4566,-34.0329,0.436946,0
37.7933,-33.9088,0.433568,0
38.122,-33.7563,0.428372,0
38.445,-33.5982,0.423275,0
38.7633,-33.4399,0.418704,0
39.076,-33.2768,0.414271,0
39.3832,-33.1088,0.409954,0
39.6848,-32.9358,0.405726,0
39.9808,-32.7583,0.401614,0
40.2701,-32.5728,0.397288,0
40.5458,-32.3603,0.390989,0
40.8149,-32.1449,0.384857,0
41.0777,-31.9268,0.3789,0
41.3341,-31.7061,0.373118,0
41.5841,-31.483,0.367493,0
41.828,-31.2576,0.362044,0
42.0668,-31.0323,0.356986,0
42.3016,-30.8085,0.352454,0
42.5307,-30.5826,0.348089,0
42.7512,-30.35,0.343411,0
42.956,-30.0997,0.33722,0
43.1548,-29.849,0.331263,0
43.3479,-29.5978,0.325521,0
43.535,-29.3462,0.320013,0
43.7166,-29.0943,0.31472,0
43.8926,-28.8421,0.309632,0
44.0649,-28.5918,0.305032,0
44.2384,-28.3485,0.301517,0
44.4071,-28.1046,0.298196,0
44.5709,-27.8599,0.295081,0
44.73,-27.6146,0.292152,0
44.8844,-27.3685,0.289407,0
45.0341,-27.1219,0.286839,0
45.1791,-26.8745,0.284466,0
45.3172,-26.6245,0.281956,0
45.4507,-26.374,0.279622,0
45.5798,-26.1231,0.277493,0
45.7047,-25.8717,0.27553,0
45.8252,-25.62,0.273763,0
45.9416,-25.3678,0.272171,0
46.0537,-25.1152,0.270755,0
46.1618,-24.8622,0.269515,0
46.2658,-24.6087,0.26845,0
46.3657,-24.3547,0.267552,0
46.4617,-24.1003,0.266829,0
46.5536,-23.8455,0.266273,0
46.6441,-23.5912,0.266126,0
46.7336,-23.3375,0.266468,0
46.8193,-23.0831,0.266966,0
46.9013,-22.8279,0.26763,0
46.9796,-22.5719,0.26845,0
47.0541,-22.3151,0.269456,0
47.1248,-22.0575,0.270618,0
47.192,-21.7991,0.271937,0
47.2535,-21.5393,0.273236,0
47.3087,-21.2782,0.274446,0
47.365,-21.0174,0.276292,0
47.4185,-20.7557,0.278402,0
47.4683,-20.4931,0.280667,0
47.5144,-20.2294,0.283079,0
47.5566,-19.9648,0.285667,0
47.5951,-19.699,0.288402,0
47.6298,-19.4322,0.291312,0
47.6604,-19.1643,0.294349,0
47.6868,-18.8953,0.297503,0
47.7175,-18.625,0.301634,0
47.7496,-18.3531,0.306429,0
47.778,-18.0794,0.311419,0
47.8023,-17.8039,0.316585,0
47.823,-17.5266,0.321937,0
47.8398,-17.2475,0.327484,0
47.8524,-16.9665,0.333216,0
47.8612,-16.6835,0.339153,0
47.8658,-16.3987,0.345277,0
47.8707,-16.1109,0.352044,0
47.8678,-15.8218,0.358665,0
47.8597,-15.5309,0.365394,0
47.8471,-15.238,0.372318,0
47.83,-14.9431,0.379437,0
33.0227,-34.6546,0.457464,0
33.3924,-34.6727,0.457464,0
33.7614,-34.6819,0.457464,0
34.1295,-34.6823,0.457464,0
34.4965,-34.6739,0.457464,0
34.8622,-34.6568,0.457454,0
35.2263,-34.6312,0.457454,0
35.5895,-34.5631,0.454661,0
35.9492,-34.4794,0.451243,0
36.305,-34.3882,0.447874,0
36.6566,-34.2895,0.444534,0
37.0039,-34.1837,0.441243,0
37.3468,-34.0708,0.437982,0
37.6852,-33.9511,0.434769,0
38.0165,-33.8062,0.430042,0
38.3413,-33.6499,0.424905,0
38.661,-33.4915,0.420159,0
38.9755,-33.3301,0.415696,0
39.2845,-33.1636,0.411331,0
39.588,-32.9922,0.407083,0
39.8858,-32.8161,0.402923,0
40.178,-32.6355,0.39888,0
40.4574,-32.4293,0.393001,0
40.7287,-32.2148,0.38682,0
40.9936,-31.9975,0.380814,0
41.252,-31.7777,0.374964,0
41.5041,-31.5553,0.36929,0
41.7499,-31.3306,0.363782,0
41.9898,-31.104,0.35848,0
42.2264,-30.881,0.3539,0
42.4573,-30.6558,0.349486,0
42.6825,-30.4284,0.345228,0
42.8906,-30.1806,0.339193,0
43.0913,-29.93,0.333157,0
43.2862,-29.679,0.327357,0
43.4752,-29.4275,0.321771,0
43.6585,-29.1757,0.3164,0
43.8363,-28.9236,0.311253,0
44.0085,-28.6711,0.306312,0
44.183,-28.4271,0.30263,0
44.3532,-28.1834,0.299251,0
44.5186,-27.939,0.296068,0
44.6791,-27.6939,0.293079,0
44.835,-27.4481,0.290277,0
44.9862,-27.2016,0.28765,0
45.1328,-26.9545,0.285208,0
45.273,-26.7053,0.282737,0
45.408,-26.4549,0.280355,0
45.5386,-26.2042,0.278167,0
45.6648,-25.953,0.276155,0
45.7868,-25.7013,0.27432,0
45.9045,-25.4493,0.272669,0
46.018,-25.1968,0.271195,0
46.1273,-24.9439,0.269896,0
46.2327,-24.6906,0.268773,0
46.3339,-24.4368,0.267816,0
46.4311,-24.1826,0.267044,0
46.5244,-23.9278,0.266429,0
46.6143,-23.6729,0.266068,0
46.7051,-23.4195,0.266341,0
46.792,-23.1654,0.26678,0
46.8752,-22.9104,0.267386,0
46.9547,-22.6547,0.268167,0
47.0304,-22.3982,0.269105,0
47.1024,-22.1408,0.270218,0
47.1708,-21.8826,0.271497,0
47.2348,-21.6235,0.272874,0
47.2912,-21.3626,0.274036,0
47.3469,-21.1017,0.275657,0
47.4016,-20.8403,0.277708,0
47.4527,-20.578,0.279915,0
47.4999,-20.3147,0.282288,0
47.5434,-20.0504,0.284818,0
47.5831,-19.7849,0.287503,0
47.619,-19.5185,0.290355,0
47.6511,-19.251,0.293362,0
47.6787,-18.9823,0.296468,0
47.7062,-18.7125,0.300101,0
47.7397,-18.4411,0.304857,0
47.7692,-18.168,0.309788,0
47.7949,-17.8931,0.314896,0
47.8168,-17.6164,0.320189,0
47.8348,-17.3378,0.325667,0
47.8488,-17.0574,0.331351,0
47.8587,-16.7751,0.33721,0
47.8648,-16.4909,0.343275,0
47.8687,-16.2043,0.349759,0
47.8695,-15.9153,0.356546,0
47.8628,-15.625,0.363206,0
47.8516,-15.3328,0.370062,0
47.836,-15.0385,0.377122,0
42.18,-29.7718,0.362093,0
42.3901,-29.5619,0.358109,0
42.5949,-29.3499,0.354271,0
42.7895,-29.1282,0.349681,0
42.9725,-28.8961,0.344202,0
43.1502,-28.6632,0.338939,0
43.329,-28.4381,0.334896,0
43.5034,-28.2125,0.331126,0
43.6731,-27.986,0.327562,0
43.8382,-27.7586,0.324173,0
43.9986,-27.5302,0.32098,0
44.1544,-27.3009,0.317962,0
44.3057,-27.0707,0.31512,0
44.4504,-26.8377,0.312171,0
44.5895,-26.603,0.309261,0
44.724,-26.3675,0.306497,0
44.8555,-26.1326,0.304105,0
44.9898,-25.9025,0.302767,0
45.1198,-25.6713,0.301575,0
45.242,-25.4363,0.300071,0
45.3568,-25.1985,0.298353,0
45.4677,-24.9601,0.29681,0
45.5745,-24.7212,0.295443,0
45.6773,-24.4817,0.294241,0
45.7763,-24.2416,0.293216,0
45.8713,-24.001,0.292347,0
45.9625,-23.7599,0.291654,0
46.0535,-23.5199,0.291536,0
46.1419,-23.2796,0.291702,0
46.2265,-23.0385,0.292034,0
46.3076,-22.7966,0.292532,0
46.3848,-22.5539,0.293187,0
46.4562,-22.3096,0.293743,0
46.5225,-22.0643,0.294329,0
46.5851,-21.8182,0.295071,0
46.6439,-21.5715,0.29596,0
46.6991,-21.324,0.296995,0
46.7537,-21.0766,0.298548,0
46.8068,-20.8287,0.300452,0
46.8562,-20.5798,0.302523,0
46.9019,-20.33,0.304739,0
46.9437,-20.0792,0.307112,0
46.982,-19.8275,0.309642,0
47.0166,-19.5747,0.312318,0
47.0466,-19.321,0.315062,0
47.0684,-19.0662,0.317523,0
47.0865,-18.8106,0.32012,0
47.1151,-18.5539,0.324378,0
47.143,-18.2956,0.329124,0
47.1671,-18.0357,0.334046,0
47.1873,-17.7742,0.339124,0
47.2037,-17.5111,0.344378,0
47.2161,-17.2463,0.349808,0
47.2245,-16.9799,0.355423,0
47.2287,-16.7119,0.361195,0
47.2161,-16.4449,0.365775,0
47.2047,-16.1756,0.371107,0
47.1962,-15.9032,0.377376,0
47.1831,-15.6291,0.383821,0
47.1655,-15.3534,0.390423,0
47.1434,-15.0761,0.397191,0
33.3683,-33.3716,0.457464,0
33.707,-33.3888,0.457464,0
34.0453,-33.3979,0.457454,0
34.3829,-33.399,0.457454,0
34.7195,-33.3921,0.457464,0
35.0551,-33.3772,0.457454,0
35.3896,-33.3477,0.456859,0
35.7225,-33.2892,0.454349,0
36.0525,-33.2187,0.451439,0
36.3792,-33.1415,0.448577,0
36.7025,-33.0575,0.445784,0
37.0222,-32.967,0.44303,0
37.3383,-32.8701,0.440335,0
37.6506,-32.767,0.437708,0
37.9572,-32.6452,0.433958,0
38.2581,-32.5106,0.429632,0
38.5543,-32.3708,0.425384,0
38.8455,-32.226,0.421243,0
39.1317,-32.0764,0.417191,0
39.4131,-31.922,0.413236,0
39.6895,-31.763,0.409368,0
39.9609,-31.5996,0.405589,0
40.2272,-31.4319,0.401907,0
40.4805,-31.2387,0.396185,0
40.7287,-31.044,0.390755,0
40.9727,-30.8497,0.385814,0
41.2112,-30.6526,0.381029,0
41.4441,-30.453,0.3764,0
41.6717,-30.2508,0.371917,0
41.894,-30.0461,0.367581,0
42.1111,-29.8391,0.363402,0
42.3228,-29.6299,0.359378,0
42.5293,-29.4186,0.355491,0
42.7292,-29.203,0.351497,0
42.914,-28.9711,0.34595,0
43.0934,-28.7385,0.340618,0
43.2716,-28.5107,0.336155,0
43.4477,-28.2855,0.332327,0
43.6188,-28.0593,0.328685,0
43.7854,-27.8321,0.325237,0
43.9473,-27.6041,0.321986,0
44.1045,-27.375,0.318909,0
44.2573,-27.1452,0.316019,0
44.4045,-26.9133,0.313148,0
44.545,-26.6789,0.310189,0
44.681,-26.4436,0.307376,0
44.8124,-26.2076,0.30471,0
44.9469,-25.977,0.303187,0
45.0782,-25.7461,0.301946,0
45.2039,-25.513,0.300657,0
45.3201,-25.2754,0.29889,0
45.4323,-25.0372,0.297298,0
45.5404,-24.7984,0.295862,0
45.6445,-24.5591,0.294612,0
45.7448,-24.3192,0.293528,0
45.841,-24.0788,0.292611,0
45.9334,-23.8378,0.291859,0
46.0241,-23.5973,0.291517,0
46.1138,-23.3572,0.291634,0
46.1996,-23.1164,0.291907,0
46.2818,-22.8748,0.292357,0
46.3603,-22.6324,0.292952,0
46.4339,-22.3888,0.293597,0
46.5015,-22.1436,0.294124,0
46.5653,-21.8978,0.294818,0
46.6254,-21.6513,0.295657,0
46.6816,-21.404,0.296644,0
46.7359,-21.1565,0.297972,0
46.7901,-20.9089,0.299827,0
46.8406,-20.6603,0.301839,0
46.8874,-20.4108,0.304007,0
46.9306,-20.1603,0.306321,0
46.9701,-19.9089,0.308812,0
47.0059,-19.6565,0.311439,0
47.038,-19.4031,0.314222,0
47.0619,-19.1486,0.316712,0
47.0812,-18.8933,0.319271,0
47.1052,-18.637,0.322894,0
47.1344,-18.3792,0.327581,0
47.1597,-18.1198,0.332435,0
47.1812,-17.8588,0.337464,0
47.1988,-17.5962,0.342669,0
47.2125,-17.332,0.34804,0
47.2222,-17.0662,0.353587,0
47.2279,-16.7986,0.35931,0
47.2207,-16.5313,0.36428,0
47.2065,-16.2633,0.369114,0
47.1995,-15.9914,0.375345,0
47.1878,-15.7178,0.381712,0
47.1718,-15.4426,0.388265,0
47.1511,-15.1659,0.394984,0
33.2588,-33.3642,0.457454,0
33.5977,-33.3841,0.457464,0
33.9362,-33.3959,0.457464,0
34.2739,-33.3996,0.457464,0
34.6109,-33.3952,0.457464,0
34.9469,-33.3828,0.457454,0
35.2816,-33.3626,0.457464,0
35.6153,-33.3104,0.455286,0
35.9463,-33.2422,0.452366,0
36.2741,-33.1672,0.449495,0
36.5985,-33.0854,0.446683,0
36.9194,-32.997,0.443909,0
37.2366,-32.9021,0.441204,0
37.5502,-32.801,0.438558,0
37.8591,-32.6875,0.435384,0
38.1615,-32.5546,0.431019,0
38.4591,-32.4165,0.426751,0
38.752,-32.2733,0.422571,0
39.0398,-32.1252,0.418489,0
39.3228,-31.9723,0.414495,0
39.6008,-31.8148,0.410599,0
39.8737,-31.6528,0.40679,0
40.1416,-31.4865,0.403089,0
40.3995,-31.3016,0.39804,0
40.6488,-31.1061,0.392386,0
40.8945,-30.9127,0.387396,0
41.1347,-30.7166,0.382562,0
41.3695,-30.5177,0.377874,0
41.5988,-30.3163,0.373343,0
41.8228,-30.1125,0.368968,0
42.0416,-29.9062,0.364739,0
42.2549,-29.6977,0.360657,0
42.4632,-29.4871,0.356722,0
42.6662,-29.2743,0.352933,0
42.8548,-29.0461,0.347718,0
43.0359,-28.8137,0.342318,0
43.2137,-28.5832,0.337435,0
43.3913,-28.3583,0.333538,0
43.5641,-28.1325,0.329847,0
43.7322,-27.9056,0.326331,0
43.8955,-27.6778,0.323021,0
44.0543,-27.4491,0.319886,0
44.2084,-27.2195,0.316937,0
44.358,-26.9889,0.314144,0
44.5002,-26.7547,0.311126,0
44.6377,-26.5197,0.308265,0
44.7705,-26.2839,0.30556,0
44.9035,-26.0513,0.303616,0
45.0363,-25.8208,0.302327,0
45.1648,-25.5892,0.301195,0
45.283,-25.3522,0.299437,0
45.3965,-25.1142,0.297796,0
45.5059,-24.8756,0.296312,0
45.6113,-24.6365,0.295003,0
45.7128,-24.3968,0.293851,0
45.8104,-24.1565,0.292894,0
45.9041,-23.9157,0.292083,0
45.9945,-23.6746,0.291517,0
46.0852,-23.4349,0.291585,0
46.1723,-23.1943,0.2918,0
46.2556,-22.953,0.292191,0
46.3353,-22.7108,0.292747,0
46.4113,-22.4678,0.29345,0
46.4801,-22.2229,0.293939,0
46.5451,-21.9773,0.294583,0
46.6064,-21.7309,0.295364,0
46.6638,-21.484,0.296312,0
46.7176,-21.2363,0.297405,0
46.773,-20.989,0.299212,0
46.8247,-20.7407,0.301175,0
46.8727,-20.4915,0.303284,0
46.9171,-20.2413,0.30556,0
46.9578,-19.9902,0.307991,0
46.9948,-19.7381,0.31057,0
47.028,-19.485,0.313314,0
47.0548,-19.2309,0.315921,0
47.0753,-18.9758,0.318421,0
47.095,-18.7199,0.3214,0
47.1254,-18.4626,0.326048,0
47.152,-18.2038,0.330843,0
47.1747,-17.9433,0.335823,0
47.1935,-17.6812,0.34096,0
47.2085,-17.4175,0.346282,0
47.2195,-17.1522,0.35178,0
47.2264,-16.8852,0.357435,0
47.2248,-16.6175,0.362796,0
47.2106,-16.3502,0.367425,0
47.2022,-16.0794,0.373314,0
47.1921,-15.8063,0.379642,0
47.1775,-15.5317,0.386136,0
47.1583,-15.2554,0.392806,0
41.8008,-29.1114,0.374466,0
42.0003,-28.9179,0.370657,0
42.195,-28.7219,0.366976,0
42.3865,-28.5264,0.363734,0
42.5745,-28.3301,0.360814,0
42.7555,-28.1286,0.357611,0
42.926,-27.9176,0.353558,0
43.0919,-27.7053,0.349652,0
43.2529,-27.4917,0.345911,0
43.4093,-27.2769,0.342318,0
43.561,-27.0609,0.33889,0
43.7082,-26.8438,0.335609,0
43.8509,-26.6256,0.332484,0
43.989,-26.4065,0.329495,0
44.1227,-26.1863,0.326654,0
44.2594,-25.9715,0.324993,0
44.3922,-25.7557,0.323519,0
44.521,-25.5387,0.3222,0
44.6458,-25.3205,0.321009,0
44.7665,-25.1011,0.319974,0
44.8833,-24.8806,0.319056,0
44.996,-24.6589,0.318294,0
45.1049,-24.4362,0.317669,0
45.208,-24.2114,0.316956,0
45.3034,-23.9835,0.315911,0
45.3952,-23.7551,0.315042,0
45.4863,-23.5276,0.31472,0
45.5747,-23.2997,0.314681,0
45.6568,-23.0699,0.314466,0
45.7352,-22.8393,0.314407,0
45.8098,-22.608,0.314495,0
45.8809,-22.376,0.314739,0
45.9481,-22.1433,0.31513,0
46.0117,-21.9099,0.315677,0
46.0716,-21.6757,0.316351,0
46.128,-21.4409,0.317191,0
46.1812,-21.2056,0.318245,0
46.2351,-20.9704,0.319915,0
46.2853,-20.7343,0.321741,0
46.332,-20.4973,0.323724,0
46.3751,-20.2594,0.325843,0
46.4145,-20.0205,0.328128,0
46.4465,-19.7805,0.33012,0
46.4742,-19.5396,0.3322,0
46.4982,-19.2981,0.334427,0
46.5184,-19.0558,0.33679,0
46.5348,-18.8128,0.33929,0
46.5601,-18.5688,0.343353,0
46.5848,-18.3234,0.347923,0
46.6059,-18.0766,0.352659,0
46.6231,-17.8283,0.357552,0
46.6366,-17.5786,0.36262,0
46.6461,-17.3274,0.367835,0
46.642,-17.0765,0.372132,0
46.6323,-16.8249,0.37639,0
46.6183,-16.5724,0.380775,0
46.6,-16.3191,0.385306,0
46.588,-16.0623,0.391175,0
46.5727,-15.8038,0.397327,0
46.553,-15.544,0.403636,0
46.5289,-15.2829,0.410111,0
33.5605,-32.2749,0.457464,0
33.8733,-32.2935,0.457464,0
34.1857,-32.3046,0.457464,0
34.4977,-32.3081,0.457454,0
34.8088,-32.3044,0.457464,0
35.1191,-32.2932,0.457464,0
35.4286,-32.2661,0.456614,0
35.7366,-32.2204,0.454661,0
36.0423,-32.1678,0.452728,0
36.3455,-32.1085,0.450814,0
36.646,-32.0425,0.448909,0
36.9437,-31.969,0.446937,0
37.2378,-31.8834,0.444407,0
37.5287,-31.7918,0.441937,0
37.8158,-31.6914,0.439212,0
38.0967,-31.5715,0.43515,0
38.3735,-31.4466,0.431175,0
38.646,-31.3168,0.427279,0
38.914,-31.1823,0.42346,0
39.1777,-31.0432,0.419739,0
39.4368,-30.8996,0.416087,0
39.6915,-30.7517,0.412532,0
39.9416,-30.5996,0.409046,0
40.1871,-30.4434,0.405667,0
40.4241,-30.2732,0.401263,0
40.6552,-30.0972,0.396702,0
40.8812,-29.9181,0.392269,0
41.1021,-29.7361,0.387952,0
41.3181,-29.5512,0.383763,0
41.5291,-29.3636,0.379681,0
41.7353,-29.1734,0.375716,0
41.9364,-28.9807,0.371868,0
42.1327,-28.7855,0.368148,0
42.3248,-28.5893,0.3647,0
42.5142,-28.3938,0.361741,0
42.6991,-28.196,0.358909,0
42.8715,-27.9859,0.354847,0
43.0387,-27.774,0.350892,0
43.2014,-27.5608,0.347103,0
43.3593,-27.3464,0.34347,0
43.5125,-27.1308,0.339974,0
43.6612,-26.914,0.336644,0
43.8053,-26.6962,0.33347,0
43.9448,-26.4774,0.330443,0
44.08,-26.2575,0.327552,0
44.2155,-26.0409,0.325491,0
44.3497,-25.8255,0.323978,0
44.4798,-25.6089,0.322611,0
44.6059,-25.3911,0.32137,0
44.728,-25.1721,0.320277,0
44.846,-24.9519,0.319339,0
44.9601,-24.7307,0.318529,0
45.0702,-24.5083,0.317855,0
45.1764,-24.2848,0.317327,0
45.273,-24.0572,0.316234,0
45.3659,-23.8289,0.315306,0
45.457,-23.601,0.314769,0
45.5466,-23.3735,0.314681,0
45.6307,-23.1442,0.314515,0
45.7103,-22.9138,0.314407,0
45.7862,-22.6828,0.314456,0
45.8584,-22.451,0.314642,0
45.9268,-22.2185,0.314984,0
45.9916,-21.9853,0.315482,0
46.0527,-21.7514,0.316116,0
46.1102,-21.5169,0.316907,0
46.164,-21.2816,0.317835,0
46.218,-21.0464,0.319359,0
46.2695,-20.8106,0.321136,0
46.3173,-20.5739,0.32307,0
46.3616,-20.3363,0.32514,0
46.4021,-20.0978,0.327376,0
46.4367,-19.8581,0.329486,0
46.4657,-19.6175,0.331517,0
46.4909,-19.3762,0.333695,0
46.5123,-19.1341,0.336019,0
46.5299,-18.8914,0.33846,0
46.5513,-18.6478,0.341907,0
46.5773,-18.4028,0.346429,0
46.5995,-18.1565,0.351116,0
46.618,-17.9086,0.35595,0
46.6326,-17.6594,0.36096,0
46.6434,-17.4087,0.366126,0
46.6442,-17.1576,0.370784,0
46.6359,-16.9062,0.375003,0
46.6233,-16.654,0.379339,0
46.6064,-16.401,0.383831,0
46.592,-16.1454,0.389222,0
46.5781,-15.8874,0.395325,0
46.5598,-15.628,0.401575,0
46.5372,-15.3674,0.408001,0
33.4594,-32.2673,0.457454,0
33.7723,-32.2883,0.457464,0
34.0848,-32.3018,0.457454,0
34.397,-32.3078,0.457454,0
34.7084,-32.3064,0.457464,0
35.019,-32.2976,0.457464,0
35.3287,-32.2793,0.457249,0
35.6374,-32.2359,0.455286,0
35.9438,-32.1856,0.453353,0
36.2478,-32.1284,0.451429,0
36.5492,-32.0645,0.449525,0
36.8479,-31.9941,0.44763,0
37.1432,-31.9117,0.445228,0
37.4352,-31.8221,0.442737,0
37.7237,-31.7266,0.440306,0
38.0065,-31.6108,0.436448,0
38.2846,-31.4875,0.432445,0
38.5585,-31.3593,0.428529,0
38.828,-31.2263,0.424681,0
39.093,-31.0886,0.420931,0
39.3536,-30.9465,0.417259,0
39.6098,-30.7999,0.413665,0
39.8612,-30.6491,0.410169,0
40.1084,-30.4943,0.406751,0
40.3484,-30.3293,0.402757,0
40.5811,-30.1544,0.398157,0
40.8087,-29.9763,0.393685,0
41.0313,-29.7952,0.389329,0
41.2489,-29.6112,0.385101,0
41.4616,-29.4245,0.38098,0
41.6693,-29.2351,0.376976,0
41.872,-29.0432,0.373099,0
42.0698,-28.8488,0.369339,0
42.2627,-28.652,0.365687,0
42.4536,-28.4572,0.362679,0
42.6398,-28.2601,0.359808,0
42.8164,-28.054,0.356155,0
42.9852,-27.8426,0.352152,0
43.1494,-27.6298,0.348304,0
43.3088,-27.4158,0.344622,0
43.4635,-27.2005,0.341087,0
43.6137,-26.9842,0.337718,0
43.7592,-26.7667,0.334486,0
43.9003,-26.5481,0.3314,0
44.0369,-26.3286,0.32848,0
44.1713,-26.1102,0.326019,0
44.3069,-25.8952,0.324456,0
44.4383,-25.679,0.32303,0
44.5656,-25.4616,0.321751,0
44.689,-25.2429,0.320618,0
44.8083,-25.0232,0.319622,0
44.9237,-24.8022,0.318782,0
45.035,-24.5802,0.31806,0
45.1426,-24.3571,0.317484,0
45.2422,-24.1308,0.316575,0
45.3363,-23.9027,0.315589,0
45.4273,-23.6743,0.314837,0
45.5181,-23.447,0.314691,0
45.6042,-23.2184,0.314583,0
45.685,-22.9883,0.314427,0
45.7621,-22.7575,0.314417,0
45.8355,-22.5259,0.314564,0
45.9051,-22.2937,0.314857,0
45.9711,-22.0607,0.315306,0
46.0334,-21.8271,0.315892,0
46.092,-21.5927,0.316644,0
46.147,-21.3576,0.317523,0
46.2006,-21.1224,0.318821,0
46.2533,-20.8869,0.32055,0
46.3022,-20.6505,0.322425,0
46.3476,-20.4132,0.324456,0
46.3895,-20.1749,0.326634,0
46.4266,-19.9357,0.328851,0
46.4567,-19.6953,0.330853,0
46.4831,-19.4542,0.332972,0
46.5057,-19.2124,0.335247,0
46.5246,-18.9699,0.337659,0
46.5421,-18.7266,0.340491,0
46.5693,-18.4821,0.344954,0
46.5927,-18.2362,0.349583,0
46.6124,-17.9888,0.354378,0
46.6283,-17.74,0.35932,0
46.6404,-17.4898,0.364446,0
46.646,-17.2386,0.369456,0
46.639,-16.9875,0.373626,0
46.6278,-16.7356,0.377923,0
46.6123,-16.4828,0.382357,0
46.5955,-16.2285,0.387278,0
46.583,-15.9709,0.393333,0
46.5662,-15.712,0.399544,0
46.545,-15.4517,0.405911,0
41.4593,-28.5167,0.38432,0
41.6514,-28.3412,0.381175,0
41.8392,-28.1632,0.378148,0
42.0226,-27.9828,0.375228,0
42.2016,-27.8,0.372415,0
42.3763,-27.6149,0.36972,0
42.5467,-27.4276,0.367142,0
42.7125,-27.2378,0.364603,0
42.867,-27.0378,0.36098,0
43.0172,-26.8365,0.357503,0
43.163,-26.6339,0.354173,0
43.3044,-26.43,0.350989,0
43.4416,-26.225,0.347952,0
43.5795,-26.0236,0.345833,0
43.7148,-25.8222,0.344105,0
43.8463,-25.6195,0.342503,0
43.9739,-25.4154,0.341048,0
44.0977,-25.2101,0.339739,0
44.2175,-25.0035,0.338558,0
44.3334,-24.7957,0.337513,0
44.4456,-24.5867,0.336614,0
44.554,-24.3766,0.335853,0
44.6575,-24.1646,0.335062,0
44.7562,-23.9511,0.33428,0
44.8509,-23.7365,0.333626,0
44.9453,-23.5227,0.333538,0
45.0366,-23.3082,0.333665,0
45.124,-23.0925,0.3339,0
45.2059,-22.8749,0.334036,0
45.2814,-22.6553,0.333958,0
45.3533,-22.4349,0.334017,0
45.4215,-22.2138,0.334222,0
45.4861,-21.992,0.334583,0
45.5472,-21.7694,0.335071,0
45.6047,-21.5462,0.335716,0
45.6587,-21.3222,0.336497,0
45.7118,-21.0982,0.337757,0
45.763,-20.8737,0.339359,0
45.8108,-20.6484,0.341107,0
45.8523,-20.4217,0.342679,0
45.8893,-20.1942,0.344271,0
45.9226,-19.966,0.345999,0
45.9523,-19.7371,0.347864,0
45.9782,-19.5075,0.349866,0
46.0005,-19.2773,0.352005,0
46.0192,-19.0464,0.354271,0
46.0343,-18.8148,0.356673,0
46.0568,-18.5824,0.36056,0
46.0788,-18.3486,0.364974,0
46.0972,-18.1136,0.369534,0
46.112,-17.8773,0.374251,0
46.1152,-17.6406,0.378206,0
46.1123,-17.4034,0.382034,0
46.1055,-17.1654,0.385999,0
46.0947,-16.9266,0.390071,0
46.0797,-16.6872,0.39428,0
46.0606,-16.4471,0.398626,0
46.0412,-16.2053,0.403568,0
46.0242,-15.9608,0.409456,0
46.003,-15.7151,0.415501,0
45.9774,-15.4684,0.421693,0
33.7259,-31.3311,0.457454,0
34.0164,-31.3504,0.457454,0
34.3066,-31.3628,0.457454,0
34.5965,-31.3682,0.457454,0
34.8857,-31.3668,0.457464,0
35.1742,-31.3586,0.457454,0
35.4623,-31.3334,0.45639,0
35.7487,-31.2944,0.454593,0
36.0333,-31.2489,0.452786,0
36.3157,-31.197,0.450999,0
36.5958,-31.1389,0.449222,0
36.8734,-31.0759,0.447601,0
37.1488,-31.0076,0.446077,0
37.4215,-30.9335,0.444593,0
37.6915,-30.8537,0.443138,0
37.956,-30.7522,0.439974,0
38.2157,-30.6396,0.436214,0
38.4717,-30.5223,0.432542,0
38.7236,-30.4004,0.428939,0
38.9716,-30.2741,0.425433,0
39.2155,-30.1434,0.421976,0
39.4554,-30.0086,0.418607,0
39.6911,-29.8696,0.415325,0
39.9227,-29.7266,0.412113,0
40.1501,-29.5798,0.408987,0
40.3705,-29.4226,0.40514,0
40.5847,-29.2581,0.400921,0
40.7942,-29.0905,0.39681,0
40.9991,-28.9201,0.392806,0
41.1995,-28.747,0.388929,0
41.3963,-28.5728,0.385355,0
41.5898,-28.3982,0.382171,0
41.7791,-28.221,0.379114,0
41.9638,-28.0414,0.376155,0
42.1443,-27.8593,0.373314,0
42.3204,-27.6749,0.370579,0
42.4922,-27.4884,0.367962,0
42.6597,-27.2996,0.365443,0
42.8177,-27.1026,0.362132,0
42.9691,-26.9017,0.358607,0
43.1163,-26.6995,0.355237,0
43.2591,-26.496,0.352005,0
43.3977,-26.2914,0.348919,0
43.5348,-26.0883,0.346429,0
