25.4296,-5.40134,0.407093,0
25.3953,-5.30964,0.407571,0
25.3596,-5.21865,0.408294,0
25.3216,-5.1287,0.409095,0
25.2816,-5.03979,0.409945,0
25.2394,-4.95202,0.410872,0
25.195,-4.86543,0.411868,0
25.1487,-4.78007,0.412923,0
25.1002,-4.69595,0.414017,0
21.2737,-10.6554,0.550501,0
21.368,-10.6566,0.545443,0
21.4624,-10.6554,0.540355,0
21.5566,-10.6521,0.535267,0
21.6509,-10.6464,0.530159,0
21.7448,-10.6384,0.525072,0
21.8386,-10.6282,0.519954,0
21.9321,-10.6157,0.514847,0
22.0252,-10.601,0.509759,0
22.1179,-10.5841,0.504671,0
22.2101,-10.5649,0.499593,0
22.3017,-10.5435,0.494525,0
22.3929,-10.5199,0.489476,0
22.4834,-10.4941,0.484446,0
22.5732,-10.4662,0.479446,0
22.6623,-10.4361,0.474466,0
22.7505,-10.4039,0.469515,0
22.838,-10.3696,0.464593,0
22.9246,-10.3332,0.45971,0
23.0124,-10.2996,0.456361,0
23.1,-10.2649,0.453372,0
23.1867,-10.2281,0.450394,0
23.2727,-10.189,0.447435,0
23.3577,-10.1479,0.444476,0
23.4416,-10.1046,0.441546,0
23.5247,-10.0591,0.438636,0
23.6066,-10.0116,0.435745,0
23.6873,-9.96205,0.432884,0
23.767,-9.91044,0.430042,0
23.8452,-9.85683,0.42723,0
23.9223,-9.80124,0.424437,0
23.9979,-9.74371,0.421683,0
24.072,-9.68427,0.418958,0
24.1448,-9.62295,0.416263,0
24.2161,-9.5598,0.413616,0
24.2857,-9.49486,0.410999,0
24.3538,-9.42818,0.408431,0
24.4202,-9.35979,0.405902,0
24.4848,-9.2897,0.403411,0
24.5477,-9.21799,0.40096,0
24.6088,-9.14472,0.398568,0
24.6681,-9.06989,0.396214,0
24.7255,-8.99361,0.393919,0
24.7809,-8.91589,0.391673,0
24.8373,-8.83863,0.390374,0
24.894,-8.76131,0.389818,0
24.9489,-8.6825,0.38931,0
25.002,-8.60229,0.388909,0
25.0532,-8.52071,0.388587,0
25.1025,-8.43779,0.388333,0
25.1498,-8.3536,0.388167,0
25.1952,-8.26816,0.388079,0
25.2384,-8.18156,0.388089,0
25.2797,-8.0938,0.388167,0
25.3188,-8.00495,0.388333,0
25.3559,-7.91507,0.388587,0
25.3907,-7.82418,0.388909,0
25.4241,-7.73256,0.389505,0
25.4562,-7.64029,0.390452,0
25.486,-7.54709,0.391458,0
25.5134,-7.45305,0.392523,0
25.5384,-7.35817,0.393626,0
25.561,-7.26257,0.394769,0
25.5811,-7.16631,0.39598,0
25.5987,-7.06944,0.39723,0
25.6138,-6.97203,0.398529,0
25.6264,-6.87419,0.399886,0
25.6364,-6.77594,0.401273,0
25.6438,-6.67738,0.402708,0
25.6487,-6.57858,0.404193,0
25.6509,-6.47963,0.405736,0
25.6484,-6.38065,0.406732,0
25.6385,-6.28212,0.406585,0
25.626,-6.18396,0.406478,0
25.611,-6.08621,0.40639,0
25.5935,-5.989,0.40637,0
25.5735,-5.89237,0.40638,0
25.5509,-5.79641,0.406439,0
25.526,-5.70115,0.406536,0
25.4985,-5.60669,0.406663,0
25.4688,-5.51307,0.406829,0
25.4366,-5.42039,0.407054,0
25.4024,-5.32856,0.407415,0
25.3671,-5.23738,0.408138,0
25.3297,-5.14721,0.408929,0
25.29,-5.05809,0.409769,0
25.2482,-4.97007,0.410677,0
25.2044,-4.88324,0.411663,0
25.1584,-4.7976,0.412689,0
25.1104,-4.71324,0.413792,0
21.3485,-10.6565,0.546488,0
21.4429,-10.6558,0.5414,0
21.5372,-10.6529,0.536312,0
21.6314,-10.6477,0.531224,0
21.7254,-10.6402,0.526116,0
21.8193,-10.6305,0.521019,0
21.9128,-10.6185,0.515911,0
22.0059,-10.6043,0.510814,0
22.0987,-10.5877,0.505716,0
22.1911,-10.569,0.500648,0
22.2828,-10.5481,0.495579,0
22.3741,-10.5249,0.490511,0
22.4648,-10.4996,0.485482,0
22.5547,-10.4721,0.480482,0
22.644,-10.4425,0.475491,0
22.7324,-10.4107,0.47053,0
22.82,-10.3768,0.465609,0
22.9068,-10.3409,0.460716,0
22.9943,-10.3065,0.456976,0
23.082,-10.2723,0.453987,0
23.1689,-10.2359,0.451009,0
23.255,-10.1973,0.44804,0
23.3402,-10.1566,0.445091,0
23.4244,-10.1137,0.442152,0
23.5077,-10.0687,0.439241,0
23.5898,-10.0216,0.436341,0
23.6708,-9.97244,0.43346,0
23.7505,-9.92126,0.430618,0
23.8291,-9.86808,0.427806,0
23.9064,-9.81288,0.425003,0
23.9823,-9.75576,0.422249,0
24.0568,-9.6967,0.419515,0
24.1298,-9.63578,0.41682,0
24.2014,-9.57302,0.414163,0
24.2715,-9.50845,0.411546,0
24.3398,-9.44211,0.408958,0
24.4066,-9.37405,0.406409,0
24.4716,-9.30432,0.403929,0
24.5348,-9.23295,0.401468,0
24.5963,-9.15998,0.399056,0
24.656,-9.08549,0.396702,0
24.7137,-9.0095,0.394398,0
24.7696,-8.93209,0.392152,0
24.8253,-8.85444,0.390501,0
24.8824,-8.77741,0.389925,0
24.9377,-8.69891,0.389407,0
24.9912,-8.61898,0.388978,0
25.0428,-8.53768,0.388636,0
25.0925,-8.45504,0.388372,0
25.1402,-8.37111,0.388187,0
25.1859,-8.28594,0.388099,0
25.2297,-8.19955,0.38807,0
25.2713,-8.11203,0.388138,0
25.3109,-8.02341,0.388294,0
25.3484,-7.93373,0.388528,0
25.3837,-7.84305,0.388841,0
25.4171,-7.75152,0.38931,0
25.4498,-7.65945,0.390257,0
25.4801,-7.56644,0.391243,0
25.508,-7.47254,0.392279,0
25.5334,-7.37785,0.393392,0
25.5566,-7.28241,0.394544,0
25.5772,-7.18627,0.395726,0
25.5953,-7.0895,0.396966,0
25.6109,-6.99223,0.398265,0
25.624,-6.89443,0.399583,0
25.6345,-6.79628,0.40098,0
25.6425,-6.69779,0.402405,0
25.6479,-6.59902,0.40388,0
25.6507,-6.50009,0.405394,0
25.6501,-6.40107,0.40678,0
25.6408,-6.30246,0.406614,0
25.6288,-6.20422,0.406497,0
25.6144,-6.1064,0.406419,0
25.5974,-6.00906,0.40637,0
25.5779,-5.91232,0.40638,0
25.5559,-5.81619,0.406419,0
25.5313,-5.72078,0.406507,0
25.5045,-5.62613,0.406624,0
25.4751,-5.53236,0.4068,0
25.4434,-5.43948,0.407005,0
25.4095,-5.34754,0.407279,0
25.3747,-5.25617,0.407991,0
25.3376,-5.16576,0.408753,0
25.2984,-5.07643,0.409593,0
25.257,-4.98817,0.410482,0
25.2136,-4.90109,0.411448,0
25.1681,-4.8152,0.412464,0
25.1205,-4.73058,0.413548,0
25.071,-4.64724,0.4147,0
21.2958,-10.5516,0.548655,0
21.3878,-10.5523,0.543714,0
21.4797,-10.5508,0.538763,0
21.5716,-10.5471,0.533802,0
21.6633,-10.5411,0.528831,0
21.7548,-10.5329,0.523861,0
21.8461,-10.5225,0.51889,0
21.9371,-10.5099,0.513919,0
22.0277,-10.4952,0.508948,0
22.118,-10.4782,0.503987,0
22.2077,-10.4591,0.499046,0
22.297,-10.4379,0.494105,0
22.3856,-10.4145,0.489193,0
22.4738,-10.3889,0.4843,0
22.5612,-10.3613,0.479427,0
22.6478,-10.3316,0.474583,0
22.7337,-10.2999,0.469759,0
22.8188,-10.2661,0.464974,0
22.903,-10.2302,0.460228,0
22.9877,-10.1955,0.456488,0
23.0727,-10.1612,0.453577,0
23.157,-10.1248,0.450677,0
23.2404,-10.0862,0.447796,0
23.3229,-10.0456,0.444935,0
23.4045,-10.0029,0.442083,0
23.485,-9.95821,0.439251,0
23.5645,-9.91146,0.436439,0
23.6429,-9.86272,0.433665,0
23.72,-9.81201,0.430902,0
23.7959,-9.75935,0.428167,0
23.8706,-9.70479,0.425462,0
23.9439,-9.64833,0.422786,0
24.0158,-9.59003,0.42014,0
24.0863,-9.52994,0.417532,0
24.1553,-9.46807,0.414964,0
24.2227,-9.40445,0.412415,0
24.2886,-9.33915,0.409925,0
24.3528,-9.2722,0.407474,0
24.4154,-9.20363,0.405062,0
24.4762,-9.1335,0.402698,0
24.5354,-9.06184,0.400374,0
24.5927,-8.9887,0.398099,0
24.6481,-8.91413,0.395872,0
24.7044,-8.83997,0.394554,0
24.7609,-8.76568,0.393958,0
24.8156,-8.68993,0.393411,0
24.8686,-8.6128,0.392962,0
24.9198,-8.53429,0.392591,0
24.9692,-8.45446,0.392288,0
25.0166,-8.37335,0.392054,0
25.0623,-8.29102,0.391927,0
25.1059,-8.2075,0.391868,0
25.1475,-8.12282,0.391878,0
25.1872,-8.03706,0.391986,0
25.2247,-7.95025,0.392171,0
25.2602,-7.86245,0.392435,0
25.2936,-7.77369,0.392777,0
25.3248,-7.68406,0.393206,0
25.3539,-7.59359,0.393724,0
25.3808,-7.50232,0.39431,0
25.4055,-7.41033,0.394984,0
25.4288,-7.31784,0.39598,0
25.4502,-7.22471,0.397112,0
25.469,-7.13095,0.398294,0
25.4855,-7.03665,0.399534,0
25.4995,-6.94185,0.400823,0
25.5111,-6.84663,0.402152,0
25.5202,-6.75104,0.403519,0
25.5267,-6.65515,0.404915,0
25.5309,-6.55906,0.40637,0
25.5324,-6.46281,0.407855,0
25.5284,-6.36668,0.408597,0
25.5184,-6.27095,0.40845,0
25.5059,-6.17557,0.408343,0
25.4909,-6.08063,0.408284,0
25.4735,-5.9862,0.408255,0
25.4536,-5.89235,0.408275,0
25.4314,-5.79914,0.408333,0
25.407,-5.70659,0.408489,0
25.3811,-5.6146,0.408939,0
25.353,-5.52335,0.409456,0
25.3227,-5.43292,0.410032,0
25.2902,-5.34336,0.410667,0
25.2555,-5.25474,0.41137,0
25.2186,-5.16709,0.412152,0
25.1797,-5.08047,0.412972,0
25.1387,-4.99493,0.413861,0
25.0957,-4.91056,0.414827,0
25.0507,-4.82734,0.415843,0
25.0037,-4.74537,0.416927,0
21.2768,-10.5512,0.549671,0
21.3688,-10.5524,0.544739,0
21.4607,-10.5513,0.539788,0
21.5526,-10.548,0.534827,0
21.6444,-10.5425,0.529857,0
21.7359,-10.5348,0.524886,0
21.8273,-10.5249,0.519915,0
21.9184,-10.5127,0.514944,0
22.0091,-10.4984,0.509974,0
22.0994,-10.4819,0.505013,0
22.1892,-10.4632,0.500062,0
22.2786,-10.4424,0.49513,0
22.3674,-10.4195,0.490218,0
22.4556,-10.3944,0.485316,0
22.5431,-10.3672,0.480433,0
22.6299,-10.3379,0.475589,0
22.716,-10.3066,0.470755,0
22.8012,-10.2732,0.46596,0
22.8856,-10.2378,0.461204,0
22.97,-10.2023,0.457083,0
23.0552,-10.1684,0.454173,0
23.1396,-10.1325,0.451273,0
23.2232,-10.0944,0.448382,0
23.3059,-10.0542,0.445521,0
23.3877,-10.0119,0.442669,0
23.4685,-9.96764,0.439837,0
23.5482,-9.9213,0.437025,0
23.6268,-9.87296,0.434232,0
23.7042,-9.82265,0.431458,0
23.7803,-9.77039,0.428724,0
23.8553,-9.71622,0.426019,0
23.9289,-9.66015,0.423333,0
24.0011,-9.60224,0.420677,0
24.0718,-9.54251,0.41807,0
24.1411,-9.481,0.415482,0
24.2089,-9.41774,0.412943,0
24.2751,-9.35279,0.410433,0
24.3397,-9.28616,0.407972,0
24.4027,-9.21793,0.40555,0
24.4638,-9.14812,0.403177,0
24.5233,-9.07677,0.400853,0
24.581,-9.00394,0.398568,0
24.6368,-8.92966,0.396321,0
24.6925,-8.85517,0.3947,0
24.7494,-8.78116,0.394066,0
24.8045,-8.7057,0.393509,0
24.8577,-8.62885,0.39304,0
24.9093,-8.55062,0.39265,0
24.9591,-8.47107,0.392347,0
25.007,-8.39023,0.392103,0
25.053,-8.30814,0.391946,0
25.097,-8.22485,0.391868,0
25.1391,-8.14041,0.391868,0
25.1791,-8.05488,0.391966,0
25.2171,-7.96829,0.392132,0
25.253,-7.88068,0.392376,0
25.2869,-7.79213,0.392708,0
25.3186,-7.70268,0.393118,0
25.348,-7.61236,0.393607,0
25.3754,-7.52126,0.394183,0
25.4005,-7.42941,0.394847,0
25.4241,-7.33701,0.395755,0
25.4459,-7.24402,0.396888,0
25.4653,-7.1504,0.39806,0
25.4823,-7.05621,0.39929,0
25.4968,-6.96148,0.40055,0
25.5089,-6.86632,0.401849,0
25.5185,-6.77081,0.403216,0
25.5256,-6.67499,0.404612,0
25.5302,-6.57894,0.406068,0
25.5323,-6.48273,0.407552,0
25.5302,-6.38652,0.408636,0
25.5206,-6.29071,0.408489,0
25.5087,-6.19526,0.408372,0
25.4941,-6.10021,0.408294,0
25.4773,-6.00569,0.408265,0
25.4579,-5.91171,0.408265,0
25.4362,-5.81836,0.408314,0
25.412,-5.72569,0.408392,0
25.3866,-5.63356,0.408841,0
25.359,-5.54215,0.409339,0
25.3291,-5.45155,0.409905,0
25.297,-5.36181,0.410521,0
25.2628,-5.27298,0.411214,0
25.2264,-5.18513,0.411976,0
25.1879,-5.0983,0.412806,0
25.1473,-5.01256,0.413695,0
25.1048,-4.92792,0.414632,0
25.0602,-4.84446,0.415638,0
25.0135,-4.76224,0.416702,0
21.3497,-10.5523,0.545765,0
21.4417,-10.5517,0.540814,0
21.5336,-10.5489,0.535853,0
21.6254,-10.5438,0.530892,0
21.717,-10.5366,0.525911,0
21.8084,-10.5271,0.520941,0
21.8995,-10.5154,0.51597,0
21.9904,-10.5015,0.510999,0
22.0808,-10.4855,0.506038,0
22.1707,-10.4673,0.501097,0
22.2602,-10.4469,0.496155,0
22.3491,-10.4244,0.491234,0
22.4374,-10.3998,0.486321,0
22.5251,-10.373,0.481439,0
22.6121,-10.3442,0.476585,0
22.6984,-10.3132,0.471751,0
22.7837,-10.2803,0.466956,0
22.8683,-10.2453,0.462191,0
22.9523,-10.209,0.457679,0
23.0376,-10.1756,0.454779,0
23.1223,-10.1401,0.451878,0
23.206,-10.1024,0.448987,0
23.2889,-10.0627,0.446116,0
23.3709,-10.0208,0.443265,0
23.4519,-9.97695,0.440423,0
23.5318,-9.93104,0.437601,0
23.6106,-9.88311,0.434808,0
23.6883,-9.8332,0.432034,0
23.7648,-9.78135,0.42929,0
23.8399,-9.72758,0.426575,0
23.9137,-9.67189,0.42388,0
23.9862,-9.61436,0.421234,0
24.0573,-9.55502,0.418607,0
24.127,-9.49387,0.416019,0
24.195,-9.43098,0.41347,0
24.2616,-9.36637,0.41096,0
24.3265,-9.30007,0.40847,0
24.3898,-9.23217,0.406048,0
24.4513,-9.16268,0.403665,0
24.5112,-9.09163,0.401321,0
24.5692,-9.01911,0.399036,0
24.6254,-8.94513,0.39678,0
24.6805,-8.87027,0.394827,0
24.7377,-8.79658,0.394193,0
24.7931,-8.72143,0.393626,0
24.8469,-8.64485,0.393138,0
24.8988,-8.56689,0.392718,0
24.949,-8.48763,0.392396,0
24.9973,-8.40705,0.392152,0
25.0436,-8.32521,0.391966,0
25.088,-8.24216,0.391878,0
25.1305,-8.15797,0.391868,0
25.171,-8.07265,0.391937,0
25.2094,-7.98628,0.392093,0
25.2458,-7.89889,0.392327,0
25.2801,-7.81052,0.39263,0
25.3122,-7.72125,0.393021,0
25.3422,-7.6311,0.393499,0
25.37,-7.54017,0.394066,0
25.3955,-7.44847,0.3947,0
25.4193,-7.35614,0.395521,0
25.4416,-7.26331,0.396644,0
25.4616,-7.1698,0.397806,0
25.479,-7.07571,0.399017,0
25.4941,-6.9811,0.400277,0
25.5066,-6.88603,0.401585,0
25.5167,-6.79059,0.402933,0
25.5244,-6.69483,0.404329,0
25.5295,-6.59882,0.405765,0
25.5321,-6.50264,0.407239,0
25.5318,-6.40637,0.408665,0
25.5228,-6.31048,0.408499,0
25.5114,-6.21496,0.408392,0
25.4974,-6.11982,0.408294,0
25.481,-6.02519,0.408265,0
25.4621,-5.93107,0.408255,0
25.4409,-5.8376,0.408304,0
25.4172,-5.7448,0.408392,0
25.3921,-5.65255,0.408753,0
25.3648,-5.56099,0.409232,0
25.3355,-5.4702,0.409779,0
25.3039,-5.38027,0.410384,0
25.27,-5.29128,0.411077,0
25.2341,-5.2032,0.41181,0
25.1961,-5.11616,0.41263,0
25.1559,-5.03019,0.413499,0
25.1137,-4.94531,0.414427,0
25.0695,-4.86161,0.415413,0
25.0234,-4.77914,0.416478,0
24.9752,-4.6979,0.417591,0
21.2983,-10.4583,0.549837,0
21.388,-10.4529,0.54307,0
21.4776,-10.4514,0.538245,0
21.5672,-10.4478,0.533411,0
21.6566,-10.442,0.528568,0
21.7459,-10.434,0.523724,0
21.8348,-10.4239,0.51887,0
21.9236,-10.4117,0.514027,0
22.012,-10.3973,0.509183,0
22.0999,-10.3808,0.504349,0
22.1874,-10.3622,0.499525,0
22.2745,-10.3416,0.49472,0
22.3609,-10.3188,0.489925,0
22.4468,-10.2939,0.48515,0
22.532,-10.267,0.480404,0
22.6166,-10.2381,0.475677,0
22.7003,-10.2072,0.47098,0
22.7832,-10.1743,0.466302,0
22.8653,-10.1394,0.461663,0
22.9468,-10.1029,0.457191,0
23.0295,-10.0694,0.454359,0
23.1116,-10.0338,0.451536,0
23.1929,-9.99622,0.448734,0
23.2732,-9.95656,0.445931,0
23.3527,-9.9149,0.443157,0
23.431,-9.87126,0.440404,0
23.5084,-9.82564,0.437669,0
23.5847,-9.7781,0.434964,0
23.6598,-9.72864,0.432279,0
23.7337,-9.67729,0.429612,0
23.8064,-9.62407,0.426976,0
23.8777,-9.56905,0.424378,0
23.9478,-9.51222,0.42179,0
24.0164,-9.45363,0.419251,0
24.0836,-9.39332,0.416751,0
24.1492,-9.33134,0.41428,0
24.2134,-9.26771,0.411859,0
24.2759,-9.20248,0.409476,0
24.3369,-9.13564,0.407112,0
24.396,-9.0673,0.404808,0
24.4536,-8.99751,0.402552,0
24.5094,-8.92626,0.400345,0
24.5651,-8.8548,0.398734,0
24.6216,-8.78371,0.39807,0
24.6766,-8.7112,0.397484,0
24.7298,-8.63727,0.396966,0
24.7814,-8.562,0.396527,0
24.8312,-8.4854,0.396165,0
24.8791,-8.40751,0.395872,0
24.9253,-8.32839,0.395667,0
24.9695,-8.24807,0.39553,0
25.012,-8.16659,0.395472,0
25.0525,-8.08401,0.395501,0
25.0909,-8.00038,0.395609,0
25.1274,-7.91572,0.395784,0
25.162,-7.83011,0.396048,0
25.1944,-7.7436,0.3964,0
25.2247,-7.65623,0.396829,0
25.2529,-7.56803,0.397327,0
25.279,-7.47905,0.397904,0
25.303,-7.3894,0.398568,0
25.3247,-7.29909,0.39931,0
25.3442,-7.20818,0.40013,0
25.3616,-7.11673,0.401019,0
25.3766,-7.02481,0.402005,0
25.3895,-6.93244,0.40305,0
25.4,-6.83973,0.404183,0
25.4083,-6.74671,0.405413,0
25.4144,-6.65341,0.406712,0
25.4184,-6.55995,0.408148,0
25.4198,-6.46632,0.409593,0
25.4162,-6.37279,0.410394,0
25.4067,-6.27961,0.410306,0
25.3952,-6.18677,0.410345,0
25.3813,-6.0943,0.410452,0
25.3652,-6.00228,0.410609,0
25.3468,-5.91075,0.410843,0
25.3261,-5.8198,0.411146,0
25.3032,-5.72948,0.411517,0
25.2782,-5.63983,0.411946,0
25.2509,-5.55093,0.412445,0
25.2215,-5.46279,0.413001,0
25.1898,-5.37551,0.413626,0
25.1562,-5.28913,0.41431,0
25.1205,-5.20369,0.415062,0
25.0827,-5.11924,0.415853,0
25.0428,-5.03587,0.416732,0
25.001,-4.95359,0.417669,0
24.9573,-4.87243,0.418636,0
24.9116,-4.79252,0.4197,0
21.2797,-10.4594,0.551341,0
21.3695,-10.453,0.544105,0
21.4591,-10.4519,0.539241,0
21.5487,-10.4487,0.534407,0
21.6381,-10.4434,0.529564,0
21.7273,-10.4359,0.52472,0
21.8165,-10.4262,0.519866,0
21.9052,-10.4144,0.515023,0
21.9937,-10.4005,0.510179,0
22.0817,-10.3844,0.505345,0
22.1694,-10.3663,0.500521,0
22.2565,-10.346,0.495706,0
22.343,-10.3237,0.490911,0
22.4291,-10.2992,0.486136,0
22.5145,-10.2728,0.48137,0
22.5991,-10.2443,0.476654,0
22.683,-10.2138,0.471946,0
22.7662,-10.1812,0.467269,0
22.8484,-10.1468,0.46263,0
22.9298,-10.1103,0.458021,0
23.0125,-10.0765,0.454945,0
23.0948,-10.0414,0.452122,0
23.1762,-10.0042,0.44931,0
23.2567,-9.96494,0.446517,0
23.3363,-9.92368,0.443734,0
23.4149,-9.88046,0.44098,0
23.4926,-9.83525,0.438245,0
23.569,-9.78808,0.435521,0
23.6444,-9.73901,0.432825,0
23.7186,-9.68805,0.430159,0
23.7915,-9.63523,0.427523,0
23.8631,-9.58057,0.424905,0
23.9334,-9.52411,0.422327,0
24.0023,-9.46588,0.419778,0
24.0698,-9.40594,0.417269,0
24.1358,-9.34429,0.414788,0
24.2002,-9.281,0.412347,0
24.2631,-9.21608,0.409964,0
24.3243,-9.1496,0.407601,0
24.384,-9.08156,0.405277,0
24.4419,-9.01205,0.403011,0
24.498,-8.94109,0.400784,0
24.5531,-8.86932,0.39888,0
24.6101,-8.79854,0.398196,0
24.6653,-8.7263,0.397591,0
24.719,-8.65268,0.397064,0
24.7709,-8.57767,0.396605,0
24.8209,-8.50135,0.396234,0
24.8694,-8.42372,0.395931,0
24.9159,-8.34483,0.395687,0
24.9606,-8.26478,0.39556,0
25.0034,-8.18353,0.395482,0
25.0443,-8.10117,0.395482,0
25.0832,-8.01776,0.395579,0
25.1201,-7.93333,0.395755,0
25.155,-7.84791,0.395999,0
25.1878,-7.76155,0.396312,0
25.2186,-7.67437,0.396732,0
25.2473,-7.58632,0.39721,0
25.2738,-7.49752,0.397786,0
25.2981,-7.408,0.398421,0
25.3204,-7.31781,0.399144,0
25.3404,-7.22702,0.399954,0
25.3581,-7.13568,0.400833,0
25.3737,-7.04384,0.40179,0
25.387,-6.95158,0.402835,0
25.398,-6.85894,0.403948,0
25.4068,-6.76595,0.40514,0
25.4134,-6.67272,0.406439,0
25.4177,-6.57928,0.407835,0
25.4196,-6.48568,0.40928,0
25.4178,-6.39209,0.410433,0
25.4088,-6.29885,0.410306,0
25.3977,-6.20594,0.410335,0
25.3843,-6.11337,0.410413,0
25.3687,-6.02126,0.41057,0
25.3508,-5.92964,0.410794,0
25.3305,-5.83856,0.411077,0
25.3082,-5.74811,0.411439,0
25.2835,-5.65831,0.411849,0
25.2566,-5.56924,0.412337,0
25.2277,-5.48094,0.412874,0
25.1966,-5.39348,0.41348,0
25.1634,-5.30691,0.414163,0
25.128,-5.22126,0.414886,0
25.0905,-5.13662,0.415687,0
25.0512,-5.05303,0.416556,0
25.0098,-4.9705,0.417454,0
24.9665,-4.88912,0.418441,0
24.9212,-4.80894,0.419476,0
21.3509,-10.4545,0.545599,0
21.4405,-10.4523,0.540247,0
21.5302,-10.4495,0.535403,0
21.6196,-10.4446,0.530569,0
21.709,-10.4376,0.525726,0
21.7981,-10.4284,0.520872,0
21.8869,-10.417,0.516029,0
21.9754,-10.4035,0.511185,0
22.0636,-10.3879,0.506341,0
22.1513,-10.3702,0.501517,0
22.2386,-10.3504,0.496712,0
22.3252,-10.3284,0.491898,0
22.4114,-10.3045,0.487122,0
22.4969,-10.2784,0.482366,0
22.5817,-10.2503,0.47762,0
22.6658,-10.2202,0.472923,0
22.7491,-10.1881,0.468236,0
22.8315,-10.1541,0.463587,0
22.9131,-10.118,0.458968,0
22.9954,-10.0835,0.45553,0
23.0778,-10.0488,0.452708,0
23.1594,-10.012,0.449886,0
23.2402,-9.9732,0.447093,0
23.3199,-9.93238,0.44431,0
23.3988,-9.88954,0.441546,0
23.4766,-9.84476,0.438812,0
23.5534,-9.798,0.436077,0
23.6289,-9.74932,0.433382,0
23.7034,-9.69875,0.430716,0
23.7765,-9.6463,0.42806,0
23.8484,-9.59202,0.425443,0
23.919,-9.53594,0.422864,0
23.9882,-9.47808,0.420306,0
24.056,-9.41848,0.417786,0
24.1223,-9.35717,0.415296,0
24.187,-9.29422,0.412855,0
24.2502,-9.22964,0.410452,0
24.3118,-9.16346,0.408079,0
24.3717,-9.09576,0.405765,0
24.43,-9.02656,0.403489,0
24.4865,-8.95588,0.401243,0
24.5413,-8.88383,0.399066,0
24.5984,-8.81328,0.398333,0
24.6541,-8.74135,0.397708,0
24.708,-8.66799,0.397152,0
24.7602,-8.59327,0.396683,0
24.8108,-8.51722,0.396292,0
24.8595,-8.43986,0.39598,0
24.9065,-8.36125,0.395736,0
24.9515,-8.28143,0.39557,0
24.9947,-8.20042,0.395491,0
25.036,-8.11829,0.395482,0
25.0753,-8.0351,0.39556,0
25.1126,-7.95087,0.395716,0
25.148,-7.86566,0.39595,0
25.1812,-7.77949,0.396243,0
25.2124,-7.69246,0.396634,0
25.2416,-7.60457,0.397093,0
25.2685,-7.51593,0.39765,0
25.2934,-7.42654,0.398275,0
25.3159,-7.33651,0.398988,0
25.3365,-7.24585,0.399788,0
25.3547,-7.15462,0.400638,0
25.3707,-7.06288,0.401595,0
25.3845,-6.97068,0.402611,0
25.3959,-6.87809,0.403695,0
25.4052,-6.7852,0.404896,0
25.4121,-6.69201,0.406146,0
25.417,-6.59862,0.407552,0
25.4195,-6.50504,0.408978,0
25.4194,-6.4114,0.410462,0
25.4108,-6.31812,0.410325,0
25.4002,-6.22511,0.410316,0
25.3873,-6.13249,0.410404,0
25.3721,-6.04027,0.41054,0
25.3546,-5.94854,0.410745,0
25.3349,-5.85734,0.411009,0
25.313,-5.76677,0.411361,0
25.2888,-5.67682,0.411761,0
25.2624,-5.5876,0.41223,0
25.2338,-5.49914,0.412767,0
25.2031,-5.41149,0.413353,0
25.1703,-5.32473,0.414017,0
25.1355,-5.2389,0.414739,0
25.0985,-5.15404,0.41553,0
25.0595,-5.07021,0.41637,0
25.0186,-4.98746,0.417259,0
24.9756,-4.90584,0.418226,0
24.9307,-4.82543,0.419261,0
24.8839,-4.74619,0.420335,0
21.3006,-10.3707,0.551585,0
21.3882,-10.3642,0.544525,0
21.4756,-10.3565,0.537757,0
21.563,-10.3529,0.53303,0
21.6502,-10.3473,0.528314,0
21.7373,-10.3396,0.523577,0
21.8241,-10.3298,0.518851,0
21.9106,-10.3178,0.514124,0
21.9969,-10.3039,0.509407,0
22.0827,-10.2878,0.504691,0
22.168,-10.2697,0.499984,0
22.2529,-10.2495,0.495286,0
22.3373,-10.2274,0.490618,0
22.421,-10.2031,0.48596,0
22.5042,-10.177,0.481331,0
22.5866,-10.1488,0.476712,0
22.6684,-10.1186,0.472132,0
22.7493,-10.0866,0.467581,0
22.8295,-10.0526,0.46306,0
22.9087,-10.0167,0.458568,0
22.9884,-9.98184,0.455111,0
23.0684,-9.94707,0.452357,0
23.1476,-9.91032,0.449622,0
23.2258,-9.87161,0.446907,0
23.3031,-9.83094,0.444202,0
23.3795,-9.78832,0.441507,0
23.4549,-9.74379,0.438841,0
23.5292,-9.69738,0.436204,0
23.6024,-9.64912,0.433587,0
23.6744,-9.599,0.430989,0
23.7452,-9.54711,0.428431,0
23.8147,-9.49342,0.425882,0
23.8829,-9.438,0.423372,0
23.9498,-9.38087,0.420911,0
24.0152,-9.32205,0.41846,0
24.0791,-9.2616,0.416058,0
24.1416,-9.19957,0.413695,0
24.2025,-9.13597,0.41137,0
24.2618,-9.07083,0.409085,0
24.3196,-9.0042,0.40682,0
24.3756,-8.93616,0.404622,0
24.4308,-8.86735,0.402777,0
24.4875,-8.79937,0.402064,0
24.5425,-8.72995,0.401409,0
24.596,-8.65913,0.400843,0
24.6479,-8.58697,0.400355,0
24.698,-8.51348,0.399925,0
24.7465,-8.43868,0.399573,0
24.7931,-8.36267,0.3993,0
24.838,-8.28544,0.399105,0
24.8811,-8.20705,0.398978,0
24.9223,-8.12754,0.398919,0
24.9617,-8.04696,0.398948,0
24.9991,-7.96536,0.399066,0
25.0346,-7.88278,0.399251,0
25.0681,-7.79927,0.399505,0
25.0996,-7.71488,0.399857,0
25.1291,-7.62962,0.400257,0
25.1566,-7.5436,0.400755,0
25.1818,-7.45686,0.401331,0
25.2051,-7.36942,0.401986,0
25.2262,-7.28133,0.402689,0
25.2452,-7.19272,0.403519,0
25.2619,-7.10354,0.404378,0
25.2765,-7.01391,0.405335,0
25.289,-6.92388,0.40638,0
25.2991,-6.83347,0.407474,0
25.3071,-6.74279,0.408665,0
25.3128,-6.65185,0.409915,0
25.3164,-6.56075,0.411253,0
25.3172,-6.46951,0.412532,0
25.3135,-6.37838,0.413284,0
25.3046,-6.28756,0.413236,0
25.2934,-6.19705,0.413265,0
25.2801,-6.10694,0.413372,0
25.2644,-6.01723,0.413519,0
25.2466,-5.92803,0.413753,0
25.2265,-5.83938,0.414046,0
25.2043,-5.7513,0.414388,0
25.1799,-5.66393,0.414827,0
25.1534,-5.57721,0.415296,0
25.1249,-5.49129,0.415843,0
25.0942,-5.40616,0.416439,0
25.0615,-5.32193,0.417103,0
25.0267,-5.2386,0.417835,0
24.99,-5.15625,0.418616,0
24.9513,-5.07492,0.419466,0
24.9107,-4.99464,0.420364,0
24.8681,-4.91549,0.421321,0
24.8237,-4.83749,0.422337,0
21.2824,-10.3718,0.55305,0
21.3702,-10.3657,0.54597,0
21.4575,-10.3577,0.538968,0
21.5449,-10.3538,0.534007,0
21.6322,-10.3487,0.52928,0
21.7192,-10.3414,0.524564,0
21.8062,-10.332,0.519827,0
21.8927,-10.3205,0.515101,0
21.9791,-10.3069,0.510384,0
22.0649,-10.2913,0.505667,0
22.1504,-10.2736,0.50095,0
22.2354,-10.2539,0.496263,0
22.3198,-10.2321,0.491585,0
22.4037,-10.2083,0.486917,0
22.487,-10.1825,0.482278,0
22.5696,-10.1548,0.477669,0
22.6515,-10.125,0.473079,0
22.7327,-10.0934,0.468519,0
22.813,-10.0598,0.463987,0
22.8923,-10.0243,0.459495,0
22.9718,-9.98877,0.455667,0
23.0519,-9.95443,0.452933,0
23.1312,-9.91809,0.450179,0
23.2097,-9.87978,0.447464,0
23.2873,-9.8395,0.444759,0
23.3638,-9.79728,0.442064,0
23.4394,-9.75315,0.439398,0
23.514,-9.70714,0.436751,0
23.5873,-9.65925,0.434124,0
23.6596,-9.60951,0.431527,0
23.7306,-9.55798,0.428948,0
23.8005,-9.50467,0.426409,0
23.8689,-9.4496,0.42389,0
23.936,-9.39282,0.421419,0
24.0018,-9.33436,0.418968,0
24.066,-9.27425,0.416556,0
24.1288,-9.21252,0.414173,0
24.1901,-9.14924,0.411839,0
24.2497,-9.08441,0.409544,0
24.3077,-9.01812,0.407298,0
24.3641,-8.95035,0.405071,0
24.419,-8.88124,0.402933,0
24.4759,-8.81354,0.4022,0
24.5313,-8.74442,0.401546,0
24.5851,-8.6739,0.40096,0
24.6372,-8.602,0.400452,0
24.6877,-8.52876,0.400003,0
24.7366,-8.45426,0.399642,0
24.7837,-8.37849,0.399359,0
24.8289,-8.3015,0.399134,0
24.8724,-8.22335,0.398997,0
24.914,-8.14408,0.398939,0
24.9537,-8.06373,0.398958,0
24.9916,-7.98231,0.399036,0
25.0275,-7.89994,0.399202,0
25.0614,-7.8166,0.399446,0
25.0933,-7.73239,0.399769,0
25.1231,-7.64731,0.400159,0
25.151,-7.56146,0.400657,0
25.1768,-7.47485,0.401214,0
25.2005,-7.38756,0.401839,0
25.222,-7.29959,0.402542,0
25.2414,-7.21107,0.403333,0
25.2587,-7.12202,0.404202,0
25.2738,-7.03248,0.40514,0
25.2866,-6.94251,0.406146,0
25.2973,-6.85218,0.40723,0
25.3057,-6.76155,0.408411,0
25.3119,-6.67067,0.409652,0
25.3159,-6.5796,0.41097,0
25.3173,-6.48839,0.412298,0
25.3151,-6.39717,0.413284,0
25.3066,-6.30633,0.413255,0
25.2959,-6.21575,0.413265,0
25.283,-6.12554,0.413353,0
25.2678,-6.03574,0.413489,0
25.2504,-5.94644,0.413704,0
25.2308,-5.85767,0.413987,0
25.2091,-5.76947,0.414329,0
25.1852,-5.68192,0.41473,0
25.1591,-5.59507,0.415189,0
25.1309,-5.50897,0.415716,0
25.1007,-5.42369,0.416312,0
25.0684,-5.33927,0.416956,0
25.0341,-5.25576,0.417679,0
24.9977,-5.1732,0.41845,0
24.9595,-5.09165,0.41928,0
24.9192,-5.01114,0.420159,0
24.877,-4.93176,0.421116,0
24.833,-4.85352,0.422122,0
21.352,-10.3671,0.547435,0
21.4395,-10.3595,0.540403,0
21.5269,-10.3547,0.534993,0
21.6141,-10.3499,0.530267,0
21.7013,-10.343,0.52554,0
21.7882,-10.3341,0.520804,0
21.8748,-10.323,0.516087,0
21.9612,-10.3099,0.511351,0
22.0472,-10.2947,0.506634,0
22.1328,-10.2774,0.501927,0
22.2178,-10.2581,0.49723,0
22.3024,-10.2368,0.492542,0
22.3865,-10.2134,0.487884,0
22.4698,-10.188,0.483245,0
22.5526,-10.1607,0.478616,0
22.6346,-10.1313,0.474017,0
22.7159,-10.1001,0.469456,0
22.7963,-10.0669,0.464925,0
22.8759,-10.0317,0.460423,0
22.9552,-9.99562,0.456253,0
23.0354,-9.96169,0.453489,0
23.1149,-9.92577,0.450755,0
23.1935,-9.88786,0.448021,0
23.2712,-9.84799,0.445316,0
23.3481,-9.80616,0.44262,0
23.4239,-9.76243,0.439945,0
23.4987,-9.71681,0.437298,0
23.5723,-9.66931,0.434671,0
23.6448,-9.61995,0.432064,0
23.7161,-9.56878,0.429476,0
23.7862,-9.51584,0.426937,0
23.8548,-9.46113,0.424417,0
23.9223,-9.4047,0.421927,0
23.9883,-9.34658,0.419476,0
24.0528,-9.2868,0.417044,0
24.1159,-9.22543,0.414671,0
24.1775,-9.16245,0.412318,0
24.2375,-9.09794,0.410013,0
24.2959,-9.03195,0.407757,0
24.3526,-8.96446,0.405521,0
24.4077,-8.89561,0.403362,0
24.4642,-8.82767,0.402347,0
24.5199,-8.75885,0.401683,0
24.5741,-8.68858,0.401058,0
24.6266,-8.61696,0.40054,0
24.6775,-8.54401,0.400091,0
24.7266,-8.46976,0.39971,0
24.7741,-8.39427,0.399417,0
24.8197,-8.31751,0.399173,0
24.8636,-8.23961,0.399017,0
24.9055,-8.16055,0.398929,0
24.9457,-8.08042,0.398939,0
24.9839,-7.99923,0.399007,0
25.0202,-7.91704,0.399163,0
25.0545,-7.83391,0.399388,0
25.0869,-7.74987,0.3997,0
25.1172,-7.66497,0.400081,0
25.1455,-7.57928,0.40055,0
25.1716,-7.4928,0.401077,0
25.1958,-7.40564,0.401702,0
25.2177,-7.31784,0.402396,0
25.2375,-7.22943,0.403167,0
25.2552,-7.14047,0.404007,0
25.2708,-7.05103,0.404935,0
25.2841,-6.96114,0.405931,0
25.2952,-6.87088,0.407005,0
25.3041,-6.78032,0.408167,0
25.3107,-6.68948,0.409378,0
25.3152,-6.59844,0.410677,0
25.3173,-6.50726,0.412064,0
25.3164,-6.41601,0.413245,0
25.3086,-6.32507,0.413245,0
25.2984,-6.23443,0.413245,0
25.2859,-6.14415,0.413314,0
25.2712,-6.05429,0.41346,0
25.2542,-5.96485,0.413646,0
25.2351,-5.87598,0.413929,0
25.2137,-5.78766,0.414241,0
25.1902,-5.69998,0.414642,0
25.1647,-5.61297,0.415081,0
25.137,-5.52674,0.415609,0
25.1072,-5.44126,0.416185,0
25.0753,-5.35667,0.416829,0
25.0413,-5.27295,0.417532,0
25.0055,-5.19019,0.418294,0
24.9675,-5.10842,0.419105,0
24.9277,-5.02771,0.419993,0
24.8859,-4.94811,0.420931,0
24.8423,-4.8696,0.421898,0
24.7969,-4.79229,0.422962,0
21.3029,-10.2866,0.553265,0
21.3885,-10.2804,0.546351,0
21.474,-10.2723,0.539515,0
21.5589,-10.2624,0.532737,0
21.6441,-10.2568,0.528069,0
21.7291,-10.2492,0.52345,0
21.8137,-10.2397,0.518841,0
21.8982,-10.2281,0.514222,0
21.9823,-10.2144,0.509613,0
22.0661,-10.1988,0.505013,0
22.1495,-10.1811,0.500413,0
22.2323,-10.1615,0.495843,0
22.3146,-10.1399,0.491273,0
22.3963,-10.1163,0.486741,0
22.4776,-10.0908,0.48221,0
22.558,-10.0633,0.477708,0
22.6378,-10.0339,0.473236,0
22.7168,-10.0026,0.468792,0
22.795,-9.96952,0.464388,0
22.8723,-9.93452,0.459993,0
22.9491,-9.89818,0.455823,0
23.027,-9.8642,0.453138,0
23.1042,-9.82828,0.450472,0
23.1805,-9.79046,0.447825,0
23.2559,-9.75072,0.445189,0
23.3304,-9.7091,0.442571,0
23.4038,-9.66562,0.439974,0
23.4762,-9.6203,0.437396,0
23.5476,-9.57318,0.434847,0
23.6177,-9.52427,0.432318,0
23.6867,-9.4736,0.429808,0
23.7545,-9.42122,0.427337,0
23.821,-9.36713,0.424896,0
23.886,-9.31138,0.422474,0
23.9498,-9.254,0.420101,0
24.0122,-9.19503,0.417757,0
24.073,-9.13451,0.415452,0
24.1324,-9.07246,0.413177,0
24.1902,-9.00895,0.41095,0
24.2465,-8.94398,0.408763,0
24.3014,-8.8778,0.406702,0
24.358,-8.81279,0.405941,0
24.4132,-8.74635,0.405247,0
24.4669,-8.67852,0.404612,0
24.519,-8.60934,0.404056,0
24.5695,-8.53885,0.403597,0
24.6183,-8.46705,0.403177,0
24.6654,-8.39403,0.402845,0
24.7109,-8.31978,0.402571,0
24.7546,-8.24438,0.402396,0
24.7966,-8.16783,0.402269,0
24.8366,-8.09021,0.40222,0
24.8749,-8.01155,0.402259,0
24.9113,-7.93189,0.402366,0
24.9459,-7.85129,0.402552,0
24.9784,-7.76977,0.402806,0
25.0091,-7.6874,0.403157,0
25.0377,-7.60422,0.403548,0
25.0645,-7.52027,0.404036,0
25.089,-7.43562,0.404603,0
25.1116,-7.35032,0.405247,0
25.132,-7.26439,0.40595,0
25.1505,-7.1779,0.406732,0
25.1667,-7.09094,0.407601,0
25.1809,-7.00349,0.408519,0
25.1929,-6.91566,0.409534,0
25.2027,-6.82751,0.410628,0
25.2105,-6.73904,0.411771,0
25.2159,-6.65035,0.413001,0
25.2189,-6.5615,0.414173,0
25.2191,-6.47256,0.415286,0
25.2158,-6.38369,0.416068,0
25.2071,-6.29514,0.416038,0
25.1963,-6.20688,0.416068,0
25.1833,-6.119,0.416155,0
25.1681,-6.03154,0.416321,0
25.1509,-5.94452,0.416527,0
25.1314,-5.85807,0.41682,0
25.1098,-5.77217,0.417161,0
25.0861,-5.68691,0.417562,0
25.0604,-5.60233,0.418021,0
25.0326,-5.51852,0.418558,0
25.0028,-5.43547,0.419134,0
24.971,-5.35327,0.419788,0
24.9372,-5.27196,0.420482,0
24.9015,-5.1916,0.421243,0
24.8638,-5.11224,0.422073,0
24.8243,-5.03388,0.422943,0
24.783,-4.95662,0.42388,0
24.7397,-4.88047,0.424866,0
21.2851,-10.2876,0.554691,0
21.3709,-10.2818,0.547767,0
21.4563,-10.2742,0.540921,0
21.5415,-10.2646,0.534134,0
21.6265,-10.2581,0.529017,0
21.7115,-10.251,0.524417,0
21.7962,-10.2418,0.519798,0
21.8808,-10.2306,0.515179,0
21.9649,-10.2174,0.51057,0
22.0488,-10.2022,0.50597,0
22.1323,-10.185,0.50137,0
22.2152,-10.1657,0.49679,0
22.2977,-10.1445,0.49222,0
22.3795,-10.1213,0.487669,0
22.4609,-10.0962,0.483138,0
22.5414,-10.0691,0.478636,0
22.6213,-10.0402,0.474163,0
22.7005,-10.0093,0.46971,0
22.7789,-9.97651,0.465286,0
22.8564,-9.9419,0.460902,0
22.9331,-9.90547,0.456556,0
23.011,-9.87139,0.453695,0
23.0883,-9.83588,0.451028,0
23.1648,-9.79844,0.448372,0
23.2404,-9.75908,0.445726,0
23.3151,-9.71785,0.443109,0
23.3888,-9.67475,0.440501,0
23.4613,-9.62981,0.437923,0
23.5329,-9.58306,0.435364,0
23.6033,-9.53452,0.432835,0
23.6726,-9.48422,0.430325,0
23.7406,-9.43218,0.427845,0
23.8073,-9.37844,0.425394,0
23.8727,-9.32304,0.422972,0
23.9368,-9.26601,0.420599,0
23.9995,-9.20735,0.418236,0
24.0606,-9.14715,0.415921,0
24.1203,-9.08542,0.413646,0
24.1784,-9.02221,0.411409,0
24.2351,-8.95751,0.409202,0
24.29,-8.89145,0.407054,0
24.3465,-8.82636,0.406097,0
24.402,-8.76021,0.405394,0
24.4559,-8.69267,0.404739,0
24.5083,-8.62376,0.404173,0
24.5591,-8.55352,0.403675,0
24.6084,-8.48201,0.403265,0
24.6559,-8.40923,0.402913,0
24.7017,-8.33523,0.40262,0
24.7457,-8.26005,0.402415,0
24.788,-8.18376,0.402298,0
24.8285,-8.10634,0.40222,0
24.8672,-8.02789,0.402249,0
24.904,-7.94845,0.402337,0
24.9389,-7.86804,0.402513,0
24.9719,-7.7867,0.402757,0
25.0029,-7.70451,0.403079,0
25.032,-7.62148,0.40346,0
25.0591,-7.53769,0.403939,0
25.0841,-7.45317,0.404476,0
25.1071,-7.36801,0.405101,0
25.128,-7.28219,0.405784,0
25.1468,-7.19583,0.406566,0
25.1635,-7.10895,0.407405,0
25.1781,-7.02162,0.408333,0
25.1905,-6.93387,0.409329,0
25.2009,-6.84575,0.410384,0
25.2091,-6.75736,0.411536,0
25.2151,-6.6687,0.412737,0
25.2186,-6.57989,0.413948,0
25.2193,-6.49097,0.415062,0
25.2173,-6.40203,0.416097,0
25.2091,-6.31341,0.416028,0
25.1987,-6.22511,0.416048,0
25.1862,-6.13714,0.416126,0
25.1715,-6.04957,0.416263,0
25.1546,-5.96249,0.416487,0
25.1356,-5.87591,0.416761,0
25.1145,-5.78986,0.417073,0
25.0912,-5.70449,0.417474,0
25.0659,-5.61976,0.417913,0
25.0386,-5.53578,0.418441,0
25.0091,-5.45255,0.418997,0
24.9778,-5.3702,0.419642,0
24.9444,-5.28871,0.420335,0
24.9091,-5.20813,0.421077,0
24.8718,-5.12855,0.421888,0
24.8327,-5.04999,0.422757,0
24.7916,-4.97249,0.423675,0
24.7488,-4.89612,0.424652,0
21.3532,-10.2832,0.549202,0
21.4387,-10.2759,0.542327,0
21.5239,-10.2667,0.53553,0
21.6088,-10.2593,0.529974,0
21.6939,-10.2526,0.525364,0
21.7787,-10.2439,0.520745,0
21.8633,-10.2331,0.516126,0
21.9476,-10.2203,0.511517,0
22.0316,-10.2055,0.506927,0
22.115,-10.1887,0.502318,0
22.198,-10.1699,0.497737,0
22.2806,-10.1491,0.493167,0
22.3627,-10.1263,0.488607,0
22.4441,-10.1016,0.484085,0
22.5248,-10.0749,0.479573,0
22.6049,-10.0463,0.475091,0
22.6842,-10.0158,0.470618,0
22.7628,-9.98344,0.466195,0
22.8405,-9.94921,0.4618,0
22.9173,-9.91315,0.457454,0
22.9948,-9.87848,0.454241,0
23.0723,-9.84337,0.451575,0
23.1491,-9.80633,0.448909,0
23.2248,-9.76737,0.446273,0
23.2997,-9.72652,0.443646,0
23.3736,-9.68383,0.441048,0
23.4464,-9.63926,0.43846,0
23.5182,-9.59287,0.435892,0
23.5888,-9.5447,0.433353,0
23.6584,-9.49477,0.430843,0
23.7266,-9.44309,0.428353,0
23.7936,-9.38971,0.425902,0
23.8593,-9.33464,0.42348,0
23.9237,-9.27792,0.421077,0
23.9866,-9.21961,0.418714,0
24.048,-9.15974,0.4164,0
24.1081,-9.09832,0.414114,0
24.1665,-9.0354,0.411878,0
24.2234,-8.97101,0.409652,0
24.2787,-8.9052,0.407493,0
24.3348,-8.83984,0.406243,0
24.3906,-8.774,0.40553,0
24.4449,-8.70676,0.404876,0
24.4976,-8.63812,0.40428,0
24.5487,-8.56816,0.403782,0
24.5983,-8.4969,0.403343,0
24.6461,-8.42437,0.402972,0
24.6923,-8.35062,0.402679,0
24.7367,-8.27569,0.402454,0
24.7795,-8.19962,0.402308,0
24.8203,-8.12246,0.402249,0
24.8594,-8.04421,0.402239,0
24.8966,-7.96495,0.402318,0
24.9319,-7.88474,0.402474,0
24.9652,-7.80359,0.402698,0
24.9966,-7.72158,0.403001,0
25.0261,-7.63873,0.403382,0
25.0537,-7.55508,0.403831,0
25.0791,-7.47071,0.404368,0
25.1025,-7.38565,0.404954,0
25.1238,-7.29998,0.405638,0
25.143,-7.21374,0.4064,0
25.1602,-7.12695,0.40723,0
25.1752,-7.03972,0.408148,0
25.1882,-6.95203,0.409105,0
25.1989,-6.86399,0.410159,0
25.2075,-6.77564,0.411282,0
25.214,-6.68705,0.412484,0
25.2181,-6.59827,0.413734,0
25.2194,-6.50937,0.414827,0
25.2183,-6.42041,0.415989,0
25.211,-6.33171,0.416038,0
25.201,-6.24334,0.416048,0
25.189,-6.15529,0.416107,0
25.1747,-6.06767,0.416253,0
25.1583,-5.98046,0.416439,0
25.1397,-5.89374,0.416683,0
25.119,-5.80761,0.417005,0
25.0962,-5.72208,0.417376,0
25.0712,-5.63722,0.417816,0
25.0444,-5.55309,0.418333,0
25.0154,-5.46971,0.41888,0
24.9845,-5.38716,0.419505,0
24.9514,-5.30547,0.420179,0
24.9165,-5.22471,0.420921,0
24.8796,-5.14491,0.421722,0
24.8409,-5.06614,0.422571,0
24.8002,-4.98843,0.42348,0
24.7578,-4.91183,0.424446,0
24.7135,-4.83636,0.425462,0
21.305,-10.2057,0.554876,0
21.3888,-10.1998,0.548109,0
21.4724,-10.1921,0.541409,0
21.5555,-10.1826,0.534788,0
21.6384,-10.1712,0.528236,0
21.7212,-10.1627,0.523323,0
21.8039,-10.1534,0.518821,0
21.8863,-10.1421,0.51432,0
21.9685,-10.1288,0.509818,0
22.0503,-10.1136,0.505325,0
22.1316,-10.0964,0.500843,0
22.2126,-10.0772,0.49637,0
22.2929,-10.0561,0.491917,0
22.3727,-10.0331,0.487484,0
22.452,-10.0082,0.48306,0
22.5306,-9.98145,0.478665,0
22.6085,-9.95279,0.47429,0
22.6856,-9.92229,0.469954,0
22.7621,-9.88998,0.465648,0
22.8377,-9.85584,0.46137,0
22.9123,-9.81992,0.457122,0
22.9875,-9.78494,0.45389,0
23.0627,-9.74982,0.451282,0
23.1371,-9.71285,0.448704,0
23.2107,-9.67401,0.446136,0
23.2834,-9.63335,0.443577,0
23.3549,-9.59086,0.441038,0
23.4256,-9.54659,0.438529,0
23.4952,-9.50057,0.436038,0
23.5636,-9.4528,0.433568,0
23.6309,-9.40332,0.431126,0
23.6969,-9.35218,0.428714,0
23.7617,-9.29937,0.426341,0
23.8252,-9.24495,0.423978,0
23.8874,-9.18896,0.421663,0
23.9482,-9.13141,0.419378,0
24.0076,-9.07232,0.417122,0
24.0655,-9.01179,0.414925,0
24.1219,-8.94979,0.412737,0
24.1767,-8.88638,0.410589,0
24.2332,-8.82408,0.40971,0
24.2884,-8.76051,0.408958,0
24.3422,-8.69558,0.408294,0
24.3945,-8.62929,0.407689,0
24.4452,-8.56167,0.407152,0
24.4944,-8.49278,0.406693,0
24.542,-8.42263,0.406292,0
24.5879,-8.35126,0.40597,0
24.6322,-8.27873,0.405716,0
24.6748,-8.20507,0.40554,0
24.7156,-8.13031,0.405433,0
24.7547,-8.05449,0.405394,0
24.792,-7.97767,0.405433,0
24.8273,-7.89985,0.405521,0
24.861,-7.82114,0.405716,0
24.8927,-7.74154,0.40596,0
24.9224,-7.66112,0.406302,0
24.9503,-7.5799,0.406693,0
24.9762,-7.49796,0.407191,0
25.0002,-7.41533,0.407737,0
25.0221,-7.33204,0.408363,0
25.042,-7.24816,0.409046,0
25.0598,-7.16377,0.409827,0
25.0756,-7.07887,0.410667,0
25.0894,-6.99354,0.411575,0
25.1011,-6.90783,0.412571,0
25.1106,-6.82179,0.413616,0
25.118,-6.73547,0.414749,0
25.1228,-6.64893,0.415804,0
25.1252,-6.56225,0.416839,0
25.1254,-6.47549,0.417923,0
25.1223,-6.38877,0.418743,0
25.114,-6.30239,0.418714,0
25.1034,-6.21629,0.418734,0
25.0909,-6.13054,0.418821,0
25.0762,-6.0452,0.418978,0
25.0594,-5.9603,0.419183,0
25.0405,-5.87591,0.419456,0
25.0195,-5.79209,0.419788,0
24.9965,-5.7089,0.420189,0
24.9715,-5.62636,0.420638,0
24.9445,-5.54454,0.421146,0
24.9155,-5.46349,0.421712,0
24.8845,-5.38323,0.422327,0
24.8516,-5.30387,0.423021,0
24.8168,-5.2254,0.423753,0
24.7802,-5.14791,0.424564,0
24.7417,-5.07142,0.425413,0
24.7015,-4.99598,0.426331,0
24.6594,-4.9216,0.427279,0
21.2877,-10.2067,0.556273,0
21.3716,-10.2012,0.549505,0
21.4552,-10.1939,0.542786,0
21.5384,-10.1847,0.536146,0
21.6213,-10.1737,0.529583,0
21.704,-10.1644,0.524261,0
21.7868,-10.1555,0.519759,0
21.8694,-10.1446,0.515247,0
21.9516,-10.1317,0.510755,0
22.0334,-10.1169,0.506253,0
22.1148,-10.1001,0.501771,0
22.1959,-10.0813,0.497298,0
22.2763,-10.0606,0.492835,0
22.3563,-10.038,0.488392,0
22.4357,-10.0135,0.483978,0
22.5145,-9.98715,0.479573,0
22.5925,-9.95887,0.475198,0
22.6698,-9.92875,0.470853,0
22.7463,-9.89681,0.466536,0
22.822,-9.86305,0.462249,0
22.897,-9.82749,0.458001,0
22.9719,-9.79197,0.454427,0
23.0473,-9.75726,0.451829,0
23.1218,-9.72064,0.449232,0
23.1955,-9.6822,0.446663,0
23.2684,-9.6419,0.444105,0
23.3402,-9.59979,0.441566,0
23.411,-9.55589,0.439046,0
23.4809,-9.51023,0.436556,0
23.5495,-9.46282,0.434075,0
23.617,-9.41371,0.431644,0
23.6834,-9.36289,0.429212,0
23.7484,-9.31043,0.42682,0
23.8123,-9.25634,0.424466,0
23.8747,-9.20065,0.422132,0
23.9357,-9.14342,0.419847,0
23.9954,-9.08467,0.417591,0
24.0536,-9.0244,0.415364,0
24.1104,-8.96271,0.413177,0
24.1655,-8.89962,0.411048,0
24.2216,-8.83706,0.409876,0
24.277,-8.77378,0.409124,0
24.3312,-8.70912,0.408431,0
24.3837,-8.64311,0.407806,0
24.4348,-8.57575,0.407259,0
24.4843,-8.50712,0.40678,0
24.5323,-8.43724,0.40638,0
24.5786,-8.3661,0.406019,0
24.6232,-8.29383,0.405765,0
24.6661,-8.22039,0.40557,0
24.7073,-8.14584,0.405443,0
24.7468,-8.07024,0.405384,0
24.7844,-7.99362,0.405413,0
24.8202,-7.91604,0.405511,0
24.8542,-7.8375,0.405677,0
24.8862,-7.75807,0.405911,0
24.9165,-7.67782,0.406234,0
24.9448,-7.59676,0.406614,0
24.9711,-7.51496,0.407083,0
24.9954,-7.43245,0.407611,0
25.0177,-7.34932,0.408226,0
25.038,-7.26556,0.4089,0
25.0563,-7.18125,0.409652,0
25.0726,-7.09646,0.410482,0
25.0867,-7.01121,0.41138,0
25.0988,-6.92558,0.412347,0
25.1088,-6.83961,0.413402,0
25.1166,-6.75335,0.414515,0
25.1221,-6.66683,0.415599,0
25.1249,-6.58019,0.416624,0
25.1255,-6.49343,0.417689,0
25.1238,-6.40666,0.418753,0
25.1159,-6.32022,0.418714,0
25.1058,-6.23406,0.418724,0
25.0937,-6.14823,0.418802,0
25.0794,-6.0628,0.418939,0
25.063,-5.97781,0.419134,0
25.0445,-5.89333,0.419398,0
25.024,-5.80937,0.41971,0
25.0014,-5.72605,0.420101,0
24.9768,-5.64336,0.42053,0
24.9502,-5.56139,0.421028,0
24.9216,-5.48018,0.421585,0
24.8911,-5.39977,0.4222,0
24.8586,-5.3202,0.422874,0
24.8242,-5.24156,0.423607,0
24.788,-5.16386,0.424398,0
24.7498,-5.08716,0.425238,0
24.7099,-5.01148,0.426136,0
24.6682,-4.9369,0.427093,0
21.3542,-10.2025,0.550902,0
21.4379,-10.1955,0.544173,0
21.5212,-10.1867,0.537513,0
21.6041,-10.1762,0.530931,0
21.6869,-10.166,0.525189,0
21.7697,-10.1575,0.520687,0
21.8523,-10.147,0.516175,0
21.9345,-10.1346,0.511673,0
22.0165,-10.1201,0.507181,0
22.098,-10.1037,0.502689,0
22.1791,-10.0854,0.498216,0
22.2598,-10.0651,0.493763,0
22.3398,-10.0429,0.48931,0
22.4194,-10.0188,0.484886,0
22.4982,-9.99274,0.480472,0
22.5764,-9.96486,0.476097,0
22.6538,-9.93514,0.471751,0
22.7306,-9.90355,0.467425,0
22.8065,-9.87018,0.463138,0
22.8816,-9.835,0.45888,0
22.9561,-9.79891,0.454964,0
23.0317,-9.76457,0.452357,0
23.1065,-9.72837,0.449769,0
23.1804,-9.69029,0.447191,0
23.2534,-9.65039,0.444632,0
23.3255,-9.60864,0.442083,0
23.3965,-9.56512,0.439564,0
23.4666,-9.51981,0.437064,0
23.5354,-9.47277,0.434593,0
23.6031,-9.424,0.432142,0
23.6698,-9.37354,0.42972,0
23.7351,-9.32141,0.427318,0
23.7991,-9.26767,0.424954,0
23.8619,-9.2123,0.42262,0
23.9232,-9.15538,0.420316,0
23.9831,-9.09693,0.41805,0
24.0416,-9.03698,0.415814,0
24.0987,-8.9756,0.413636,0
24.1542,-8.91276,0.411478,0
24.2098,-8.84995,0.410042,0
24.2658,-8.78698,0.409271,0
24.3201,-8.7226,0.408568,0
24.373,-8.65687,0.407933,0
24.4244,-8.5898,0.407366,0
24.4742,-8.52141,0.406859,0
24.5225,-8.4518,0.406458,0
24.5691,-8.38092,0.406097,0
24.6141,-8.30888,0.405823,0
24.6573,-8.23565,0.405599,0
24.6989,-8.16135,0.405462,0
24.7387,-8.08596,0.405394,0
24.7768,-8.00955,0.405403,0
24.813,-7.93215,0.405482,0
24.8473,-7.85383,0.405648,0
24.8798,-7.77456,0.405853,0
24.9104,-7.69449,0.406165,0
24.9391,-7.61358,0.406527,0
24.9658,-7.53193,0.406986,0
24.9905,-7.44956,0.407493,0
25.0133,-7.36654,0.408089,0
25.0341,-7.28292,0.408763,0
25.0527,-7.19872,0.409486,0
25.0694,-7.11401,0.410296,0
25.084,-7.02887,0.411185,0
25.0965,-6.9433,0.412132,0
25.107,-6.85739,0.413177,0
25.1152,-6.77121,0.41429,0
25.1213,-6.68475,0.415404,0
25.1245,-6.59811,0.4164,0
25.1256,-6.51139,0.417474,0
25.1246,-6.42459,0.418587,0
25.1177,-6.33807,0.418714,0
25.108,-6.25185,0.418714,0
25.0964,-6.16596,0.418782,0
25.0825,-6.08045,0.418909,0
25.0666,-5.99536,0.419095,0
25.0485,-5.91074,0.419329,0
25.0284,-5.82668,0.419632,0
25.0063,-5.74322,0.420013,0
24.982,-5.66041,0.420443,0
24.9559,-5.57829,0.420931,0
24.9277,-5.49689,0.421458,0
24.8975,-5.41634,0.422073,0
24.8655,-5.33659,0.422737,0
24.8314,-5.25774,0.42346,0
24.7955,-5.17983,0.424222,0
24.7579,-5.10292,0.425052,0
24.7184,-5.02703,0.425941,0
24.677,-4.95224,0.426888,0
24.6339,-4.87853,0.427874,0
21.3071,-10.128,0.556419,0
21.3891,-10.1224,0.549798,0
21.4709,-10.115,0.543245,0
21.5523,-10.1058,0.536751,0
21.6333,-10.0948,0.530335,0
21.7139,-10.0821,0.523997,0
21.7944,-10.0708,0.518812,0
21.875,-10.0597,0.514407,0
21.9552,-10.0468,0.510013,0
22.0351,-10.0319,0.505628,0
22.1146,-10.0151,0.501243,0
22.1936,-9.99643,0.496878,0
22.2722,-9.97587,0.492532,0
22.3502,-9.95342,0.488187,0
22.4276,-9.92912,0.48387,0
22.5044,-9.90299,0.479583,0
22.5805,-9.87504,0.475316,0
22.6559,-9.84527,0.471077,0
22.7305,-9.81371,0.466859,0
22.8044,-9.78042,0.462689,0
22.8773,-9.74536,0.458538,0
22.9496,-9.70906,0.454603,0
23.023,-9.67473,0.452073,0
23.0957,-9.63856,0.449544,0
23.1674,-9.60059,0.447034,0
23.2383,-9.56084,0.444544,0
23.3082,-9.51932,0.442073,0
23.3771,-9.47605,0.439613,0
23.445,-9.43108,0.437191,0
23.5117,-9.3844,0.434779,0
23.5773,-9.33608,0.432405,0
23.6419,-9.28612,0.430052,0
23.705,-9.23454,0.427718,0
23.767,-9.1814,0.425423,0
23.8277,-9.1267,0.423167,0
23.887,-9.0705,0.420921,0
23.9448,-9.01281,0.418724,0
24.0014,-8.95371,0.416575,0
24.0564,-8.89318,0.414446,0
24.1125,-8.83336,0.413392,0
24.1677,-8.77259,0.412601,0
24.2216,-8.71042,0.411878,0
24.2741,-8.64691,0.411224,0
24.325,-8.58209,0.410638,0
24.3745,-8.51599,0.41012,0
24.4224,-8.44861,0.409661,0
24.4688,-8.38005,0.40929,0
24.5137,-8.31029,0.408968,0
24.5568,-8.23938,0.408714,0
24.5983,-8.16739,0.408548,0
24.638,-8.09435,0.40845,0
24.6761,-8.02025,0.408411,0
24.7124,-7.9452,0.40846,0
24.747,-7.86919,0.408568,0
24.7796,-7.79228,0.408743,0
24.8105,-7.7145,0.408987,0
24.8395,-7.63596,0.409329,0
24.8666,-7.55663,0.40973,0
24.8918,-7.47658,0.410189,0
24.9152,-7.39588,0.410736,0
24.9364,-7.31454,0.411351,0
24.9558,-7.23264,0.412025,0
24.9731,-7.15021,0.412777,0
24.9885,-7.06732,0.413607,0
25.0019,-6.98401,0.414505,0
25.0131,-6.90032,0.415472,0
25.0223,-6.81633,0.416517,0
25.029,-6.73203,0.417425,0
25.0334,-6.64756,0.418372,0
25.0356,-6.56296,0.419388,0
25.0358,-6.47827,0.420443,0
25.0329,-6.39365,0.421312,0
25.0248,-6.30932,0.421263,0
25.0147,-6.22529,0.421302,0
25.0024,-6.14158,0.42138,0
24.9881,-6.05828,0.421527,0
24.9717,-5.9754,0.421732,0
24.9534,-5.89301,0.421986,0
24.933,-5.81117,0.422308,0
24.9106,-5.72993,0.422689,0
24.8862,-5.64934,0.423118,0
24.86,-5.56945,0.423626,0
24.8317,-5.49029,0.424163,0
24.8016,-5.41195,0.424788,0
24.7696,-5.33443,0.425462,0
24.7358,-5.25779,0.426175,0
24.7001,-5.18209,0.426956,0
24.6627,-5.10735,0.427777,0
24.6234,-5.03365,0.428665,0
24.5824,-4.96101,0.429603,0
21.2901,-10.1289,0.557796,0
21.3722,-10.1237,0.551165,0
21.454,-10.1166,0.544593,0
21.5354,-10.1078,0.538099,0
21.6166,-10.0972,0.531663,0
21.6972,-10.0849,0.525306,0
21.7777,-10.0728,0.51972,0
21.8584,-10.0622,0.515316,0
21.9387,-10.0496,0.510931,0
22.0186,-10.0351,0.506536,0
22.0982,-10.0188,0.502152,0
22.1773,-10.0004,0.497777,0
22.256,-9.98027,0.493431,0
22.3341,-9.95821,0.489085,0
22.4116,-9.93431,0.484769,0
22.4886,-9.90855,0.480472,0
22.5648,-9.88097,0.476204,0
22.6403,-9.85157,0.471956,0
22.7152,-9.8204,0.467737,0
22.7891,-9.78745,0.463548,0
22.8623,-9.75274,0.459388,0
22.9345,-9.71633,0.455277,0
23.008,-9.68198,0.452601,0
23.0807,-9.64618,0.450062,0
23.1527,-9.60859,0.447552,0
23.2237,-9.5692,0.445052,0
23.2938,-9.52804,0.442571,0
23.363,-9.48515,0.44013,0
23.431,-9.44052,0.437689,0
23.498,-9.3942,0.435277,0
23.5639,-9.34621,0.432884,0
23.6286,-9.29658,0.43053,0
23.692,-9.24533,0.428196,0
23.7543,-9.19252,0.425902,0
23.8152,-9.13814,0.423626,0
23.8748,-9.08224,0.42138,0
23.933,-9.02486,0.419183,0
23.9898,-8.96604,0.417015,0
24.0452,-8.90582,0.414896,0
24.1009,-8.84575,0.413548,0
24.1564,-8.78525,0.412747,0
24.2105,-8.72338,0.412015,0
24.2634,-8.66016,0.411361,0
24.3146,-8.5956,0.410755,0
24.3644,-8.52976,0.410218,0
