71.6762,-54.4526,-2.53033,0
71.7738,-54.459,-2.54373,0
71.8715,-54.4628,-2.55736,0
71.9693,-54.4642,-2.57118,0
72.0673,-54.4631,-2.5852,0
72.1652,-54.4594,-2.59941,0
72.263,-54.4532,-2.61378,0
72.3605,-54.4438,-2.62854,0
72.4564,-54.425,-2.64596,0
72.5516,-54.4038,-2.66346,0
72.6462,-54.3802,-2.68102,0
72.7398,-54.3542,-2.69863,0
72.8328,-54.3258,-2.71628,0
72.925,-54.2951,-2.73395,0
73.0162,-54.262,-2.75163,0
73.1064,-54.2267,-2.76932,0
73.1955,-54.1892,-2.78699,0
73.2836,-54.1494,-2.80465,0
73.3705,-54.1074,-2.82227,0
73.4562,-54.0634,-2.83983,0
73.5407,-54.0172,-2.85735,0
73.6238,-53.9689,-2.87479,0
73.7056,-53.9187,-2.89215,0
73.786,-53.8664,-2.90942,0
73.8649,-53.8123,-2.92659,0
73.9423,-53.7562,-2.94365,0
74.0182,-53.6984,-2.96058,0
74.0926,-53.6387,-2.97737,0
74.1652,-53.5773,-2.99403,0
74.2363,-53.5142,-3.01052,0
74.3057,-53.4495,-3.02685,0
74.3734,-53.3831,-3.04301,0
74.4365,-53.3124,-3.06002,0
74.4954,-53.238,-3.07767,0
74.5523,-53.1623,-3.09508,0
74.6069,-53.0854,-3.11227,0
74.6594,-53.0074,-3.12921,0
74.7098,-52.9283,-3.14591,0
74.758,-52.8482,-3.16235,0
74.804,-52.7672,-3.17851,0
74.8476,-52.6852,-3.19445,0
74.8888,-52.6023,-3.21015,0
74.928,-52.5187,-3.22554,0
74.9648,-52.4345,-3.24063,0
74.9995,-52.3497,-3.2554,0
75.0321,-52.2644,-3.26985,0
75.0624,-52.1787,-3.28399,0
75.0906,-52.0926,-3.29779,0
75.1166,-52.0062,-3.31125,0
75.1405,-51.9195,-3.32438,0
75.1623,-51.8327,-3.33716,0
75.182,-51.7457,-3.3496,0
75.1996,-51.6586,-3.36169,0
75.2152,-51.5715,-3.37343,0
75.2286,-51.4844,-3.38482,0
75.2399,-51.3973,-3.39585,0
75.2494,-51.3104,-3.40652,0
75.2568,-51.2236,-3.41684,0
75.2622,-51.1371,-3.42679,0
75.2656,-51.0508,-3.43638,0
75.2672,-50.9648,-3.44563,0
75.2673,-50.8792,-3.45442,0
75.2764,-50.7957,-3.46074,0
75.2838,-50.712,-3.46676,0
75.2893,-50.6283,-3.47247,0
75.293,-50.5446,-3.47786,0
75.2948,-50.461,-3.48293,0
75.2941,-50.3774,-3.48778,0
75.2907,-50.2939,-3.49251,0
75.2853,-50.2106,-3.49689,0
75.2783,-50.1276,-3.50097,0
75.2692,-50.0449,-3.50472,0
75.2584,-49.9626,-3.50816,0
75.2459,-49.8806,-3.51127,0
75.2314,-49.7991,-3.51406,0
75.2153,-49.718,-3.51654,0
75.1974,-49.6374,-3.51869,0
75.1777,-49.5573,-3.52052,0
75.1564,-49.4779,-3.52203,0
75.1334,-49.399,-3.52322,0
75.1085,-49.3208,-3.5241,0
75.0821,-49.2432,-3.52466,0
75.0541,-49.1664,-3.5249,0
75.0244,-49.0903,-3.52483,0
74.9931,-49.015,-3.52445,0
74.9602,-48.9405,-3.52376,0
74.9258,-48.8669,-3.52276,0
74.8898,-48.7941,-3.52145,0
74.8523,-48.7222,-3.51983,0
74.8135,-48.6513,-3.51789,0
74.7734,-48.5811,-3.5156,0
71.709,-54.3486,-2.54256,0
71.8041,-54.3539,-2.55571,0
71.8995,-54.3567,-2.56907,0
71.9949,-54.3571,-2.58262,0
72.0903,-54.3551,-2.59635,0
72.1858,-54.3505,-2.61026,0
72.2812,-54.3436,-2.62434,0
72.3759,-54.3324,-2.63923,0
72.4692,-54.3134,-2.65624,0
72.5619,-54.292,-2.67332,0
72.6538,-54.2683,-2.69046,0
72.7451,-54.2423,-2.70763,0
72.8355,-54.2139,-2.72486,0
72.9252,-54.1833,-2.7421,0
73.0138,-54.1505,-2.75934,0
73.1015,-54.1154,-2.77659,0
73.1881,-54.0782,-2.79382,0
73.2738,-54.0388,-2.81103,0
73.3582,-53.9974,-2.8282,0
73.4414,-53.9538,-2.84532,0
73.5234,-53.9082,-2.86239,0
73.6042,-53.8607,-2.87939,0
73.6837,-53.8111,-2.89631,0
73.7617,-53.7597,-2.91312,0
73.8384,-53.7064,-2.92984,0
73.9135,-53.6512,-2.94645,0
73.9872,-53.5943,-2.96293,0
74.0592,-53.5357,-2.97928,0
74.1298,-53.4753,-2.99549,0
74.1987,-53.4134,-3.01154,0
74.2658,-53.3496,-3.02753,0
74.3268,-53.2796,-3.04506,0
74.3859,-53.2083,-3.0624,0
74.4429,-53.1356,-3.07954,0
74.4978,-53.0618,-3.09645,0
74.5507,-52.9867,-3.11314,0
74.6014,-52.9106,-3.1296,0
74.6502,-52.8335,-3.14581,0
74.6967,-52.7553,-3.16176,0
74.7411,-52.6763,-3.17746,0
74.7834,-52.5965,-3.19288,0
74.8236,-52.5159,-3.20803,0
74.8614,-52.4344,-3.22298,0
74.8969,-52.3522,-3.23763,0
74.9305,-52.2696,-3.25197,0
74.9619,-52.1864,-3.26601,0
74.9912,-52.1029,-3.27973,0
75.0184,-52.019,-3.29313,0
75.0434,-51.9347,-3.3062,0
75.0664,-51.8502,-3.31895,0
75.0873,-51.7655,-3.33136,0
75.1062,-51.6807,-3.34344,0
75.123,-51.5958,-3.35517,0
75.138,-51.5109,-3.36657,0
75.1508,-51.4259,-3.37762,0
75.1616,-51.3411,-3.38833,0
75.1705,-51.2563,-3.39869,0
75.1773,-51.1717,-3.4087,0
75.1824,-51.0873,-3.41836,0
75.1855,-51.0032,-3.42768,0
75.1867,-50.9193,-3.43663,0
75.1922,-50.8368,-3.44402,0
75.2007,-50.7551,-3.45013,0
75.2074,-50.6733,-3.45593,0
75.2123,-50.5914,-3.46142,0
75.2155,-50.5096,-3.46661,0
75.2156,-50.4277,-3.4717,0
75.2136,-50.346,-3.47653,0
75.2097,-50.2644,-3.48106,0
75.2041,-50.1831,-3.48527,0
75.1966,-50.102,-3.48917,0
75.1873,-50.0213,-3.49276,0
75.1763,-49.9408,-3.49603,0
75.1636,-49.8608,-3.49899,0
75.149,-49.7812,-3.50164,0
75.1328,-49.702,-3.50397,0
75.1148,-49.6234,-3.50599,0
75.0951,-49.5452,-3.5077,0
75.0737,-49.4677,-3.5091,0
75.0508,-49.3907,-3.51018,0
75.0261,-49.3144,-3.51095,0
74.9999,-49.2387,-3.51141,0
74.972,-49.1638,-3.51158,0
74.9425,-49.0896,-3.51142,0
74.9115,-49.0161,-3.51097,0
74.879,-48.9435,-3.51021,0
74.8448,-48.8717,-3.50914,0
74.8094,-48.8007,-3.50776,0
74.7727,-48.7305,-3.50603,0
74.7345,-48.6612,-3.50401,0
74.6948,-48.5928,-3.50169,0
71.6932,-54.3475,-2.54039,0
71.7884,-54.3531,-2.55351,0
71.8836,-54.3564,-2.56683,0
71.9791,-54.3572,-2.58035,0
72.0745,-54.3556,-2.59405,0
72.1699,-54.3515,-2.60794,0
72.2653,-54.3449,-2.62198,0
72.3604,-54.3353,-2.63641,0
72.4538,-54.3167,-2.65341,0
72.5466,-54.2957,-2.67048,0
72.6386,-54.2724,-2.6876,0
72.73,-54.2467,-2.70478,0
72.8205,-54.2188,-2.722,0
72.9103,-54.1886,-2.73924,0
72.9991,-54.1561,-2.75648,0
73.087,-54.1214,-2.77373,0
73.1738,-54.0846,-2.79096,0
73.2596,-54.0455,-2.80818,0
73.3442,-54.0044,-2.82535,0
73.4277,-53.9612,-2.84249,0
73.51,-53.9159,-2.85957,0
73.5909,-53.8687,-2.87657,0
73.6705,-53.8195,-2.8935,0
73.7488,-53.7683,-2.91033,0
73.8257,-53.7153,-2.92708,0
73.9012,-53.6605,-2.9437,0
73.975,-53.6039,-2.9602,0
74.0474,-53.5455,-2.97658,0
74.1182,-53.4855,-2.99281,0
74.1874,-53.4238,-3.00889,0
74.2549,-53.3605,-3.02481,0
74.3168,-53.2913,-3.04216,0
74.3762,-53.2202,-3.05953,0
74.4335,-53.1478,-3.07671,0
74.4888,-53.0741,-3.09365,0
74.542,-52.9993,-3.11039,0
74.5932,-52.9233,-3.12688,0
74.6422,-52.8463,-3.14313,0
74.6891,-52.7684,-3.15914,0
74.7339,-52.6895,-3.17487,0
74.7766,-52.6098,-3.19033,0
74.8171,-52.5293,-3.20553,0
74.8553,-52.4479,-3.22051,0
74.8913,-52.3659,-3.23522,0
74.9251,-52.2834,-3.24962,0
74.9568,-52.2003,-3.2637,0
74.9865,-52.1168,-3.27747,0
75.014,-52.0329,-3.29092,0
75.0394,-51.9487,-3.30405,0
75.0627,-51.8643,-3.31685,0
75.0841,-51.7796,-3.32932,0
75.1033,-51.6948,-3.34146,0
75.1205,-51.6099,-3.35325,0
75.1356,-51.525,-3.3647,0
75.1488,-51.44,-3.37581,0
75.1599,-51.3551,-3.38658,0
75.1691,-51.2704,-3.397,0
75.1764,-51.1857,-3.40707,0
75.1816,-51.1013,-3.41678,0
75.1852,-51.0171,-3.42615,0
75.1866,-50.9332,-3.43517,0
75.1906,-50.8504,-3.44298,0
75.1994,-50.7687,-3.44913,0
75.2065,-50.6869,-3.45499,0
75.2116,-50.605,-3.46053,0
75.2151,-50.5232,-3.46576,0
75.2158,-50.4413,-3.47086,0
75.214,-50.3596,-3.47575,0
75.2105,-50.278,-3.48032,0
75.2051,-50.1966,-3.48459,0
75.198,-50.1155,-3.48854,0
75.189,-50.0347,-3.49217,0
75.1783,-49.9542,-3.49551,0
75.1658,-49.8741,-3.49852,0
75.1516,-49.7944,-3.50122,0
75.1356,-49.7151,-3.50361,0
75.1179,-49.6364,-3.50568,0
75.0985,-49.5582,-3.50744,0
75.0775,-49.4805,-3.50889,0
75.0547,-49.4034,-3.51003,0
75.0303,-49.327,-3.51085,0
75.0043,-49.2512,-3.51136,0
74.9767,-49.1762,-3.51157,0
74.9476,-49.1018,-3.51147,0
74.9168,-49.0283,-3.51107,0
74.8845,-48.9555,-3.51035,0
74.8506,-48.8835,-3.50934,0
74.8153,-48.8124,-3.50801,0
74.7788,-48.7421,-3.50634,0
74.7409,-48.6726,-3.50437,0
74.7014,-48.6041,-3.5021,0
71.6775,-54.3463,-2.53823,0
71.7726,-54.3524,-2.55132,0
71.8677,-54.356,-2.56461,0
71.9632,-54.3573,-2.57809,0
72.0587,-54.356,-2.59177,0
72.1541,-54.3523,-2.60562,0
72.2495,-54.3461,-2.61964,0
72.3448,-54.3375,-2.63383,0
72.4383,-54.3199,-2.65058,0
72.5312,-54.2994,-2.66764,0
72.6234,-54.2764,-2.68476,0
72.7148,-54.2512,-2.70193,0
72.8055,-54.2236,-2.71913,0
72.8954,-54.1937,-2.73637,0
72.9845,-54.1616,-2.75362,0
73.0724,-54.1273,-2.77087,0
73.1595,-54.0908,-2.7881,0
73.2454,-54.0522,-2.80531,0
73.3303,-54.0114,-2.82251,0
73.4139,-53.9685,-2.83964,0
73.4964,-53.9236,-2.85674,0
73.5776,-53.8767,-2.87375,0
73.6574,-53.8278,-2.8907,0
73.7359,-53.777,-2.90754,0
73.813,-53.7243,-2.9243,0
73.8887,-53.6697,-2.94094,0
73.9629,-53.6134,-2.95747,0
74.0355,-53.5553,-2.97387,0
74.1066,-53.4956,-2.99013,0
74.176,-53.4341,-3.00623,0
74.2438,-53.3711,-3.02218,0
74.3068,-53.303,-3.03926,0
74.3665,-53.2321,-3.05667,0
74.4241,-53.1599,-3.07387,0
74.4798,-53.0864,-3.09086,0
74.5334,-53.0118,-3.10763,0
74.5848,-52.936,-3.12416,0
74.6342,-52.8592,-3.14046,0
74.6815,-52.7814,-3.1565,0
74.7266,-52.7027,-3.17227,0
74.7696,-52.6231,-3.18779,0
74.8105,-52.5427,-3.20303,0
74.8491,-52.4615,-3.21805,0
74.8855,-52.3796,-3.2328,0
74.9196,-52.2971,-3.24725,0
74.9517,-52.2141,-3.26138,0
74.9816,-52.1307,-3.27521,0
75.0095,-52.0469,-3.28871,0
75.0353,-51.9627,-3.30189,0
75.059,-51.8783,-3.31475,0
75.0806,-51.7937,-3.32727,0
75.1002,-51.7089,-3.33946,0
75.1177,-51.624,-3.35131,0
75.1332,-51.5391,-3.36282,0
75.1467,-51.4541,-3.37399,0
75.1582,-51.3692,-3.38482,0
75.1677,-51.2844,-3.39529,0
75.1753,-51.1998,-3.40541,0
75.1809,-51.1153,-3.41519,0
75.1847,-51.0311,-3.42462,0
75.1866,-50.9472,-3.4337,0
75.189,-50.8639,-3.44193,0
75.1981,-50.7823,-3.44814,0
75.2054,-50.7005,-3.45404,0
75.2109,-50.6186,-3.45964,0
75.2146,-50.5368,-3.46492,0
75.2159,-50.4549,-3.47001,0
75.2144,-50.3731,-3.47496,0
75.2112,-50.2915,-3.47959,0
75.2061,-50.2101,-3.4839,0
75.1992,-50.1289,-3.4879,0
75.1906,-50.048,-3.4916,0
75.1802,-49.9675,-3.49498,0
75.168,-49.8873,-3.49804,0
75.1541,-49.8076,-3.50079,0
75.1384,-49.7283,-3.50323,0
75.1209,-49.6494,-3.50535,0
75.1019,-49.5711,-3.50717,0
75.0811,-49.4934,-3.50867,0
75.0586,-49.4162,-3.50986,0
75.0345,-49.3397,-3.51073,0
75.0088,-49.2638,-3.5113,0
74.9814,-49.1886,-3.51155,0
74.9525,-49.1141,-3.51151,0
74.922,-49.0404,-3.51115,0
74.8899,-48.9675,-3.51049,0
74.8563,-48.8954,-3.50953,0
74.8213,-48.8242,-3.50826,0
74.785,-48.7537,-3.50664,0
74.7473,-48.6841,-3.50471,0
74.708,-48.6154,-3.50249,0
71.7094,-54.2468,-2.55001,0
71.8022,-54.2519,-2.56285,0
71.8952,-54.2545,-2.57589,0
71.9883,-54.2548,-2.58911,0
72.0814,-54.2527,-2.60252,0
72.1745,-54.2482,-2.61609,0
72.2674,-54.2413,-2.62983,0
72.3602,-54.2315,-2.64391,0
72.4512,-54.213,-2.66051,0
72.5416,-54.1923,-2.67717,0
72.6314,-54.1692,-2.69389,0
72.7204,-54.144,-2.71066,0
72.8087,-54.1164,-2.72745,0
72.8962,-54.0867,-2.74427,0
72.9827,-54.0547,-2.76111,0
73.0683,-54.0207,-2.77793,0
73.153,-53.9845,-2.79475,0
73.2365,-53.9462,-2.81154,0
73.319,-53.9058,-2.8283,0
73.4004,-53.8634,-2.84501,0
73.4805,-53.8191,-2.86167,0
73.5594,-53.7728,-2.87826,0
73.637,-53.7246,-2.89477,0
73.7133,-53.6745,-2.9112,0
73.7881,-53.6226,-2.92752,0
73.8616,-53.5689,-2.94373,0
73.9336,-53.5135,-2.95984,0
74.0041,-53.4564,-2.97581,0
74.073,-53.3976,-2.99163,0
74.1394,-53.336,-3.00777,0
74.2011,-53.2695,-3.02504,0
74.2609,-53.2016,-3.04215,0
74.3186,-53.1323,-3.05905,0
74.3744,-53.0618,-3.07577,0
74.4282,-52.99,-3.09228,0
74.48,-52.9171,-3.10857,0
74.5298,-52.8431,-3.12464,0
74.5776,-52.7681,-3.14047,0
74.6233,-52.6922,-3.15606,0
74.667,-52.6153,-3.17138,0
74.7085,-52.5377,-3.18645,0
74.748,-52.4593,-3.20126,0
74.7855,-52.3802,-3.21578,0
74.8208,-52.3004,-3.23004,0
74.8538,-52.22,-3.24406,0
74.8848,-52.139,-3.2578,0
74.9137,-52.0576,-3.27123,0
74.9405,-51.9758,-3.28435,0
74.9654,-51.8938,-3.29715,0
74.9882,-51.8114,-3.30964,0
75.0089,-51.7289,-3.3218,0
75.0278,-51.6462,-3.33364,0
75.0445,-51.5633,-3.34515,0
75.0594,-51.4805,-3.35632,0
75.0723,-51.3976,-3.36717,0
75.0831,-51.3148,-3.37767,0
75.0922,-51.2321,-3.38784,0
75.0993,-51.1495,-3.39768,0
75.1045,-51.0671,-3.40717,0
75.1079,-50.9849,-3.41633,0
75.1095,-50.903,-3.42513,0
75.117,-50.8227,-3.43198,0
75.1254,-50.7428,-3.43797,0
75.132,-50.6628,-3.44366,0
75.1369,-50.5827,-3.44905,0
75.1389,-50.5025,-3.45436,0
75.1388,-50.4225,-3.45941,0
75.137,-50.3425,-3.46417,0
75.1334,-50.2627,-3.46861,0
75.128,-50.1832,-3.47275,0
75.1208,-50.1039,-3.47658,0
75.1119,-50.0249,-3.48012,0
75.1012,-49.9462,-3.48334,0
75.0887,-49.8679,-3.48625,0
75.0748,-49.79,-3.48886,0
75.0589,-49.7125,-3.49117,0
75.0414,-49.6355,-3.49317,0
75.0223,-49.5591,-3.49485,0
75.0016,-49.4831,-3.49624,0
74.9791,-49.4078,-3.49732,0
74.9551,-49.3331,-3.4981,0
74.9295,-49.259,-3.49857,0
74.9023,-49.1857,-3.49874,0
74.8736,-49.113,-3.49861,0
74.8434,-49.0411,-3.49818,0
74.8116,-48.9699,-3.49743,0
74.7787,-48.8995,-3.49636,0
74.7441,-48.8299,-3.49497,0
74.7083,-48.7611,-3.4933,0
74.6709,-48.6932,-3.49135,0
74.6322,-48.6263,-3.48908,0
71.694,-54.2458,-2.5479,0
71.7868,-54.2512,-2.5607,0
71.8798,-54.2542,-2.57371,0
71.9728,-54.2549,-2.58691,0
72.0659,-54.2532,-2.60028,0
72.1591,-54.2491,-2.61383,0
72.252,-54.2426,-2.62754,0
72.3448,-54.2337,-2.64139,0
72.4361,-54.2162,-2.65775,0
72.5266,-54.1959,-2.6744,0
72.6166,-54.1732,-2.69111,0
72.7057,-54.1483,-2.70787,0
72.7941,-54.1211,-2.72466,0
72.8817,-54.0918,-2.74148,0
72.9684,-54.0602,-2.75831,0
73.0542,-54.0265,-2.77514,0
73.139,-53.9906,-2.79195,0
73.2227,-53.9527,-2.80876,0
73.3054,-53.9126,-2.82552,0
73.387,-53.8706,-2.84224,0
73.4673,-53.8266,-2.85891,0
73.5464,-53.7806,-2.87551,0
73.6242,-53.7327,-2.89204,0
73.7006,-53.6829,-2.90847,0
73.7759,-53.6313,-2.92482,0
73.8494,-53.5779,-2.94105,0
73.9217,-53.5228,-2.95717,0
73.9925,-53.466,-2.97316,0
74.0617,-53.4075,-2.98902,0
74.129,-53.3469,-3.00488,0
74.1909,-53.2807,-3.02219,0
74.251,-53.213,-3.03932,0
74.3092,-53.1439,-3.05627,0
74.3653,-53.0736,-3.07301,0
74.4194,-53.002,-3.08956,0
74.4716,-52.9293,-3.10589,0
74.5217,-52.8555,-3.12198,0
74.5698,-52.7806,-3.13786,0
74.6158,-52.7049,-3.15348,0
74.6598,-52.6282,-3.16886,0
74.7018,-52.5506,-3.18398,0
74.7416,-52.4723,-3.19882,0
74.7794,-52.3934,-3.2134,0
74.8151,-52.3137,-3.22769,0
74.8485,-52.2334,-3.24175,0
74.8798,-52.1525,-3.25554,0
74.9091,-52.0712,-3.26902,0
74.9362,-51.9894,-3.28219,0
74.9614,-51.9074,-3.29505,0
74.9845,-51.8251,-3.30759,0
75.0056,-51.7426,-3.3198,0
75.0248,-51.6599,-3.3317,0
75.0419,-51.5771,-3.34326,0
75.057,-51.4943,-3.35449,0
75.0702,-51.4114,-3.36539,0
75.0815,-51.3286,-3.37595,0
75.0908,-51.2458,-3.38618,0
75.0982,-51.1632,-3.39608,0
75.1037,-51.0808,-3.40562,0
75.1075,-50.9986,-3.41483,0
75.1093,-50.9166,-3.42369,0
75.1154,-50.836,-3.43095,0
75.1241,-50.7561,-3.43699,0
75.1311,-50.6761,-3.44273,0
75.1362,-50.596,-3.44818,0
75.1387,-50.5158,-3.45349,0
75.139,-50.4357,-3.45859,0
75.1374,-50.3558,-3.46339,0
75.1341,-50.276,-3.46789,0
75.129,-50.1964,-3.47208,0
75.1221,-50.117,-3.47597,0
75.1134,-50.038,-3.47955,0
75.1031,-49.9592,-3.48282,0
75.0909,-49.8808,-3.48579,0
75.0772,-49.8029,-3.48845,0
75.0616,-49.7253,-3.49081,0
75.0444,-49.6483,-3.49286,0
75.0256,-49.5717,-3.4946,0
75.0051,-49.4957,-3.49603,0
74.983,-49.4203,-3.49716,0
74.9592,-49.3454,-3.49799,0
74.9339,-49.2713,-3.49851,0
74.907,-49.1978,-3.49873,0
74.8785,-49.125,-3.49865,0
74.8485,-49.053,-3.49827,0
74.8169,-48.9817,-3.49759,0
74.7842,-48.9111,-3.49655,0
74.75,-48.8414,-3.49523,0
74.7143,-48.7725,-3.4936,0
74.6772,-48.7044,-3.49169,0
74.6387,-48.6373,-3.48948,0
71.6786,-54.2446,-2.54579,0
71.7713,-54.2504,-2.55857,0
71.8643,-54.2539,-2.57154,0
71.9573,-54.255,-2.5847,0
72.0505,-54.2537,-2.59804,0
72.1436,-54.25,-2.61156,0
72.2366,-54.2439,-2.62525,0
72.3295,-54.2354,-2.63908,0
72.421,-54.2194,-2.65499,0
72.5116,-54.1994,-2.67163,0
72.6016,-54.1771,-2.68833,0
72.6909,-54.1526,-2.70508,0
72.7794,-54.1258,-2.72187,0
72.8672,-54.0968,-2.73869,0
72.9541,-54.0656,-2.75552,0
73.04,-54.0322,-2.77234,0
73.125,-53.9967,-2.78917,0
73.2089,-53.9591,-2.80597,0
73.2918,-53.9194,-2.82274,0
73.3735,-53.8777,-2.83946,0
73.4541,-53.834,-2.85615,0
73.5334,-53.7884,-2.87276,0
73.6114,-53.7408,-2.88929,0
73.688,-53.6913,-2.90575,0
73.7634,-53.64,-2.92211,0
73.8373,-53.5869,-2.93836,0
73.9098,-53.5321,-2.9545,0
73.9809,-53.4755,-2.97051,0
74.0503,-53.4173,-2.98639,0
74.1182,-53.3575,-3.00213,0
74.1808,-53.2918,-3.01933,0
74.2412,-53.2243,-3.03649,0
74.2996,-53.1555,-3.05346,0
74.3561,-53.0853,-3.07024,0
74.4106,-53.014,-3.08682,0
74.463,-52.9415,-3.10319,0
74.5135,-52.8678,-3.11933,0
74.562,-52.7931,-3.13524,0
74.6084,-52.7175,-3.1509,0
74.6527,-52.6409,-3.16633,0
74.6949,-52.5636,-3.18148,0
74.7351,-52.4854,-3.19638,0
74.7733,-52.4065,-3.21099,0
74.8093,-52.327,-3.22533,0
74.8431,-52.2467,-3.23944,0
74.8748,-52.1659,-3.25326,0
74.9044,-52.0847,-3.2668,0
74.9319,-52.003,-3.28003,0
74.9573,-51.9211,-3.29293,0
74.9808,-51.8388,-3.30553,0
75.0023,-51.7563,-3.3178,0
75.0217,-51.6736,-3.32974,0
75.0391,-51.5909,-3.34136,0
75.0546,-51.508,-3.35265,0
75.0682,-51.4252,-3.36361,0
75.0798,-51.3423,-3.37423,0
75.0894,-51.2596,-3.38451,0
75.0971,-51.1769,-3.39445,0
75.103,-51.0945,-3.40406,0
75.1069,-51.0122,-3.41332,0
75.1091,-50.9302,-3.42224,0
75.1138,-50.8492,-3.42992,0
75.1228,-50.7693,-3.43601,0
75.13,-50.6893,-3.44179,0
75.1355,-50.6093,-3.44729,0
75.1385,-50.5292,-3.45261,0
75.1391,-50.449,-3.45777,0
75.1378,-50.369,-3.46262,0
75.1348,-50.2892,-3.46717,0
75.1299,-50.2096,-3.47141,0
75.1234,-50.1302,-3.47534,0
75.115,-50.0511,-3.47898,0
75.1049,-49.9723,-3.48231,0
75.0931,-49.8938,-3.48532,0
75.0796,-49.8158,-3.48802,0
75.0644,-49.7382,-3.49044,0
75.0475,-49.661,-3.49253,0
75.0288,-49.5844,-3.49433,0
75.0086,-49.5083,-3.49581,0
74.9868,-49.4328,-3.49699,0
74.9633,-49.3578,-3.49787,0
74.9382,-49.2836,-3.49844,0
74.9115,-49.2099,-3.49872,0
74.8834,-49.137,-3.49869,0
74.8535,-49.0649,-3.49835,0
74.8223,-48.9935,-3.49772,0
74.7898,-48.9228,-3.49674,0
74.7558,-48.8529,-3.49547,0
74.7203,-48.7839,-3.49389,0
74.6834,-48.7157,-3.49203,0
74.6452,-48.6484,-3.48987,0
71.7098,-54.1494,-2.55714,0
71.8004,-54.1542,-2.56968,0
71.8911,-54.1567,-2.58241,0
71.9819,-54.1569,-2.59533,0
72.0727,-54.1548,-2.60841,0
72.1636,-54.1503,-2.62167,0
72.2544,-54.1435,-2.63508,0
72.3449,-54.1343,-2.64863,0
72.4339,-54.117,-2.66461,0
72.5222,-54.0968,-2.68086,0
72.6098,-54.0744,-2.69718,0
72.6968,-54.0498,-2.71355,0
72.783,-54.023,-2.72994,0
72.8684,-53.9941,-2.74635,0
72.953,-53.9631,-2.76278,0
73.0366,-53.9299,-2.77922,0
73.1193,-53.8947,-2.79563,0
73.2009,-53.8574,-2.81203,0
73.2816,-53.8181,-2.82839,0
73.361,-53.7768,-2.84471,0
73.4393,-53.7337,-2.86097,0
73.5164,-53.6886,-2.87718,0
73.5923,-53.6416,-2.89331,0
73.6668,-53.5928,-2.90935,0
73.74,-53.5423,-2.92529,0
73.8119,-53.49,-2.94113,0
73.8822,-53.436,-2.95686,0
73.9512,-53.3803,-2.97247,0
74.0168,-53.3208,-2.98881,0
74.079,-53.2576,-3.00582,0
74.1393,-53.193,-3.02267,0
74.1977,-53.127,-3.03935,0
74.2544,-53.0597,-3.05587,0
74.3091,-52.9912,-3.07218,0
74.3617,-52.9214,-3.0883,0
74.4126,-52.8505,-3.1042,0
74.4613,-52.7786,-3.1199,0
74.5082,-52.7056,-3.13536,0
74.5531,-52.6318,-3.15058,0
74.5959,-52.557,-3.16557,0
74.6368,-52.4814,-3.1803,0
74.6756,-52.4051,-3.19478,0
74.7124,-52.3281,-3.20898,0
74.7473,-52.2504,-3.22292,0
74.78,-52.1722,-3.23658,0
74.8108,-52.0935,-3.24995,0
74.8395,-52.0142,-3.26307,0
74.866,-51.9345,-3.27592,0
74.8905,-51.8545,-3.28847,0
74.9131,-51.7742,-3.30071,0
74.9337,-51.6937,-3.31262,0
74.9524,-51.613,-3.32423,0
74.9691,-51.5322,-3.33552,0
74.984,-51.4513,-3.34649,0
74.9969,-51.3705,-3.35713,0
75.0079,-51.2896,-3.36745,0
75.017,-51.2088,-3.37743,0
75.0242,-51.1282,-3.3871,0
75.0297,-51.0477,-3.39641,0
75.0333,-50.9674,-3.40542,0
75.0351,-50.8874,-3.41407,0
75.0445,-50.8091,-3.42038,0
75.0529,-50.7309,-3.42626,0
75.0595,-50.6526,-3.43184,0
75.0632,-50.5742,-3.43737,0
75.065,-50.4957,-3.44263,0
75.065,-50.4174,-3.44759,0
75.0634,-50.3391,-3.45226,0
75.0599,-50.2611,-3.45663,0
75.0548,-50.1833,-3.4607,0
75.0478,-50.1056,-3.46448,0
75.0392,-50.0283,-3.46796,0
75.0289,-49.9513,-3.47112,0
75.0169,-49.8747,-3.474,0
75.0032,-49.7984,-3.47657,0
74.9878,-49.7226,-3.47884,0
74.9709,-49.6472,-3.48082,0
74.9523,-49.5724,-3.48248,0
74.932,-49.498,-3.48385,0
74.9102,-49.4243,-3.48494,0
74.8868,-49.3511,-3.4857,0
74.8618,-49.2786,-3.48619,0
74.8353,-49.2067,-3.48638,0
74.8073,-49.1355,-3.48624,0
74.778,-49.065,-3.48578,0
74.7473,-48.9952,-3.48504,0
74.715,-48.9262,-3.484,0
74.6813,-48.858,-3.48266,0
74.6462,-48.7907,-3.48104,0
74.6097,-48.7241,-3.47914,0
74.5721,-48.6584,-3.47688,0
71.6948,-54.1484,-2.55508,0
71.7853,-54.1536,-2.56759,0
71.876,-54.1565,-2.58029,0
71.9669,-54.157,-2.59318,0
72.0577,-54.1553,-2.60623,0
72.1485,-54.1512,-2.61945,0
72.2393,-54.1448,-2.63284,0
72.3299,-54.136,-2.64637,0
72.4192,-54.1201,-2.66191,0
72.5076,-54.1003,-2.67816,0
72.5953,-54.0783,-2.69446,0
72.6824,-54.0541,-2.71082,0
72.7687,-54.0276,-2.72721,0
72.8543,-53.9991,-2.74363,0
72.939,-53.9684,-2.76006,0
73.0227,-53.9355,-2.77649,0
73.1056,-53.9007,-2.79291,0
73.1874,-53.8637,-2.80931,0
73.2682,-53.8248,-2.82568,0
73.3479,-53.7838,-2.84201,0
73.4263,-53.741,-2.85828,0
73.5037,-53.6962,-2.87449,0
73.5797,-53.6495,-2.89063,0
73.6545,-53.6011,-2.90669,0
73.728,-53.5508,-2.92265,0
73.8,-53.4988,-2.93852,0
73.8707,-53.4451,-2.95426,0
73.9398,-53.3897,-2.96988,0
74.0063,-53.3311,-2.98597,0
74.0687,-53.2682,-3.003,0
74.1294,-53.2038,-3.01988,0
74.1882,-53.1381,-3.0366,0
74.2451,-53.071,-3.05314,0
74.3001,-53.0026,-3.06948,0
74.3531,-52.9331,-3.08563,0
74.4042,-52.8624,-3.10158,0
74.4534,-52.7906,-3.11731,0
74.5005,-52.7178,-3.1328,0
74.5458,-52.6441,-3.14807,0
74.5889,-52.5695,-3.1631,0
74.6302,-52.494,-3.17787,0
74.6693,-52.4178,-3.19239,0
74.7064,-52.3409,-3.20664,0
74.7416,-52.2634,-3.22063,0
74.7748,-52.1852,-3.23434,0
74.8058,-52.1066,-3.24776,0
74.8348,-52.0274,-3.26091,0
74.8617,-51.9478,-3.27381,0
74.8866,-51.8678,-3.2864,0
74.9095,-51.7875,-3.29869,0
74.9305,-51.7071,-3.31067,0
74.9495,-51.6264,-3.32233,0
74.9665,-51.5456,-3.33367,0
74.9816,-51.4648,-3.34469,0
74.9948,-51.3839,-3.35539,0
75.0062,-51.303,-3.36575,0
75.0155,-51.2222,-3.3758,0
75.0232,-51.1416,-3.38551,0
75.0289,-51.061,-3.39489,0
75.0327,-50.9807,-3.40394,0
75.0348,-50.9006,-3.41266,0
75.043,-50.8221,-3.41938,0
75.0516,-50.7439,-3.4253,0
75.0585,-50.6656,-3.43093,0
75.0627,-50.5872,-3.43647,0
75.0648,-50.5087,-3.44178,0
75.0652,-50.4304,-3.44679,0
75.0638,-50.3521,-3.45152,0
75.0605,-50.274,-3.45593,0
75.0558,-50.1962,-3.46005,0
75.0491,-50.1185,-3.46387,0
75.0408,-50.0411,-3.4674,0
75.0307,-49.9641,-3.47062,0
75.019,-49.8874,-3.47354,0
75.0056,-49.811,-3.47616,0
74.9905,-49.7351,-3.47848,0
74.9738,-49.6597,-3.48051,0
74.9554,-49.5847,-3.48223,0
74.9355,-49.5103,-3.48365,0
74.9139,-49.4365,-3.48478,0
74.8907,-49.3632,-3.48561,0
74.8661,-49.2906,-3.48612,0
74.8398,-49.2186,-3.48636,0
74.8121,-49.1473,-3.48629,0
74.783,-49.0766,-3.48588,0
74.7524,-49.0067,-3.48519,0
74.7205,-48.9376,-3.48419,0
74.687,-48.8693,-3.4829,0
74.6522,-48.8018,-3.48133,0
74.6159,-48.7351,-3.47947,0
74.5782,-48.6694,-3.47732,0
71.6798,-54.1473,-2.55302,0
71.7702,-54.1529,-2.5655,0
71.8609,-54.1562,-2.57817,0
71.9518,-54.1571,-2.59102,0
72.0426,-54.1557,-2.60404,0
72.1334,-54.152,-2.61725,0
72.2242,-54.146,-2.63061,0
72.3148,-54.1376,-2.64411,0
72.4045,-54.1232,-2.65922,0
72.493,-54.1037,-2.67546,0
72.5809,-54.0821,-2.69176,0
72.668,-54.0582,-2.7081,0
72.7545,-54.0322,-2.72449,0
72.8402,-54.004,-2.74091,0
72.925,-53.9736,-2.75734,0
73.009,-53.9411,-2.77376,0
73.0919,-53.9066,-2.79018,0
73.1739,-53.87,-2.80659,0
73.2548,-53.8314,-2.82296,0
73.3348,-53.7908,-2.8393,0
73.4134,-53.7482,-2.85558,0
73.4909,-53.7038,-2.8718,0
73.5672,-53.6574,-2.88797,0
73.6421,-53.6092,-2.90403,0
73.7158,-53.5593,-2.92001,0
73.7881,-53.5075,-2.93589,0
73.859,-53.4541,-2.95165,0
73.9284,-53.399,-2.9673,0
73.9958,-53.3414,-2.98313,0
74.0585,-53.2788,-3.00019,0
74.1195,-53.2146,-3.01709,0
74.1785,-53.1491,-3.03383,0
74.2358,-53.0822,-3.0504,0
74.2911,-53.0141,-3.06678,0
74.3445,-52.9447,-3.08297,0
74.3959,-52.8742,-3.09895,0
74.4453,-52.8026,-3.11471,0
74.4928,-52.73,-3.13025,0
74.5384,-52.6564,-3.14556,0
74.5819,-52.5819,-3.16062,0
74.6234,-52.5066,-3.17544,0
74.663,-52.4305,-3.19,0
74.7004,-52.3537,-3.2043,0
74.7359,-52.2763,-3.21833,0
74.7693,-52.1982,-3.23208,0
74.8009,-52.1197,-3.24555,0
74.8302,-52.0406,-3.25875,0
74.8574,-51.961,-3.27169,0
74.8827,-51.8811,-3.28434,0
74.9059,-51.8009,-3.29668,0
74.9271,-51.7204,-3.3087,0
74.9464,-51.6398,-3.32042,0
74.9637,-51.559,-3.33181,0
74.9792,-51.4782,-3.34288,0
74.9928,-51.3973,-3.35363,0
75.0044,-51.3165,-3.36405,0
75.0141,-51.2356,-3.37415,0
75.022,-51.1549,-3.38392,0
75.028,-51.0744,-3.39336,0
75.0323,-50.994,-3.40246,0
75.0346,-50.9139,-3.41124,0
75.0413,-50.8351,-3.41836,0
75.0503,-50.7569,-3.42434,0
75.0575,-50.6786,-3.43002,0
75.0622,-50.6002,-3.43556,0
75.0646,-50.5218,-3.44092,0
75.0652,-50.4434,-3.44598,0
75.0641,-50.3651,-3.45074,0
75.0612,-50.287,-3.45522,0
75.0566,-50.2091,-3.45938,0
75.0503,-50.1314,-3.46326,0
75.0423,-50.054,-3.46683,0
75.0325,-49.9768,-3.4701,0
75.0211,-49.9001,-3.47308,0
75.008,-49.8237,-3.47575,0
74.9931,-49.7477,-3.47812,0
74.9766,-49.6722,-3.4802,0
74.9586,-49.5972,-3.48196,0
74.9389,-49.5226,-3.48343,0
74.9177,-49.4487,-3.48461,0
74.8947,-49.3753,-3.48549,0
74.8703,-49.3026,-3.48607,0
74.8443,-49.2305,-3.48635,0
74.8167,-49.1591,-3.48633,0
74.788,-49.0883,-3.48597,0
74.7577,-49.0183,-3.48532,0
74.7259,-48.949,-3.48438,0
74.6927,-48.8806,-3.48314,0
74.658,-48.8129,-3.48161,0
74.622,-48.7461,-3.4798,0
74.5846,-48.6802,-3.4777,0
71.7101,-54.0561,-2.56398,0
71.7986,-54.0607,-2.57623,0
71.8871,-54.063,-2.58867,0
71.9758,-54.0631,-2.60129,0
72.0645,-54.0609,-2.61407,0
72.1532,-54.0565,-2.62701,0
72.2418,-54.0497,-2.6401,0
72.3302,-54.0407,-2.65335,0
72.4174,-54.0249,-2.66853,0
72.5036,-54.0053,-2.68441,0
72.5892,-53.9835,-2.70034,0
72.6742,-53.9596,-2.71632,0
72.7584,-53.9335,-2.73233,0
72.8418,-53.9054,-2.74836,0
72.9245,-53.8751,-2.7644,0
73.0062,-53.8429,-2.78044,0
73.087,-53.8085,-2.79648,0
73.1668,-53.7723,-2.81249,0
73.2455,-53.734,-2.82848,0
73.3232,-53.6938,-2.84443,0
73.3998,-53.6517,-2.86031,0
73.4752,-53.6078,-2.87614,0
73.5493,-53.562,-2.8919,0
73.6223,-53.5145,-2.90757,0
73.6938,-53.4652,-2.92316,0
73.7641,-53.4143,-2.93864,0
73.833,-53.3616,-2.95401,0
73.8977,-53.3039,-2.97062,0
73.9603,-53.244,-2.98736,0
74.0212,-53.1826,-3.00395,0
74.0802,-53.1198,-3.0204,0
74.1374,-53.0557,-3.03669,0
74.1928,-52.9903,-3.0528,0
74.2464,-52.9236,-3.06873,0
74.2981,-52.8557,-3.08448,0
74.3479,-52.7868,-3.10003,0
74.3957,-52.7168,-3.11535,0
74.4417,-52.6458,-3.13046,0
74.4858,-52.5739,-3.14535,0
74.5278,-52.5011,-3.16,0
74.568,-52.4275,-3.17441,0
74.6062,-52.3532,-3.18856,0
74.6424,-52.2781,-3.20246,0
74.6766,-52.2025,-3.21611,0
74.709,-52.1263,-3.22947,0
74.7393,-52.0495,-3.24256,0
74.7677,-51.9723,-3.25538,0
74.7942,-51.8947,-3.26791,0
74.8187,-51.8168,-3.28015,0
74.8411,-51.7384,-3.29214,0
74.8616,-51.6599,-3.30382,0
74.8801,-51.5812,-3.3152,0
74.8967,-51.5023,-3.32628,0
74.9115,-51.4233,-3.33703,0
74.9245,-51.3443,-3.34749,0
74.9354,-51.2654,-3.35761,0
74.9447,-51.1865,-3.36742,0
74.9521,-51.1077,-3.37691,0
74.9577,-51.029,-3.38607,0
74.9615,-50.9505,-3.39492,0
74.9648,-50.8725,-3.40316,0
74.9748,-50.7961,-3.40921,0
74.983,-50.7195,-3.41499,0
74.9884,-50.6427,-3.42073,0
74.992,-50.5659,-3.42618,0
74.9938,-50.4892,-3.43134,0
74.994,-50.4125,-3.43623,0
74.9924,-50.3359,-3.44081,0
74.9891,-50.2595,-3.4451,0
74.9842,-50.1833,-3.44911,0
74.9776,-50.1073,-3.45281,0
74.9693,-50.0316,-3.45623,0
74.9592,-49.9562,-3.45936,0
74.9476,-49.8812,-3.46218,0
74.9343,-49.8065,-3.46472,0
74.9194,-49.7323,-3.46696,0
74.9028,-49.6585,-3.46891,0
74.8847,-49.5852,-3.47057,0
74.865,-49.5124,-3.47194,0
74.8437,-49.4401,-3.473,0
74.8209,-49.3684,-3.47378,0
74.7967,-49.2973,-3.47422,0
74.7711,-49.2269,-3.47437,0
74.7438,-49.1571,-3.47424,0
74.7152,-49.088,-3.47381,0
74.6852,-49.0196,-3.47309,0
74.6537,-48.952,-3.47209,0
74.6207,-48.8852,-3.47079,0
74.5864,-48.8191,-3.46921,0
74.5507,-48.754,-3.46736,0
74.5152,-48.6888,-3.46484,0
71.6954,-54.0551,-2.56196,0
71.7838,-54.0601,-2.57419,0
71.8724,-54.0628,-2.58659,0
71.9611,-54.0633,-2.59918,0
72.0498,-54.0615,-2.61193,0
72.1385,-54.0574,-2.62486,0
72.2271,-54.051,-2.63793,0
72.3156,-54.0424,-2.65114,0
72.403,-54.0279,-2.66589,0
72.4894,-54.0087,-2.68176,0
72.5751,-53.9873,-2.69769,0
72.6601,-53.9637,-2.71365,0
72.7445,-53.938,-2.72966,0
72.828,-53.9102,-2.7457,0
72.9108,-53.8803,-2.76174,0
72.9927,-53.8484,-2.77778,0
73.0736,-53.8144,-2.79382,0
73.1536,-53.7784,-2.80984,0
73.2325,-53.7405,-2.82583,0
73.3104,-53.7006,-2.84178,0
73.3872,-53.6588,-2.85768,0
73.4627,-53.6152,-2.87352,0
73.5371,-53.5698,-2.88928,0
73.6102,-53.5225,-2.90498,0
73.682,-53.4735,-2.92057,0
73.7525,-53.4228,-2.93608,0
73.8216,-53.3705,-2.95147,0
73.8872,-53.3137,-2.96782,0
73.9501,-53.2541,-2.98459,0
74.0112,-53.1929,-3.00121,0
74.0705,-53.1304,-3.01768,0
74.128,-53.0664,-3.03399,0
74.1838,-53.0012,-3.05014,0
74.2377,-52.9347,-3.06611,0
74.2897,-52.8671,-3.08189,0
74.3397,-52.7983,-3.09746,0
74.388,-52.7285,-3.11282,0
74.4343,-52.6577,-3.12797,0
74.4786,-52.5859,-3.14289,0
74.521,-52.5132,-3.15758,0
74.5615,-52.4398,-3.17204,0
74.6,-52.3656,-3.18623,0
74.6366,-52.2906,-3.20017,0
74.6712,-52.2151,-3.21386,0
74.7038,-52.139,-3.22727,0
74.7345,-52.0623,-3.24041,0
74.7631,-51.9852,-3.25327,0
74.7899,-51.9076,-3.26585,0
74.8147,-51.8297,-3.27813,0
74.8375,-51.7515,-3.29016,0
74.8583,-51.6729,-3.3019,0
74.8771,-51.5942,-3.31334,0
74.8941,-51.5154,-3.32446,0
74.9092,-51.4364,-3.33528,0
74.9223,-51.3575,-3.34577,0
74.9337,-51.2785,-3.35595,0
74.9433,-51.1996,-3.36582,0
74.9509,-51.1207,-3.37535,0
74.9568,-51.042,-3.38457,0
74.961,-50.9635,-3.39347,0
74.9633,-50.8852,-3.40205,0
74.9732,-50.8088,-3.40822,0
74.9818,-50.7322,-3.41403,0
74.9875,-50.6554,-3.4198,0
74.9914,-50.5787,-3.42529,0
74.9936,-50.5019,-3.4305,0
74.9941,-50.4252,-3.43543,0
74.9928,-50.3486,-3.44007,0
74.9898,-50.2722,-3.44442,0
74.9852,-50.1959,-3.44846,0
74.9788,-50.1199,-3.45222,0
74.9707,-50.0442,-3.45569,0
74.9611,-49.9687,-3.45886,0
74.9497,-49.8936,-3.46174,0
74.9366,-49.8189,-3.46432,0
74.922,-49.7446,-3.46662,0
74.9057,-49.6707,-3.46861,0
74.8878,-49.5973,-3.47031,0
74.8684,-49.5244,-3.47173,0
74.8473,-49.4521,-3.47284,0
74.8248,-49.3803,-3.47368,0
74.8009,-49.3091,-3.47416,0
74.7755,-49.2385,-3.47437,0
74.7484,-49.1686,-3.47428,0
74.7201,-49.0994,-3.47389,0
74.6902,-49.0309,-3.47322,0
74.6589,-48.9632,-3.47227,0
74.6263,-48.8962,-3.47103,0
74.5922,-48.83,-3.4695,0
74.5567,-48.7647,-3.46768,0
74.5207,-48.6999,-3.46541,0
71.6808,-54.0541,-2.55995,0
71.7691,-54.0594,-2.57214,0
71.8577,-54.0625,-2.58452,0
71.9464,-54.0634,-2.59708,0
72.0351,-54.0619,-2.60981,0
72.1238,-54.0582,-2.6227,0
72.2124,-54.0522,-2.63574,0
72.3009,-54.044,-2.64893,0
72.3886,-54.0309,-2.66327,0
72.475,-54.012,-2.67912,0
72.5609,-53.991,-2.69504,0
72.646,-53.9678,-2.711,0
72.7305,-53.9424,-2.727,0
72.8142,-53.915,-2.74303,0
72.8971,-53.8854,-2.75907,0
72.9791,-53.8538,-2.77512,0
73.0602,-53.8202,-2.79115,0
73.1404,-53.7845,-2.80718,0
73.2195,-53.7469,-2.82318,0
73.2976,-53.7074,-2.83914,0
73.3745,-53.6659,-2.85505,0
73.4502,-53.6226,-2.87089,0
73.5248,-53.5774,-2.88668,0
73.5982,-53.5305,-2.90238,0
73.6702,-53.4818,-2.91799,0
73.7409,-53.4314,-2.93351,0
73.8103,-53.3793,-2.94892,0
73.8766,-53.3235,-2.96503,0
73.9398,-53.2641,-2.98181,0
74.0011,-53.2032,-2.99845,0
74.0608,-53.1409,-3.01496,0
74.1187,-53.0771,-3.0313,0
74.1747,-53.0121,-3.04747,0
74.2288,-52.9459,-3.06346,0
74.2811,-52.8784,-3.07927,0
74.3316,-52.8098,-3.09488,0
74.3801,-52.7401,-3.11029,0
74.4266,-52.6695,-3.12547,0
74.4713,-52.5979,-3.14043,0
74.5141,-52.5254,-3.15516,0
74.5549,-52.452,-3.16965,0
74.5938,-52.3779,-3.18389,0
74.6306,-52.3031,-3.19788,0
74.6655,-52.2277,-3.2116,0
74.6985,-52.1516,-3.22507,0
74.7295,-52.0751,-3.23825,0
74.7585,-51.998,-3.25115,0
74.7856,-51.9205,-3.26378,0
74.8107,-51.8427,-3.27611,0
74.8338,-51.7645,-3.28819,0
74.855,-51.686,-3.29997,0
74.8741,-51.6073,-3.31146,0
74.8914,-51.5285,-3.32263,0
74.9068,-51.4496,-3.3335,0
74.9203,-51.3706,-3.34405,0
74.932,-51.2916,-3.35429,0
74.9418,-51.2127,-3.3642,0
74.9498,-51.1338,-3.37379,0
74.956,-51.0551,-3.38307,0
74.9604,-50.9766,-3.39202,0
74.963,-50.8982,-3.40064,0
74.9716,-50.8215,-3.40723,0
74.9805,-50.7449,-3.41309,0
74.9868,-50.6682,-3.41885,0
74.9909,-50.5914,-3.4244,0
74.9934,-50.5146,-3.42966,0
74.9941,-50.4379,-3.43464,0
74.9932,-50.3613,-3.43932,0
74.9905,-50.2849,-3.44371,0
74.9861,-50.2086,-3.44781,0
74.98,-50.1325,-3.45162,0
74.9722,-50.0567,-3.45513,0
74.9627,-49.9813,-3.45836,0
74.9516,-49.9061,-3.46129,0
74.9389,-49.8313,-3.46392,0
74.9245,-49.7569,-3.46626,0
74.9085,-49.6829,-3.4683,0
74.8909,-49.6094,-3.47005,0
74.8717,-49.5365,-3.47151,0
74.8509,-49.464,-3.47268,0
74.8286,-49.3922,-3.47356,0
74.8049,-49.3209,-3.4741,0
74.7798,-49.2502,-3.47436,0
74.753,-49.1802,-3.47432,0
74.7249,-49.1108,-3.47398,0
74.6953,-49.0422,-3.47335,0
74.6642,-48.9744,-3.47245,0
74.6318,-48.9073,-3.47125,0
74.598,-48.841,-3.46977,0
74.5627,-48.7755,-3.468,0
74.5261,-48.7109,-3.46596,0
71.7104,-53.9661,-2.57076,0
71.7968,-53.971,-2.58251,0
71.8834,-53.9732,-2.59467,0
71.97,-53.9732,-2.60699,0
72.0566,-53.971,-2.61949,0
72.1433,-53.9665,-2.63214,0
72.2298,-53.9599,-2.64494,0
72.3162,-53.951,-2.65787,0
72.4015,-53.9366,-2.67229,0
72.4858,-53.9175,-2.68779,0
72.5694,-53.8963,-2.70336,0
72.6524,-53.873,-2.71897,0
72.7348,-53.8476,-2.73461,0
72.8163,-53.8202,-2.75028,0
72.8971,-53.7908,-2.76595,0
72.977,-53.7593,-2.78163,0
73.0559,-53.7259,-2.7973,0
73.134,-53.6905,-2.81295,0
73.211,-53.6533,-2.82856,0
73.2869,-53.6141,-2.84414,0
73.3618,-53.5731,-2.85967,0
73.4355,-53.5303,-2.87514,0
73.5081,-53.4857,-2.89055,0
73.5795,-53.4393,-2.90588,0
73.6495,-53.3913,-2.92111,0
73.7177,-53.3407,-2.93659,0
73.7822,-53.2855,-2.95317,0
73.8451,-53.2288,-2.96962,0
73.9062,-53.1705,-2.98596,0
73.9658,-53.1108,-3.00217,0
74.0236,-53.0498,-3.01823,0
74.0797,-52.9874,-3.03413,0
74.134,-52.9237,-3.04987,0
74.1864,-52.8588,-3.06544,0
74.2371,-52.7928,-3.08083,0
74.2859,-52.7257,-3.09601,0
74.3329,-52.6575,-3.111,0
74.378,-52.5884,-3.12577,0
74.4213,-52.5184,-3.14033,0
74.4626,-52.4475,-3.15465,0
74.502,-52.3758,-3.16875,0
74.5396,-52.3034,-3.1826,0
74.5752,-52.2302,-3.19621,0
74.6091,-52.1565,-3.20956,0
74.6409,-52.0822,-3.22265,0
74.6708,-52.0073,-3.23547,0
74.6987,-51.932,-3.24803,0
74.7248,-51.8563,-3.2603,0
74.7491,-51.7803,-3.27229,0
74.7713,-51.7039,-3.28401,0
74.7919,-51.6273,-3.29543,0
74.8104,-51.5505,-3.30655,0
74.8271,-51.4735,-3.31739,0
74.8418,-51.3964,-3.32795,0
74.8547,-51.3192,-3.3382,0
74.8658,-51.2421,-3.34815,0
74.8751,-51.1649,-3.35778,0
74.8826,-51.0879,-3.36711,0
74.8884,-51.011,-3.37611,0
74.8923,-50.9343,-3.38481,0
74.8977,-50.8583,-3.39249,0
74.9072,-50.7834,-3.39849,0
74.9143,-50.7083,-3.4044,0
74.9197,-50.6331,-3.41004,0
74.9233,-50.558,-3.4154,0
74.9252,-50.4828,-3.42047,0
74.9255,-50.4078,-3.42526,0
74.9241,-50.3328,-3.42977,0
74.921,-50.258,-3.434,0
74.9163,-50.1834,-3.43793,0
74.9098,-50.109,-3.44158,0
74.9018,-50.0348,-3.44494,0
74.892,-49.961,-3.44802,0
74.8808,-49.8875,-3.45081,0
74.8679,-49.8144,-3.45331,0
74.8533,-49.7416,-3.45552,0
74.8373,-49.6693,-3.45744,0
74.8196,-49.5975,-3.45907,0
74.8005,-49.5261,-3.46039,0
74.7799,-49.4553,-3.46141,0
74.7578,-49.3851,-3.46216,0
74.7342,-49.3154,-3.4626,0
74.7091,-49.2463,-3.46277,0
74.6827,-49.1779,-3.46265,0
74.6546,-49.1102,-3.46225,0
74.6252,-49.0432,-3.46155,0
74.5944,-48.9769,-3.46058,0
74.5622,-48.9114,-3.45933,0
74.5287,-48.8466,-3.4578,0
74.4938,-48.7827,-3.45599,0
74.4603,-48.7182,-3.45321,0
71.6961,-53.9649,-2.5689,0
71.7825,-53.9704,-2.58051,0
71.869,-53.973,-2.59264,0
71.9556,-53.9733,-2.60494,0
72.0423,-53.9715,-2.6174,0
72.1289,-53.9674,-2.63003,0
72.2154,-53.9611,-2.6428,0
72.3018,-53.9526,-2.65571,0
72.3875,-53.9395,-2.66972,0
72.4719,-53.9208,-2.68522,0
72.5556,-53.9,-2.70078,0
72.6387,-53.877,-2.71638,0
72.7212,-53.852,-2.73201,0
72.8028,-53.8249,-2.74767,0
72.8838,-53.7958,-2.76335,0
72.9637,-53.7647,-2.77902,0
73.0429,-53.7316,-2.79469,0
73.1211,-53.6965,-2.81035,0
73.1983,-53.6596,-2.82597,0
73.2745,-53.6207,-2.84156,0
73.3494,-53.58,-2.8571,0
73.4234,-53.5375,-2.87258,0
73.4962,-53.4932,-2.888,0
73.5677,-53.4471,-2.90333,0
73.6379,-53.3994,-2.91859,0
73.7068,-53.3497,-2.93383,0
73.7716,-53.2948,-2.95042,0
73.8347,-53.2383,-2.9669,0
73.8962,-53.1803,-2.98325,0
73.956,-53.1208,-2.99949,0
74.0141,-53.06,-3.01557,0
74.0705,-52.9978,-3.03151,0
74.1251,-52.9344,-3.04727,0
74.1778,-52.8697,-3.06287,0
74.2288,-52.8039,-3.07828,0
74.278,-52.7369,-3.09351,0
74.3252,-52.6689,-3.10853,0
74.3706,-52.6,-3.12334,0
74.4142,-52.5301,-3.13793,0
74.4559,-52.4593,-3.1523,0
74.4956,-52.3877,-3.16643,0
74.5335,-52.3154,-3.18032,0
74.5695,-52.2424,-3.19397,0
74.6035,-52.1688,-3.20736,0
74.6356,-52.0945,-3.22049,0
74.6659,-52.0198,-3.23336,0
74.6942,-51.9446,-3.24596,0
74.7207,-51.8689,-3.25828,0
74.7452,-51.7929,-3.27032,0
74.7678,-51.7166,-3.28208,0
74.7885,-51.64,-3.29355,0
74.8075,-51.5633,-3.30472,0
74.8245,-51.4863,-3.3156,0
74.8395,-51.4092,-3.32621,0
74.8527,-51.332,-3.33653,0
74.8641,-51.2549,-3.34652,0
74.8737,-51.1777,-3.35621,0
74.8814,-51.1007,-3.36558,0
74.8876,-51.0238,-3.37465,0
74.8919,-50.947,-3.38339,0
74.8959,-50.8707,-3.39148,0
74.9059,-50.7959,-3.39749,0
74.9133,-50.7208,-3.40345,0
74.9189,-50.6456,-3.40913,0
74.9228,-50.5704,-3.41453,0
74.9251,-50.4953,-3.41965,0
74.9256,-50.4202,-3.42449,0
74.9245,-50.3452,-3.42904,0
74.9217,-50.2704,-3.43331,0
74.9172,-50.1958,-3.4373,0
74.9111,-50.1213,-3.441,0
74.9032,-50.0471,-3.4444,0
74.8938,-49.9732,-3.44753,0
74.8828,-49.8997,-3.45036,0
74.8702,-49.8265,-3.45291,0
74.8559,-49.7537,-3.45517,0
74.8401,-49.6813,-3.45714,0
74.8227,-49.6094,-3.45883,0
74.8037,-49.538,-3.46019,0
74.7834,-49.467,-3.46126,0
74.7616,-49.3967,-3.46205,0
74.7383,-49.3269,-3.46256,0
74.7134,-49.2577,-3.46276,0
74.6871,-49.1892,-3.46269,0
74.6594,-49.1214,-3.46233,0
74.6302,-49.0542,-3.46169,0
74.5996,-48.9878,-3.46077,0
74.5677,-48.9222,-3.45956,0
74.5343,-48.8573,-3.45807,0
74.4996,-48.7933,-3.45632,0
74.4656,-48.7291,-3.45378,0
71.6818,-53.9636,-2.56705,0
71.7681,-53.9698,-2.57851,0
71.8547,-53.9727,-2.59061,0
71.9412,-53.9734,-2.60288,0
72.0279,-53.9719,-2.61532,0
72.1145,-53.9682,-2.62792,0
72.2011,-53.9623,-2.64067,0
72.2875,-53.9542,-2.65356,0
72.3734,-53.9424,-2.66716,0
72.4578,-53.9241,-2.68264,0
72.5417,-53.9036,-2.69819,0
72.625,-53.881,-2.71378,0
72.7075,-53.8563,-2.72942,0
72.7894,-53.8296,-2.74507,0
72.8704,-53.8008,-2.76074,0
72.9505,-53.77,-2.77642,0
73.0298,-53.7372,-2.7921,0
73.1082,-53.7025,-2.80775,0
73.1855,-53.6658,-2.82338,0
73.2619,-53.6273,-2.83898,0
73.3371,-53.5869,-2.85452,0
73.4112,-53.5447,-2.87001,0
73.4842,-53.5007,-2.88544,0
73.5559,-53.4549,-2.90079,0
73.6264,-53.4074,-2.91606,0
73.6955,-53.3582,-2.93123,0
73.7609,-53.304,-2.94767,0
73.8243,-53.2478,-2.96417,0
73.8861,-53.19,-2.98055,0
73.9463,-53.1308,-2.99681,0
74.0046,-53.0702,-3.01291,0
74.0612,-53.0082,-3.02887,0
74.1161,-52.945,-3.04467,0
74.1691,-52.8805,-3.06029,0
74.2205,-52.8149,-3.07573,0
74.2699,-52.7481,-3.09099,0
74.3175,-52.6803,-3.10604,0
74.3632,-52.6115,-3.1209,0
74.4071,-52.5417,-3.13552,0
74.4491,-52.4711,-3.14993,0
74.4891,-52.3997,-3.1641,0
74.5273,-52.3275,-3.17804,0
74.5637,-52.2546,-3.19172,0
74.598,-52.181,-3.20515,0
74.6305,-52.1069,-3.21833,0
74.661,-52.0322,-3.23125,0
74.6897,-51.9571,-3.24388,0
74.7164,-51.8815,-3.25626,0
74.7412,-51.8056,-3.26834,0
74.7642,-51.7293,-3.28015,0
74.7852,-51.6528,-3.29166,0
74.8045,-51.576,-3.30289,0
74.8217,-51.4991,-3.31381,0
74.8371,-51.422,-3.32448,0
74.8506,-51.3448,-3.33484,0
74.8623,-51.2677,-3.34488,0
74.8722,-51.1906,-3.35462,0
74.8803,-51.1135,-3.36404,0
74.8866,-51.0365,-3.37316,0
74.8913,-50.9597,-3.38196,0
74.8941,-50.8831,-3.39044,0
74.9044,-50.8083,-3.3965,0
74.9121,-50.7332,-3.40247,0
74.918,-50.6581,-3.4082,0
74.9223,-50.5829,-3.41365,0
74.9248,-50.5078,-3.41882,0
74.9256,-50.4327,-3.42371,0
74.9248,-50.3577,-3.4283,0
74.9223,-50.2828,-3.43262,0
74.918,-50.2081,-3.43665,0
74.9122,-50.1337,-3.4404,0
74.9047,-50.0594,-3.44386,0
74.8955,-49.9855,-3.44703,0
74.8848,-49.9119,-3.44991,0
74.8723,-49.8386,-3.45251,0
74.8584,-49.7657,-3.45482,0
74.8427,-49.6933,-3.45684,0
74.8255,-49.6213,-3.45857,0
74.807,-49.5498,-3.45999,0
74.7869,-49.4788,-3.46111,0
74.7653,-49.4083,-3.46194,0
74.7423,-49.3384,-3.46248,0
74.7176,-49.2692,-3.46275,0
74.6916,-49.2005,-3.46272,0
74.6641,-49.1326,-3.46241,0
74.6352,-49.0653,-3.46182,0
74.6048,-48.9988,-3.46094,0
74.573,-48.933,-3.45978,0
74.54,-48.868,-3.45834,0
74.5055,-48.8039,-3.45662,0
74.4709,-48.7399,-3.45433,0
71.7106,-53.8787,-2.5777,0
71.7952,-53.8844,-2.58873,0
71.8798,-53.8869,-2.60043,0
71.9645,-53.8868,-2.61248,0
72.0491,-53.8846,-2.62469,0
72.1337,-53.8802,-2.63706,0
72.2183,-53.8736,-2.64956,0
72.3027,-53.8649,-2.66221,0
72.3862,-53.8517,-2.6759,0
72.4686,-53.8332,-2.69106,0
72.5504,-53.8125,-2.70627,0
72.6316,-53.7899,-2.72152,0
72.712,-53.7652,-2.73681,0
72.7918,-53.7384,-2.75212,0
72.8708,-53.7097,-2.76744,0
72.949,-53.6791,-2.78276,0
73.0262,-53.6465,-2.79808,0
73.1024,-53.612,-2.81338,0
73.1779,-53.5757,-2.82864,0
73.2521,-53.5375,-2.84388,0
73.3254,-53.4975,-2.85906,0
73.3976,-53.4557,-2.87419,0
73.4685,-53.4122,-2.88925,0
73.5384,-53.367,-2.90424,0
73.6052,-53.3177,-2.92015,0
73.6698,-53.2656,-2.93643,0
73.733,-53.2119,-2.9526,0
73.7945,-53.1568,-2.96867,0
73.8545,-53.1001,-2.98463,0
73.9127,-53.042,-3.00046,0
73.9694,-52.9826,-3.01615,0
74.0242,-52.9219,-3.03169,0
74.0775,-52.8599,-3.04707,0
74.1289,-52.7968,-3.06228,0
74.1786,-52.7324,-3.07732,0
74.2265,-52.6671,-3.09217,0
74.2726,-52.6007,-3.10682,0
74.3169,-52.5334,-3.12127,0
74.3593,-52.4651,-3.13551,0
74.3999,-52.396,-3.14953,0
74.4388,-52.3261,-3.16332,0
74.4756,-52.2555,-3.17688,0
74.5108,-52.1842,-3.1902,0
74.544,-52.1123,-3.20327,0
74.5753,-52.0398,-3.2161,0
74.6048,-51.9668,-3.22865,0
74.6325,-51.8933,-3.24095,0
74.6583,-51.8194,-3.25299,0
74.6822,-51.7452,-3.26475,0
74.7042,-51.6706,-3.27622,0
74.7245,-51.5958,-3.28742,0
74.743,-51.5208,-3.29834,0
74.7595,-51.4456,-3.30897,0
74.7743,-51.3703,-3.3193,0
74.7873,-51.2949,-3.32934,0
74.7985,-51.2196,-3.33909,0
74.8079,-51.1442,-3.34854,0
74.8156,-51.0689,-3.35768,0
74.8216,-50.9937,-3.36653,0
74.8258,-50.9186,-3.37507,0
74.8324,-50.8445,-3.38232,0
74.8411,-50.771,-3.3884,0
74.8481,-50.6975,-3.39421,0
74.8534,-50.6239,-3.39974,0
74.8572,-50.5503,-3.405,0
74.8591,-50.4767,-3.40999,0
74.8595,-50.4032,-3.41469,0
74.8582,-50.3298,-3.41913,0
74.8553,-50.2565,-3.42328,0
74.8508,-50.1834,-3.42715,0
74.8445,-50.1106,-3.43074,0
74.8367,-50.0379,-3.43405,0
74.8273,-49.9656,-3.43708,0
74.8164,-49.8936,-3.43981,0
74.8039,-49.8219,-3.44225,0
74.7899,-49.7506,-3.44442,0
74.7743,-49.6798,-3.44628,0
74.7573,-49.6093,-3.44787,0
74.7387,-49.5394,-3.44918,0
74.7185,-49.47,-3.4502,0
74.697,-49.4011,-3.45094,0
74.6739,-49.3328,-3.45139,0
74.6494,-49.2651,-3.45157,0
74.6234,-49.198,-3.45146,0
74.5961,-49.1316,-3.45108,0
74.5673,-49.0659,-3.45042,0
74.5372,-49.0009,-3.44947,0
74.5057,-48.9367,-3.44826,0
74.4729,-48.8732,-3.44678,0
74.4387,-48.8105,-3.44502,0
74.4073,-48.7467,-3.44197,0
71.6966,-53.8776,-2.57588,0
71.7812,-53.8836,-2.58689,0
71.8657,-53.8868,-2.59844,0
71.9503,-53.887,-2.61048,0
72.035,-53.8851,-2.62265,0
72.1197,-53.8811,-2.63499,0
72.2043,-53.8749,-2.64747,0
72.2886,-53.8665,-2.6601,0
72.3726,-53.8546,-2.6734,0
72.455,-53.8364,-2.68853,0
72.5369,-53.8161,-2.70374,0
72.6182,-53.7938,-2.71899,0
72.6987,-53.7694,-2.73427,0
72.7787,-53.743,-2.74957,0
72.8577,-53.7146,-2.76489,0
72.936,-53.6843,-2.78022,0
73.0134,-53.6521,-2.79553,0
73.0898,-53.6179,-2.81084,0
73.1654,-53.5819,-2.82611,0
73.2399,-53.544,-2.84135,0
73.3134,-53.5043,-2.85654,0
73.3856,-53.4628,-2.87169,0
73.4568,-53.4196,-2.88675,0
73.5268,-53.3747,-2.90175,0
73.5943,-53.3262,-2.91744,0
73.6592,-53.2743,-2.93373,0
73.7226,-53.2209,-2.94992,0
73.7845,-53.166,-2.96601,0
73.8446,-53.1096,-2.98199,0
73.9032,-53.0518,-2.99784,0
73.96,-52.9926,-3.01355,0
74.0153,-52.9321,-3.02911,0
74.0687,-52.8703,-3.04453,0
74.1205,-52.8073,-3.05977,0
74.1705,-52.7432,-3.07483,0
74.2186,-52.678,-3.08971,0
74.2651,-52.6118,-3.1044,0
74.3096,-52.5446,-3.11889,0
74.3523,-52.4765,-3.13316,0
74.3934,-52.4075,-3.14722,0
74.4324,-52.3378,-3.16105,0
74.4697,-52.2673,-3.17465,0
74.5051,-52.1961,-3.18801,0
74.5386,-52.1243,-3.20112,0
74.5703,-52.0519,-3.21398,0
74.6001,-51.9789,-3.22658,0
74.628,-51.9055,-3.23893,0
74.6541,-51.8317,-3.25101,0
74.6784,-51.7575,-3.26281,0
74.7007,-51.683,-3.27434,0
74.7213,-51.6083,-3.28558,0
74.74,-51.5333,-3.29655,0
74.7569,-51.4581,-3.30722,0
74.7719,-51.3828,-3.3176,0
74.7852,-51.3075,-3.3277,0
74.7968,-51.2321,-3.3375,0
74.8065,-51.1567,-3.34698,0
74.8145,-51.0814,-3.35618,0
74.8207,-51.0062,-3.36508,0
74.8252,-50.9311,-3.37367,0
74.8308,-50.8567,-3.3813,0
74.8398,-50.7833,-3.38741,0
74.847,-50.7097,-3.39326,0
74.8527,-50.6361,-3.39884,0
74.8566,-50.5625,-3.40415,0
74.859,-50.4889,-3.40918,0
74.8596,-50.4154,-3.41393,0
74.8585,-50.342,-3.41841,0
74.8559,-50.2687,-3.4226,0
74.8516,-50.1956,-3.42652,0
74.8457,-50.1227,-3.43016,0
74.8381,-50.05,-3.43352,0
74.8291,-49.9776,-3.43659,0
74.8184,-49.9055,-3.43938,0
74.8061,-49.8338,-3.44186,0
74.7923,-49.7624,-3.44407,0
74.777,-49.6915,-3.446,0
74.7602,-49.621,-3.44763,0
74.7418,-49.551,-3.44898,0
74.722,-49.4815,-3.45005,0
74.7006,-49.4125,-3.45084,0
74.6778,-49.3441,-3.45134,0
74.6535,-49.2763,-3.45156,0
74.6279,-49.2091,-3.45151,0
74.6007,-49.1426,-3.45116,0
74.5723,-49.0768,-3.45054,0
74.5423,-49.0116,-3.44966,0
74.511,-48.9473,-3.44848,0
74.4784,-48.8837,-3.44704,0
74.4445,-48.8209,-3.44532,0
74.4125,-48.7573,-3.44253,0
71.6826,-53.8764,-2.57407,0
71.767,-53.8828,-2.58505,0
71.8516,-53.8865,-2.59646,0
71.9363,-53.8871,-2.60846,0
72.0209,-53.8856,-2.62062,0
72.1056,-53.8819,-2.63293,0
72.1902,-53.876,-2.6454,0
72.2746,-53.868,-2.65799,0
72.3588,-53.8574,-2.67089,0
72.4413,-53.8396,-2.68603,0
72.5234,-53.8196,-2.70122,0
72.6047,-53.7976,-2.71646,0
72.6855,-53.7736,-2.73173,0
72.7655,-53.7475,-2.74703,0
72.8447,-53.7195,-2.76235,0
72.9231,-53.6895,-2.77768,0
73.0006,-53.6575,-2.79299,0
73.0773,-53.6237,-2.80829,0
73.1529,-53.588,-2.82358,0
73.2277,-53.5504,-2.83882,0
73.3012,-53.511,-2.85403,0
73.3737,-53.4698,-2.86917,0
73.4451,-53.4269,-2.88426,0
73.5152,-53.3822,-2.89927,0
73.5834,-53.3346,-2.91472,0
73.6486,-53.2831,-2.93103,0
73.7122,-53.2299,-2.94724,0
73.7742,-53.1752,-2.96335,0
73.8347,-53.1191,-2.97934,0
73.8935,-53.0615,-2.99522,0
73.9508,-53.0025,-3.01095,0
74.0062,-52.9422,-3.02654,0
74.06,-52.8806,-3.04198,0
74.112,-52.8178,-3.05725,0
74.1623,-52.7539,-3.07235,0
