37.202,-21.5005,0.461712,0
37.2927,-21.4321,0.462279,0
37.3819,-21.3617,0.462845,0
37.4693,-21.2894,0.463402,0
37.5551,-21.2152,0.464017,0
37.6397,-21.1396,0.464779,0
37.7224,-21.0621,0.46555,0
37.8028,-20.9821,0.466077,0
37.8806,-20.8997,0.466331,0
37.9564,-20.8156,0.466595,0
38.0304,-20.7299,0.466868,0
38.1024,-20.6426,0.467142,0
38.1723,-20.5537,0.467425,0
38.2403,-20.4634,0.467718,0
38.3061,-20.3716,0.468001,0
38.3699,-20.2783,0.468304,0
38.4315,-20.1838,0.468597,0
38.491,-20.0879,0.4689,0
38.5483,-19.9907,0.469212,0
38.6034,-19.8923,0.469515,0
38.6562,-19.7928,0.469837,0
38.7069,-19.6921,0.47015,0
38.7552,-19.5903,0.470472,0
38.8013,-19.4875,0.470804,0
38.8451,-19.3837,0.471126,0
38.8865,-19.279,0.471468,0
38.9255,-19.1734,0.47179,0
38.9623,-19.067,0.472132,0
38.9966,-18.9598,0.472464,0
39.0284,-18.8518,0.472806,0
39.0584,-18.7433,0.473284,0
39.0879,-18.6347,0.47432,0
39.115,-18.5253,0.475355,0
39.1396,-18.4153,0.4764,0
39.1619,-18.3046,0.477445,0
39.1816,-18.1935,0.478509,0
39.199,-18.0819,0.479564,0
39.2138,-17.9698,0.480628,0
39.2262,-17.8573,0.481693,0
39.2361,-17.7445,0.482767,0
39.2434,-17.6314,0.483831,0
39.2482,-17.5181,0.484905,0
39.2505,-17.4047,0.485989,0
39.2503,-17.291,0.487064,0
39.2463,-17.1775,0.487806,0
39.2397,-17.0639,0.488499,0
39.2304,-16.9505,0.489193,0
39.2186,-16.8373,0.489876,0
39.2041,-16.7242,0.49054,0
39.1872,-16.6115,0.491204,0
39.1677,-16.499,0.491849,0
39.1456,-16.387,0.492484,0
39.1212,-16.2753,0.493177,0
39.0952,-16.1639,0.494153,0
39.0667,-16.0529,0.495111,0
34.3213,-22.3299,0.446575,0
34.4336,-22.3266,0.446927,0
34.5456,-22.3206,0.447278,0
34.6574,-22.312,0.44763,0
34.7688,-22.3008,0.447982,0
34.88,-22.2871,0.448343,0
34.9905,-22.2707,0.448695,0
35.1007,-22.2518,0.449027,0
35.2103,-22.2304,0.449388,0
35.3193,-22.2067,0.449808,0
35.4279,-22.1815,0.450491,0
35.5357,-22.1538,0.451175,0
35.6429,-22.1236,0.451849,0
35.7492,-22.0909,0.452523,0
35.8548,-22.0558,0.453196,0
35.9594,-22.0183,0.453851,0
36.063,-21.9783,0.454515,0
36.1657,-21.936,0.455159,0
36.2673,-21.8914,0.455804,0
36.3677,-21.8444,0.456439,0
36.4671,-21.7951,0.457064,0
36.5652,-21.7436,0.457689,0
36.662,-21.6899,0.458304,0
36.7576,-21.6339,0.4589,0
36.8517,-21.5758,0.459505,0
36.9445,-21.5156,0.460091,0
37.0358,-21.4532,0.460657,0
37.1255,-21.3888,0.461224,0
37.2138,-21.3224,0.46179,0
37.3005,-21.254,0.462337,0
37.3859,-21.1841,0.46304,0
37.4698,-21.1124,0.463802,0
37.552,-21.0389,0.464544,0
37.6324,-20.9635,0.465296,0
37.7111,-20.8863,0.466029,0
37.7877,-20.807,0.466634,0
37.8615,-20.7252,0.466888,0
37.9335,-20.6418,0.467152,0
38.0035,-20.5569,0.467415,0
38.0716,-20.4705,0.467689,0
38.1377,-20.3826,0.467972,0
38.2018,-20.2933,0.468255,0
38.2638,-20.2026,0.468538,0
38.3237,-20.1105,0.468831,0
38.3816,-20.0172,0.469124,0
38.4374,-19.9227,0.469427,0
38.491,-19.827,0.46973,0
38.5424,-19.7301,0.470032,0
38.5917,-19.6321,0.470335,0
38.6387,-19.5331,0.470657,0
38.6836,-19.433,0.47097,0
38.7261,-19.332,0.471282,0
38.7663,-19.2301,0.471614,0
38.8044,-19.1274,0.471937,0
38.84,-19.0238,0.472259,0
38.8734,-18.9195,0.472591,0
38.9044,-18.8144,0.472923,0
38.9343,-18.7091,0.473616,0
38.9628,-18.6032,0.474613,0
38.9891,-18.4968,0.475628,0
39.013,-18.3897,0.476644,0
39.0345,-18.282,0.477659,0
39.0536,-18.1738,0.478695,0
39.0703,-18.0651,0.47972,0
39.0847,-17.9561,0.480755,0
39.0966,-17.8466,0.48179,0
39.106,-17.7369,0.482835,0
39.113,-17.6268,0.48388,0
39.1176,-17.5166,0.484925,0
39.1197,-17.4061,0.48596,0
39.118,-17.2957,0.486654,0
39.1139,-17.1852,0.487337,0
39.1073,-17.0748,0.488021,0
39.0982,-16.9645,0.488695,0
39.0866,-16.8543,0.489339,0
39.0724,-16.7444,0.489993,0
39.0558,-16.6347,0.490638,0
39.0366,-16.5254,0.491263,0
39.015,-16.4165,0.491888,0
38.9909,-16.308,0.492503,0
38.9653,-16.1997,0.493402,0
38.9374,-16.0918,0.494339,0
33.4802,-22.262,0.441419,0
33.5915,-22.2799,0.442181,0
33.7031,-22.2951,0.442933,0
33.815,-22.3077,0.443675,0
33.9272,-22.3176,0.444427,0
34.0395,-22.3249,0.445159,0
34.1518,-22.3295,0.445882,0
34.2642,-22.3306,0.44639,0
34.3765,-22.3286,0.446741,0
34.4887,-22.324,0.447093,0
34.6005,-22.3167,0.447445,0
34.7122,-22.3068,0.447806,0
34.8235,-22.2944,0.448157,0
34.9343,-22.2794,0.448509,0
35.0447,-22.2618,0.448861,0
35.1545,-22.2416,0.449212,0
35.2639,-22.219,0.449554,0
35.3727,-22.1947,0.45014,0
35.4809,-22.1682,0.450823,0
35.5884,-22.1393,0.451507,0
35.6952,-22.1078,0.452181,0
35.8012,-22.074,0.452845,0
35.9062,-22.0377,0.453519,0
36.0104,-21.9989,0.454173,0
36.1136,-21.9578,0.454827,0
36.2157,-21.9144,0.455472,0
36.3168,-21.8686,0.456116,0
36.4167,-21.8205,0.456741,0
36.5155,-21.7701,0.457376,0
36.613,-21.7175,0.457991,0
36.7091,-21.6627,0.458597,0
36.804,-21.6057,0.459202,0
36.8975,-21.5465,0.459788,0
36.9895,-21.4852,0.460374,0
37.0801,-21.4218,0.460941,0
37.1691,-21.3564,0.461497,0
37.2566,-21.289,0.462054,0
37.3426,-21.2198,0.46265,0
37.4273,-21.1491,0.463411,0
37.5103,-21.0765,0.464163,0
37.5916,-21.0021,0.464915,0
37.6713,-20.9258,0.465657,0
37.7491,-20.8478,0.4664,0
37.8242,-20.767,0.466751,0
37.8971,-20.6845,0.467015,0
37.9681,-20.6003,0.467279,0
38.0372,-20.5146,0.467552,0
38.1043,-20.4275,0.467825,0
38.1695,-20.3389,0.468109,0
38.2325,-20.2489,0.468382,0
38.2935,-20.1575,0.468675,0
38.3524,-20.0649,0.468978,0
38.4093,-19.971,0.469271,0
38.464,-19.8758,0.469564,0
38.5166,-19.7795,0.469876,0
38.567,-19.6821,0.470189,0
38.6151,-19.5836,0.470501,0
38.661,-19.4841,0.470814,0
38.7048,-19.3836,0.471136,0
38.7462,-19.2821,0.471448,0
38.7853,-19.1798,0.471771,0
38.8221,-19.0766,0.472093,0
38.8566,-18.9727,0.472425,0
38.889,-18.868,0.472757,0
38.9188,-18.7626,0.473109,0
38.9486,-18.6572,0.474105,0
38.976,-18.551,0.47512,0
39.0012,-18.4442,0.476116,0
39.0238,-18.3369,0.477152,0
39.0442,-18.2289,0.478167,0
39.0621,-18.1205,0.479193,0
39.0777,-18.0117,0.480228,0
39.0908,-17.9024,0.481273,0
39.1015,-17.7928,0.482308,0
39.1098,-17.6829,0.483343,0
39.1156,-17.5727,0.484398,0
39.1189,-17.4624,0.485433,0
39.1191,-17.3519,0.486302,0
39.1163,-17.2414,0.486986,0
39.111,-17.131,0.487669,0
39.1031,-17.0206,0.488343,0
39.0927,-16.9104,0.489017,0
39.0799,-16.8003,0.489661,0
39.0645,-16.6905,0.490306,0
39.0466,-16.581,0.49095,0
39.0263,-16.4719,0.491575,0
39.0034,-16.3632,0.492191,0
38.9786,-16.2548,0.492923,0
38.952,-16.1467,0.493861,0
38.9228,-16.0391,0.494798,0
33.5348,-22.2711,0.4418,0
33.6462,-22.2877,0.442552,0
33.758,-22.3016,0.443304,0
33.87,-22.3129,0.444046,0
33.9823,-22.3215,0.444788,0
34.0945,-22.3275,0.445521,0
34.207,-22.3307,0.446204,0
34.3193,-22.33,0.446566,0
34.4316,-22.3267,0.446927,0
34.5436,-22.3207,0.447278,0
34.6555,-22.3122,0.44762,0
34.7669,-22.301,0.447982,0
34.878,-22.2873,0.448333,0
34.9886,-22.271,0.448675,0
35.0987,-22.2522,0.449036,0
35.2084,-22.2308,0.449378,0
35.3173,-22.2072,0.449788,0
35.4259,-22.182,0.450482,0
35.5338,-22.1543,0.451155,0
35.6409,-22.1241,0.451849,0
35.7473,-22.0915,0.452513,0
35.8529,-22.0564,0.453177,0
35.9575,-22.0189,0.453851,0
36.0612,-21.979,0.454495,0
36.1639,-21.9368,0.45515,0
36.2655,-21.8922,0.455794,0
36.3659,-21.8453,0.456429,0
36.4653,-21.796,0.457054,0
36.5635,-21.7446,0.457679,0
36.6603,-21.6908,0.458284,0
36.7559,-21.6349,0.4589,0
36.8501,-21.5769,0.459486,0
36.9429,-21.5166,0.460081,0
37.0342,-21.4543,0.460657,0
37.124,-21.39,0.461224,0
37.2123,-21.3236,0.46178,0
37.2989,-21.2552,0.462327,0
37.3843,-21.1853,0.46303,0
37.4683,-21.1137,0.463782,0
37.5505,-21.0402,0.464534,0
37.6309,-20.9649,0.465277,0
37.7098,-20.8877,0.466029,0
37.7863,-20.8084,0.466614,0
37.8602,-20.7267,0.466878,0
37.9323,-20.6433,0.467142,0
38.0023,-20.5584,0.467415,0
38.0704,-20.472,0.467689,0
38.1365,-20.3841,0.467962,0
38.2006,-20.2949,0.468245,0
38.2627,-20.2042,0.468529,0
38.3227,-20.1122,0.468821,0
38.3806,-20.0189,0.469124,0
38.4364,-19.9244,0.469417,0
38.4901,-19.8287,0.46972,0
38.5415,-19.7318,0.470023,0
38.5909,-19.6339,0.470335,0
38.638,-19.5348,0.470648,0
38.6827,-19.4348,0.47096,0
38.7253,-19.3339,0.471282,0
38.7657,-19.232,0.471605,0
38.8037,-19.1292,0.471927,0
38.8394,-19.0257,0.472259,0
38.8728,-18.9214,0.472591,0
38.9039,-18.8163,0.472923,0
38.9338,-18.7109,0.473597,0
38.9623,-18.6051,0.474593,0
38.9886,-18.4987,0.475609,0
39.0126,-18.3916,0.476624,0
39.0341,-18.2839,0.47765,0
39.0533,-18.1758,0.478665,0
39.0701,-18.0671,0.4797,0
39.0845,-17.958,0.480736,0
39.0963,-17.8486,0.48178,0
39.1059,-17.7388,0.482816,0
39.113,-17.6288,0.483861,0
39.1176,-17.5185,0.484905,0
39.1197,-17.4081,0.48595,0
39.118,-17.2977,0.486644,0
39.114,-17.1872,0.487327,0
39.1074,-17.0768,0.488011,0
39.0984,-16.9664,0.488675,0
39.0868,-16.8563,0.489329,0
39.0727,-16.7464,0.489984,0
39.0561,-16.6367,0.490628,0
39.037,-16.5274,0.491263,0
39.0155,-16.4184,0.491878,0
38.9914,-16.3099,0.492493,0
38.9659,-16.2016,0.493392,0
38.938,-16.0938,0.49432,0
34.3236,-22.1976,0.446556,0
34.4327,-22.1945,0.446927,0
34.5417,-22.1888,0.447269,0
34.6504,-22.1805,0.447611,0
34.7588,-22.1698,0.447952,0
34.8669,-22.1565,0.448294,0
34.9745,-22.1407,0.448636,0
35.0816,-22.1224,0.448978,0
35.1881,-22.1017,0.44931,0
35.2941,-22.0785,0.449652,0
35.3998,-22.0541,0.450316,0
35.5046,-22.0271,0.45098,0
35.6089,-21.9978,0.451634,0
35.7123,-21.9661,0.452298,0
35.815,-21.932,0.452943,0
35.9168,-21.8956,0.453587,0
36.0177,-21.8568,0.454232,0
36.1175,-21.8157,0.454857,0
36.2164,-21.7723,0.455482,0
36.3141,-21.7267,0.456097,0
36.4108,-21.6788,0.456712,0
36.5062,-21.6288,0.457318,0
36.6005,-21.5765,0.457904,0
36.6934,-21.5222,0.458499,0
36.7851,-21.4657,0.459075,0
36.8753,-21.4071,0.459652,0
36.9641,-21.3465,0.460208,0
37.0516,-21.2839,0.460765,0
37.1375,-21.2195,0.461361,0
37.2223,-21.1536,0.462103,0
37.3055,-21.0857,0.462845,0
37.3871,-21.016,0.463577,0
37.4671,-20.9445,0.46431,0
37.5455,-20.8712,0.465042,0
37.6221,-20.7961,0.465755,0
37.697,-20.7193,0.466478,0
37.77,-20.6407,0.467152,0
37.84,-20.5596,0.467405,0
37.9083,-20.4769,0.467669,0
37.9746,-20.3928,0.467933,0
38.039,-20.3073,0.468206,0
38.1014,-20.2203,0.46848,0
38.1619,-20.1321,0.468763,0
38.2202,-20.0425,0.469046,0
38.2766,-19.9517,0.469329,0
38.331,-19.8597,0.469622,0
38.3832,-19.7665,0.469915,0
38.4334,-19.6722,0.470218,0
38.4813,-19.5768,0.470511,0
38.5271,-19.4804,0.470814,0
38.5708,-19.383,0.471126,0
38.6123,-19.2847,0.471439,0
38.6515,-19.1854,0.471751,0
38.6884,-19.0854,0.472073,0
38.7232,-18.9846,0.472386,0
38.7556,-18.883,0.472718,0
38.7859,-18.7807,0.47304,0
38.8155,-18.6783,0.473909,0
38.8434,-18.5752,0.474876,0
38.8689,-18.4715,0.475863,0
38.892,-18.3672,0.476849,0
38.9129,-18.2623,0.477845,0
38.9315,-18.157,0.478851,0
38.9477,-18.0512,0.479847,0
38.9616,-17.945,0.480862,0
38.9731,-17.8384,0.481868,0
38.9822,-17.7315,0.482894,0
38.9889,-17.6243,0.4839,0
38.993,-17.517,0.484857,0
38.9938,-17.4095,0.48554,0
38.9923,-17.302,0.486224,0
38.9881,-17.1945,0.486878,0
38.9816,-17.087,0.487542,0
38.9727,-16.9797,0.488196,0
38.9613,-16.8725,0.488831,0
38.9474,-16.7655,0.489466,0
38.9312,-16.6588,0.490091,0
38.9125,-16.5524,0.490706,0
38.8913,-16.4464,0.491312,0
38.8677,-16.3408,0.491898,0
38.8424,-16.2356,0.492679,0
38.8152,-16.1307,0.493577,0
33.5059,-22.1296,0.441175,0
33.6141,-22.1471,0.441907,0
33.7227,-22.162,0.44264,0
33.8314,-22.1742,0.443363,0
33.9405,-22.184,0.444085,0
34.0495,-22.1911,0.444798,0
34.1588,-22.1956,0.445501,0
34.268,-22.1976,0.446204,0
34.3773,-22.1964,0.446751,0
34.4862,-22.192,0.447093,0
34.5952,-22.185,0.447435,0
34.7037,-22.1756,0.447777,0
34.8119,-22.1636,0.448118,0
34.9197,-22.149,0.44846,0
35.027,-22.132,0.448812,0
35.134,-22.1126,0.449144,0
35.2403,-22.0906,0.449476,0
35.3461,-22.0668,0.449984,0
35.4513,-22.0411,0.450638,0
35.5559,-22.013,0.451302,0
35.6598,-21.9825,0.451956,0
35.7629,-21.9497,0.452611,0
35.8651,-21.9144,0.453255,0
35.9664,-21.8768,0.4539,0
36.0668,-21.8369,0.454534,0
36.1662,-21.7947,0.455169,0
36.2645,-21.7502,0.455784,0
36.3617,-21.7035,0.4564,0
36.4578,-21.6545,0.457005,0
36.5527,-21.6034,0.457611,0
36.6462,-21.5501,0.458196,0
36.7386,-21.4947,0.458782,0
36.8295,-21.4372,0.459359,0
36.9191,-21.3776,0.459925,0
37.0073,-21.3161,0.460482,0
37.0939,-21.2525,0.461029,0
37.1793,-21.1874,0.461722,0
37.2634,-21.1205,0.462464,0
37.3458,-21.0517,0.463206,0
37.4266,-20.9811,0.463939,0
37.5058,-20.9087,0.464661,0
37.5833,-20.8345,0.465394,0
37.6591,-20.7586,0.466107,0
37.733,-20.6809,0.466829,0
37.8046,-20.6011,0.467279,0
37.8738,-20.5192,0.467542,0
37.9411,-20.4358,0.467806,0
38.0065,-20.351,0.46807,0
38.0699,-20.2648,0.468343,0
38.1313,-20.1772,0.468616,0
38.1908,-20.0883,0.4689,0
38.2482,-19.9981,0.469183,0
38.3036,-19.9067,0.469476,0
38.3569,-19.8141,0.469769,0
38.408,-19.7203,0.470062,0
38.4572,-19.6255,0.470364,0
38.5041,-19.5296,0.470667,0
38.5488,-19.4327,0.47097,0
38.5913,-19.3348,0.471282,0
38.6318,-19.2361,0.471595,0
38.6699,-19.1364,0.471907,0
38.7058,-19.036,0.47222,0
38.7395,-18.9348,0.472552,0
38.7708,-18.8328,0.472874,0
38.8005,-18.7304,0.473411,0
38.8295,-18.6277,0.474378,0
38.8562,-18.5244,0.475364,0
38.8805,-18.4204,0.476351,0
38.9026,-18.3158,0.477347,0
38.9223,-18.2107,0.478343,0
38.9398,-18.1051,0.479339,0
38.9548,-17.9991,0.480345,0
38.9675,-17.8927,0.481361,0
38.9778,-17.7859,0.482376,0
38.9858,-17.6789,0.483392,0
38.9913,-17.5716,0.484398,0
38.9937,-17.4642,0.485198,0
38.9934,-17.3567,0.485872,0
38.9905,-17.2492,0.486546,0
38.9852,-17.1417,0.48721,0
38.9775,-17.0343,0.487864,0
38.9673,-16.927,0.488509,0
38.9548,-16.8199,0.489144,0
38.9398,-16.7131,0.489779,0
38.9223,-16.6065,0.490394,0
38.9023,-16.5003,0.491009,0
38.8801,-16.3945,0.491605,0
38.8554,-16.2892,0.4922,0
38.8294,-16.184,0.493128,0
38.8009,-16.0794,0.494017,0
33.5591,-22.1385,0.441536,0
33.6673,-22.1547,0.442269,0
33.776,-22.1683,0.443001,0
33.885,-22.1794,0.443724,0
33.994,-22.1878,0.444437,0
34.1031,-22.1937,0.44514,0
34.2124,-22.1969,0.445843,0
34.3216,-22.1976,0.446536,0
34.4308,-22.1946,0.446917,0
34.5398,-22.1889,0.447269,0
34.6484,-22.1807,0.447601,0
34.7569,-22.17,0.447943,0
34.8649,-22.1567,0.448294,0
34.9725,-22.141,0.448626,0
35.0796,-22.1228,0.448968,0
35.1862,-22.1021,0.44931,0
35.2923,-22.0789,0.449642,0
35.3979,-22.0545,0.450306,0
35.5028,-22.0277,0.45097,0
35.607,-21.9984,0.451634,0
35.7105,-21.9667,0.452278,0
35.8131,-21.9327,0.452933,0
35.915,-21.8962,0.453577,0
36.0158,-21.8575,0.454212,0
36.1157,-21.8164,0.454837,0
36.2146,-21.7731,0.455472,0
36.3124,-21.7275,0.456097,0
36.4091,-21.6797,0.456702,0
36.5045,-21.6297,0.457308,0
36.5988,-21.5775,0.457904,0
36.6917,-21.5232,0.458489,0
36.7834,-21.4667,0.459066,0
36.8737,-21.4082,0.459642,0
36.9626,-21.3476,0.460198,0
37.0499,-21.2851,0.460755,0
37.136,-21.2207,0.461341,0
37.2208,-21.1548,0.462083,0
37.3041,-21.087,0.462835,0
37.3857,-21.0173,0.463558,0
37.4658,-20.9458,0.46429,0
37.5441,-20.8725,0.465032,0
37.6208,-20.7974,0.465745,0
37.6956,-20.7207,0.466458,0
37.7687,-20.6422,0.467142,0
37.8388,-20.5611,0.467405,0
37.907,-20.4784,0.467659,0
37.9734,-20.3944,0.467933,0
38.0379,-20.3088,0.468196,0
38.1003,-20.2219,0.46848,0
38.1608,-20.1337,0.468753,0
38.2193,-20.0441,0.469036,0
38.2757,-19.9533,0.469329,0
38.33,-19.8613,0.469622,0
38.3823,-19.7682,0.469915,0
38.4324,-19.6739,0.470218,0
38.4805,-19.5785,0.470511,0
38.5263,-19.4821,0.470823,0
38.57,-19.3847,0.471126,0
38.6115,-19.2864,0.471429,0
38.6508,-19.1872,0.471751,0
38.6878,-19.0872,0.472064,0
38.7227,-18.9864,0.472386,0
38.7551,-18.8848,0.472708,0
38.7853,-18.7825,0.47303,0
38.8151,-18.6801,0.47389,0
38.8429,-18.5771,0.474866,0
38.8684,-18.4734,0.475843,0
38.8916,-18.3691,0.476839,0
38.9127,-18.2642,0.477835,0
38.9312,-18.1589,0.478821,0
38.9474,-18.0531,0.479837,0
38.9613,-17.9469,0.480843,0
38.9729,-17.8403,0.481859,0
38.982,-17.7334,0.482864,0
38.9888,-17.6263,0.48389,0
38.993,-17.5189,0.484857,0
38.9938,-17.4115,0.48553,0
38.9923,-17.3039,0.486204,0
38.9883,-17.1964,0.486878,0
38.9818,-17.089,0.487532,0
38.9729,-16.9816,0.488177,0
38.9615,-16.8744,0.488821,0
38.9477,-16.7674,0.489456,0
38.9315,-16.6607,0.490081,0
38.9128,-16.5543,0.490696,0
38.8917,-16.4483,0.491302,0
38.8682,-16.3427,0.491898,0
38.8429,-16.2375,0.492659,0
38.8156,-16.1326,0.493568,0
34.3257,-22.0706,0.446165,0
34.432,-22.0687,0.446829,0
34.538,-22.0636,0.447259,0
34.6437,-22.0556,0.447591,0
34.7492,-22.0452,0.447923,0
34.8544,-22.0324,0.448265,0
34.9591,-22.0172,0.448587,0
35.0634,-21.9995,0.448919,0
35.1671,-21.9794,0.449241,0
35.2703,-21.9569,0.449573,0
35.373,-21.9329,0.45014,0
35.4752,-21.9068,0.450794,0
35.5766,-21.8783,0.451439,0
35.6773,-21.8475,0.452073,0
35.7773,-21.8144,0.452698,0
35.8763,-21.779,0.453323,0
35.9745,-21.7413,0.453948,0
36.0718,-21.7013,0.454564,0
36.168,-21.6592,0.455169,0
36.2631,-21.6148,0.455775,0
36.3572,-21.5683,0.45637,0
36.4502,-21.5196,0.456966,0
36.542,-21.4688,0.457542,0
36.6324,-21.416,0.458118,0
36.7216,-21.361,0.458675,0
36.8095,-21.3041,0.459232,0
36.8961,-21.2451,0.459779,0
36.9814,-21.1847,0.460482,0
37.0655,-21.1224,0.461204,0
37.148,-21.0582,0.461927,0
37.2291,-20.9922,0.46265,0
37.3086,-20.9243,0.463372,0
37.3865,-20.8547,0.464085,0
37.4628,-20.7833,0.464788,0
37.5374,-20.7102,0.465501,0
37.6103,-20.6355,0.466195,0
37.6815,-20.5591,0.466888,0
37.7509,-20.4811,0.467571,0
37.8177,-20.4008,0.467913,0
37.8823,-20.3189,0.468167,0
37.9451,-20.2356,0.468441,0
38.0059,-20.1509,0.468704,0
38.0648,-20.065,0.468978,0
38.1217,-19.9777,0.469251,0
38.1766,-19.8893,0.469534,0
38.2297,-19.7997,0.469818,0
38.2805,-19.7089,0.470101,0
38.3295,-19.617,0.470394,0
38.3762,-19.5241,0.470677,0
38.4208,-19.4302,0.47098,0
38.4634,-19.3353,0.471282,0
38.5037,-19.2395,0.471585,0
38.542,-19.1429,0.471888,0
38.5781,-19.0454,0.4722,0
38.612,-18.9472,0.472513,0
38.6436,-18.8482,0.472825,0
38.6733,-18.7487,0.473236,0
38.7026,-18.6489,0.474183,0
38.7295,-18.5485,0.47514,0
38.7544,-18.4475,0.476097,0
38.7769,-18.3458,0.477064,0
38.7972,-18.2436,0.47803,0
38.8152,-18.141,0.478997,0
38.8309,-18.0379,0.479984,0
38.8443,-17.9344,0.48096,0
38.8555,-17.8305,0.481946,0
38.8642,-17.7264,0.482943,0
38.8703,-17.622,0.483812,0
38.8734,-17.5174,0.484476,0
38.8741,-17.4127,0.48514,0
38.8724,-17.308,0.485794,0
38.8684,-17.2033,0.486448,0
38.862,-17.0987,0.487083,0
38.8532,-16.9941,0.487728,0
38.842,-16.8898,0.488353,0
38.8285,-16.7856,0.488968,0
38.8126,-16.6817,0.489573,0
38.7943,-16.5781,0.490169,0
38.7737,-16.4749,0.490755,0
38.7507,-16.3721,0.491341,0
38.7255,-16.2698,0.491976,0
38.6989,-16.1676,0.492855,0
33.5305,-22.004,0.440921,0
33.6357,-22.021,0.441644,0
33.7412,-22.0355,0.442357,0
33.847,-22.0476,0.44307,0
33.953,-22.0571,0.443763,0
34.0592,-22.0641,0.444466,0
34.1655,-22.0686,0.44515,0
34.2716,-22.0705,0.445823,0
34.3779,-22.07,0.446487,0
34.4841,-22.0667,0.447093,0
34.5899,-22.06,0.447425,0
34.6955,-22.0508,0.447757,0
34.8009,-22.0393,0.448089,0
34.9059,-22.0252,0.448411,0
35.0103,-22.0088,0.448753,0
35.1144,-21.9899,0.449085,0
35.2178,-21.9686,0.449407,0
35.3208,-21.9453,0.449818,0
35.4233,-21.9204,0.450462,0
35.5251,-21.8931,0.451107,0
35.6262,-21.8635,0.451751,0
35.7265,-21.8315,0.452386,0
35.826,-21.7973,0.453011,0
35.9247,-21.7607,0.453626,0
36.0223,-21.7219,0.454251,0
36.1191,-21.6809,0.454866,0
36.2148,-21.6377,0.455472,0
36.3095,-21.5922,0.456068,0
36.403,-21.5447,0.456663,0
36.4954,-21.4949,0.457249,0
36.5865,-21.4431,0.457825,0
36.6763,-21.3892,0.458392,0
36.7649,-21.3333,0.458948,0
36.8522,-21.2754,0.459505,0
36.9381,-21.2156,0.460111,0
37.0229,-21.1543,0.460833,0
37.1062,-21.0911,0.461566,0
37.188,-21.026,0.462279,0
37.2683,-20.9591,0.463011,0
37.347,-20.8904,0.463724,0
37.4241,-20.8199,0.464437,0
37.4996,-20.7476,0.46514,0
37.5734,-20.6737,0.465843,0
37.6455,-20.5982,0.466536,0
37.7158,-20.521,0.46722,0
37.784,-20.4419,0.467777,0
37.8496,-20.3608,0.46804,0
37.9133,-20.2782,0.468304,0
37.9752,-20.1942,0.468558,0
38.0351,-20.1089,0.468841,0
38.093,-20.0223,0.469105,0
38.149,-19.9345,0.469378,0
38.2029,-19.8454,0.469661,0
38.2548,-19.7552,0.469954,0
38.3048,-19.6639,0.470237,0
38.3527,-19.5715,0.47054,0
38.3984,-19.4781,0.470823,0
38.442,-19.3837,0.471136,0
38.4834,-19.2884,0.471429,0
38.5228,-19.1922,0.471732,0
38.56,-19.0951,0.472044,0
38.595,-18.9973,0.472357,0
38.6277,-18.8987,0.472659,0
38.6583,-18.7994,0.472972,0
38.688,-18.6998,0.473704,0
38.7161,-18.5997,0.474652,0
38.742,-18.499,0.475609,0
38.7657,-18.3976,0.476566,0
38.7872,-18.2957,0.477532,0
38.8063,-18.1933,0.478499,0
38.8232,-18.0904,0.479486,0
38.8377,-17.9871,0.480462,0
38.8501,-17.8834,0.481448,0
38.8601,-17.7794,0.482435,0
38.8677,-17.6752,0.483421,0
38.8721,-17.5707,0.484144,0
38.8741,-17.466,0.484808,0
38.8737,-17.3613,0.485462,0
38.8708,-17.2566,0.486116,0
38.8655,-17.1519,0.486761,0
38.858,-17.0473,0.487405,0
38.848,-16.9429,0.48804,0
38.8357,-16.8386,0.488655,0
38.821,-16.7345,0.489261,0
38.8039,-16.6308,0.489866,0
38.7845,-16.5274,0.490462,0
38.7627,-16.4244,0.491038,0
38.7384,-16.3218,0.491614,0
38.7127,-16.2196,0.492415,0
38.6849,-16.1177,0.493294,0
33.5821,-22.0126,0.441282,0
33.6875,-22.0285,0.441995,0
33.7931,-22.0418,0.442708,0
33.8991,-22.0526,0.443411,0
34.0052,-22.0608,0.444114,0
34.1114,-22.0666,0.444798,0
34.2176,-22.0698,0.445472,0
34.3238,-22.0706,0.446155,0
34.43,-22.0688,0.44682,0
34.5361,-22.0637,0.447249,0
34.6419,-22.0558,0.447581,0
34.7473,-22.0455,0.447923,0
34.8525,-22.0327,0.448255,0
34.9573,-22.0175,0.448587,0
35.0616,-21.9998,0.448909,0
35.1652,-21.9798,0.449241,0
35.2684,-21.9573,0.449564,0
35.3712,-21.9334,0.45014,0
35.4734,-21.9073,0.450784,0
35.5748,-21.8788,0.451419,0
35.6755,-21.8481,0.452064,0
35.7755,-21.815,0.452698,0
35.8745,-21.7796,0.453323,0
35.9727,-21.742,0.453948,0
36.07,-21.7021,0.454564,0
36.1662,-21.66,0.455169,0
36.2615,-21.6156,0.455765,0
36.3555,-21.5691,0.456361,0
36.4485,-21.5205,0.456946,0
36.5402,-21.4698,0.457532,0
36.6309,-21.4169,0.458099,0
36.72,-21.362,0.458665,0
36.808,-21.3051,0.459222,0
36.8945,-21.2462,0.459769,0
36.9799,-21.1858,0.460472,0
37.064,-21.1235,0.461195,0
37.1466,-21.0594,0.461917,0
37.2277,-20.9934,0.46264,0
37.3072,-20.9256,0.463353,0
37.3851,-20.856,0.464075,0
37.4615,-20.7846,0.464779,0
37.5361,-20.7116,0.465482,0
37.609,-20.6368,0.466175,0
37.6802,-20.5605,0.466868,0
37.7496,-20.4825,0.467562,0
37.8164,-20.4023,0.467903,0
37.8811,-20.3204,0.468167,0
37.9439,-20.2371,0.468431,0
38.0048,-20.1525,0.468704,0
38.0637,-20.0665,0.468968,0
38.1207,-19.9793,0.469241,0
38.1757,-19.8909,0.469525,0
38.2287,-19.8013,0.469798,0
38.2797,-19.7105,0.470091,0
38.3285,-19.6187,0.470384,0
38.3753,-19.5258,0.470677,0
38.4201,-19.4319,0.47098,0
38.4626,-19.337,0.471273,0
38.503,-19.2413,0.471575,0
38.5413,-19.1446,0.471878,0
38.5774,-19.0472,0.472191,0
38.6113,-18.949,0.472503,0
38.643,-18.85,0.472816,0
38.6728,-18.7504,0.473216,0
38.702,-18.6507,0.474173,0
38.7291,-18.5503,0.47512,0
38.7539,-18.4493,0.476077,0
38.7766,-18.3476,0.477034,0
38.7968,-18.2455,0.478011,0
38.8149,-18.1428,0.478978,0
38.8307,-18.0397,0.479964,0
38.8441,-17.9362,0.480941,0
38.8552,-17.8324,0.481927,0
38.8641,-17.7283,0.482913,0
38.8702,-17.6239,0.483792,0
38.8734,-17.5193,0.484466,0
38.8741,-17.4146,0.48513,0
38.8725,-17.3099,0.485794,0
38.8685,-17.2052,0.486439,0
38.8622,-17.1006,0.487083,0
38.8534,-16.996,0.487718,0
38.8423,-16.8916,0.488333,0
38.8288,-16.7874,0.488948,0
38.8129,-16.6835,0.489554,0
38.7946,-16.58,0.490159,0
38.7741,-16.4768,0.490755,0
38.751,-16.374,0.491321,0
38.726,-16.2716,0.491956,0
38.6994,-16.1695,0.492845,0
34.3278,-21.9498,0.445794,0
34.4312,-21.9481,0.446448,0
34.5344,-21.9439,0.447083,0
34.6374,-21.9368,0.447571,0
34.7401,-21.9268,0.447894,0
34.8425,-21.9144,0.448216,0
34.9445,-21.8996,0.448548,0
35.0461,-21.8825,0.448861,0
35.1471,-21.863,0.449183,0
35.2476,-21.8412,0.449505,0
35.3476,-21.8176,0.449984,0
35.4471,-21.7923,0.450618,0
35.5459,-21.7646,0.451243,0
35.644,-21.7346,0.451859,0
35.7413,-21.7024,0.452474,0
35.8378,-21.668,0.453089,0
35.9334,-21.6313,0.453695,0
36.0282,-21.5925,0.45429,0
36.1219,-21.5515,0.454886,0
36.2146,-21.5083,0.455472,0
36.3062,-21.4631,0.456048,0
36.3968,-21.4157,0.456624,0
36.4862,-21.3663,0.457181,0
36.5744,-21.3148,0.457747,0
36.6613,-21.2614,0.458294,0
36.7471,-21.2062,0.458929,0
36.8317,-21.1493,0.459642,0
36.915,-21.0906,0.460355,0
36.9969,-21.0299,0.461068,0
37.0773,-20.9674,0.461771,0
37.1562,-20.9031,0.462484,0
37.2337,-20.837,0.463177,0
37.3097,-20.7692,0.463861,0
37.3841,-20.6997,0.464554,0
37.4567,-20.6285,0.465247,0
37.5278,-20.5557,0.465931,0
37.5971,-20.4812,0.466605,0
37.6648,-20.4052,0.467259,0
37.7306,-20.3278,0.467923,0
37.7942,-20.2484,0.468402,0
37.8554,-20.1672,0.468655,0
37.9148,-20.0848,0.468919,0
37.9722,-20.001,0.469173,0
38.0277,-19.916,0.469446,0
38.0814,-19.8298,0.46971,0
38.133,-19.7424,0.469984,0
38.1827,-19.654,0.470277,0
38.2303,-19.5644,0.47055,0
38.2759,-19.4739,0.470833,0
38.3195,-19.3823,0.471126,0
38.3609,-19.2899,0.471429,0
38.4003,-19.1965,0.471722,0
38.4377,-19.1023,0.472015,0
38.4727,-19.0073,0.472318,0
38.5058,-18.9115,0.47262,0
38.5367,-18.8151,0.472923,0
38.5662,-18.7182,0.473529,0
38.5948,-18.6209,0.474446,0
38.621,-18.523,0.475374,0
38.6451,-18.4245,0.476312,0
38.667,-18.3254,0.477249,0
38.6867,-18.2258,0.478196,0
38.7042,-18.1257,0.479144,0
38.7195,-18.0252,0.480101,0
38.7325,-17.9243,0.481058,0
38.7433,-17.823,0.482015,0
38.7512,-17.7215,0.482796,0
38.7565,-17.6197,0.48346,0
38.7595,-17.5178,0.484114,0
38.76,-17.4158,0.484759,0
38.7584,-17.3138,0.485404,0
38.7544,-17.2117,0.486038,0
38.748,-17.1098,0.486663,0
38.7395,-17.0079,0.487269,0
38.7285,-16.9062,0.487894,0
38.7152,-16.8047,0.48848,0
38.6996,-16.7035,0.489075,0
38.6817,-16.6026,0.489652,0
38.6616,-16.502,0.490228,0
38.6391,-16.4019,0.490784,0
38.6143,-16.3023,0.491341,0
38.5881,-16.2029,0.492181,0
33.5538,-21.8845,0.440687,0
33.6562,-21.9012,0.4414,0
33.7589,-21.9154,0.442083,0
33.8619,-21.9271,0.442777,0
33.965,-21.9365,0.44346,0
34.0684,-21.9433,0.444134,0
34.1718,-21.9477,0.444798,0
34.2752,-21.9497,0.445462,0
34.3786,-21.9492,0.446116,0
34.4819,-21.9463,0.446761,0
34.585,-21.9409,0.447396,0
34.6879,-21.9322,0.447728,0
34.7905,-21.921,0.44805,0
34.8927,-21.9074,0.448382,0
34.9945,-21.8915,0.448704,0
35.0958,-21.8732,0.449027,0
35.1965,-21.8526,0.449339,0
35.2967,-21.8296,0.449661,0
35.3965,-21.8055,0.450296,0
35.4956,-21.7789,0.450921,0
35.5941,-21.7502,0.451546,0
35.6919,-21.7191,0.452161,0
35.7888,-21.6858,0.452777,0
35.8848,-21.6503,0.453382,0
35.9801,-21.6125,0.453987,0
36.0743,-21.5726,0.454583,0
36.1676,-21.5306,0.455169,0
36.2597,-21.4864,0.455755,0
36.3509,-21.4401,0.456331,0
36.4409,-21.3917,0.456898,0
36.5296,-21.3413,0.457464,0
36.6172,-21.2888,0.458011,0
36.7035,-21.2344,0.458558,0
36.7887,-21.1785,0.45928,0
36.8727,-21.1207,0.459993,0
36.9553,-21.061,0.460706,0
37.0366,-20.9994,0.461409,0
37.1163,-20.9361,0.462122,0
37.1945,-20.8709,0.462816,0
37.2712,-20.8039,0.463519,0
37.3464,-20.7353,0.464212,0
37.4199,-20.6649,0.464896,0
37.4919,-20.5929,0.465579,0
37.562,-20.5193,0.466253,0
37.6305,-20.4441,0.466917,0
37.6973,-20.3674,0.467581,0
37.7623,-20.2892,0.468245,0
37.8245,-20.2087,0.468519,0
37.8848,-20.1269,0.468773,0
37.9433,-20.0438,0.469036,0
37.9997,-19.9594,0.4693,0
38.0543,-19.8738,0.469573,0
38.107,-19.787,0.469857,0
38.1576,-19.6991,0.47013,0
38.2063,-19.6101,0.470413,0
38.253,-19.5201,0.470687,0
38.2975,-19.429,0.47098,0
38.3401,-19.337,0.471273,0
38.3805,-19.2441,0.471575,0
38.4189,-19.1504,0.471859,0
38.4552,-19.0557,0.472161,0
38.4893,-18.9604,0.472464,0
38.5212,-18.8642,0.472767,0
38.551,-18.7675,0.47307,0
38.5805,-18.6705,0.473968,0
38.6079,-18.5729,0.474905,0
38.6331,-18.4747,0.475833,0
38.6561,-18.3759,0.476771,0
38.677,-18.2765,0.477718,0
38.6956,-18.1767,0.478665,0
38.712,-18.0764,0.479622,0
38.7262,-17.9757,0.48057,0
38.738,-17.8746,0.481527,0
38.7477,-17.7732,0.482464,0
38.7541,-17.6715,0.483128,0
38.7582,-17.5697,0.483792,0
38.76,-17.4677,0.484437,0
38.7595,-17.3657,0.485081,0
38.7567,-17.2637,0.485716,0
38.7516,-17.1617,0.486341,0
38.7441,-17.0597,0.486956,0
38.7343,-16.958,0.487581,0
38.7223,-16.8563,0.488177,0
38.7078,-16.755,0.488782,0
38.6911,-16.6539,0.489368,0
38.6721,-16.5532,0.489935,0
38.6508,-16.4528,0.490501,0
38.6272,-16.3529,0.491058,0
38.6017,-16.2534,0.491741,0
38.5745,-16.1542,0.492601,0
33.6041,-21.893,0.441038,0
33.7066,-21.9084,0.441732,0
33.8095,-21.9215,0.442425,0
33.9125,-21.932,0.443118,0
34.0158,-21.9401,0.443792,0
34.1191,-21.9458,0.444456,0
34.2225,-21.949,0.44513,0
34.3259,-21.9498,0.445784,0
34.4293,-21.9481,0.446429,0
34.5326,-21.944,0.447073,0
34.6355,-21.937,0.447562,0
34.7383,-21.927,0.447884,0
34.8407,-21.9146,0.448216,0
34.9427,-21.8999,0.448538,0
35.0443,-21.8828,0.448861,0
35.1453,-21.8634,0.449183,0
35.2458,-21.8416,0.449495,0
35.3458,-21.8181,0.449974,0
35.4453,-21.7927,0.450599,0
35.5441,-21.7651,0.451224,0
35.6423,-21.7352,0.451849,0
35.7395,-21.703,0.452464,0
35.8361,-21.6686,0.45307,0
35.9317,-21.632,0.453685,0
36.0265,-21.5932,0.45428,0
36.1202,-21.5523,0.454876,0
36.213,-21.5091,0.455462,0
36.3047,-21.4639,0.456038,0
36.3952,-21.4166,0.456605,0
36.4846,-21.3672,0.457171,0
36.5727,-21.3158,0.457738,0
36.6597,-21.2624,0.458284,0
36.7455,-21.2072,0.458919,0
36.8302,-21.1504,0.459632,0
36.9135,-21.0916,0.460345,0
36.9954,-21.031,0.461058,0
37.0759,-20.9686,0.461761,0
37.1549,-20.9043,0.462464,0
37.2324,-20.8382,0.463157,0
37.3084,-20.7704,0.463861,0
37.3827,-20.7009,0.464554,0
37.4555,-20.6298,0.465228,0
37.5266,-20.557,0.465911,0
37.5959,-20.4826,0.466585,0
37.6636,-20.4066,0.467259,0
37.7295,-20.3292,0.467913,0
37.793,-20.2499,0.468382,0
37.8544,-20.1687,0.468646,0
37.9137,-20.0863,0.468909,0
37.9712,-20.0025,0.469173,0
38.0268,-19.9175,0.469437,0
38.0804,-19.8313,0.46972,0
38.1321,-19.744,0.469984,0
38.1818,-19.6555,0.470267,0
38.2295,-19.566,0.47055,0
38.2751,-19.4755,0.470843,0
38.3187,-19.384,0.471126,0
38.3602,-19.2915,0.471419,0
38.3996,-19.1982,0.471712,0
38.437,-19.104,0.472015,0
38.4722,-19.009,0.472308,0
38.5052,-18.9133,0.47262,0
38.5362,-18.8168,0.472913,0
38.5657,-18.72,0.473509,0
38.5942,-18.6227,0.474427,0
38.6205,-18.5248,0.475364,0
38.6448,-18.4263,0.476292,0
38.6666,-18.3272,0.477239,0
38.6864,-18.2275,0.478177,0
38.7039,-18.1275,0.479134,0
38.7192,-18.027,0.480081,0
38.7323,-17.9261,0.481038,0
38.7431,-17.8248,0.481995,0
38.7511,-17.7233,0.482786,0
38.7564,-17.6215,0.48345,0
38.7594,-17.5196,0.484105,0
38.76,-17.4177,0.484759,0
38.7584,-17.3156,0.485384,0
38.7545,-17.2136,0.486029,0
38.7482,-17.1116,0.486644,0
38.7396,-17.0097,0.487269,0
38.7287,-16.908,0.487874,0
38.7155,-16.8066,0.48848,0
38.6999,-16.7053,0.489056,0
38.682,-16.6044,0.489652,0
38.662,-16.5038,0.490218,0
38.6395,-16.4037,0.490784,0
38.6148,-16.3041,0.491341,0
38.5886,-16.2046,0.492161,0
34.3298,-21.8348,0.445443,0
34.4305,-21.8332,0.446077,0
34.5309,-21.8292,0.446693,0
34.6313,-21.8228,0.447318,0
34.7314,-21.8139,0.447864,0
34.8312,-21.8019,0.448187,0
34.9306,-21.7876,0.448509,0
35.0295,-21.771,0.448812,0
35.128,-21.7521,0.449124,0
35.2259,-21.7309,0.449437,0
35.3234,-21.7078,0.449827,0
35.4203,-21.6831,0.450452,0
35.5166,-21.6562,0.451058,0
35.6122,-21.6271,0.451663,0
35.707,-21.5958,0.452259,0
35.8011,-21.5622,0.452855,0
35.8943,-21.5266,0.453441,0
35.9866,-21.4888,0.454027,0
36.078,-21.4489,0.454612,0
36.1684,-21.4069,0.455179,0
36.2577,-21.3628,0.455736,0
36.346,-21.3167,0.456302,0
36.433,-21.2686,0.456849,0
36.5191,-21.2186,0.457445,0
36.6041,-21.167,0.458148,0
36.6879,-21.1135,0.458851,0
36.7704,-21.0581,0.459544,0
36.8516,-21.0008,0.460238,0
36.9314,-20.9417,0.460931,0
37.0098,-20.8808,0.461624,0
37.0869,-20.8181,0.462308,0
37.1623,-20.7537,0.462991,0
37.2364,-20.6877,0.463665,0
37.3088,-20.6199,0.464329,0
37.3798,-20.5505,0.465003,0
37.4491,-20.4795,0.465667,0
37.5166,-20.407,0.466321,0
37.5827,-20.3329,0.466976,0
37.6469,-20.2574,0.46762,0
37.7093,-20.1804,0.468265,0
37.7699,-20.102,0.468861,0
37.8278,-20.0216,0.469114,0
37.8839,-19.9399,0.469368,0
37.938,-19.857,0.469632,0
37.9904,-19.773,0.469896,0
38.0407,-19.6878,0.470159,0
38.0892,-19.6015,0.470433,0
38.1356,-19.5142,0.470716,0
38.1802,-19.4259,0.470989,0
38.2227,-19.3366,0.471273,0
38.2631,-19.2465,0.471556,0
38.3016,-19.1554,0.471849,0
38.338,-19.0635,0.472132,0
38.3723,-18.9709,0.472435,0
38.4045,-18.8775,0.472728,0
38.4346,-18.7834,0.47303,0
38.4641,-18.6891,0.473802,0
38.4917,-18.5942,0.4747,0
38.5173,-18.4987,0.475609,0
38.5409,-18.4026,0.476527,0
38.5621,-18.3059,0.477435,0
38.5813,-18.2087,0.478363,0
38.5983,-18.1111,0.47928,0
38.6131,-18.013,0.480218,0
38.6257,-17.9146,0.481155,0
38.6354,-17.8158,0.481839,0
38.6427,-17.7168,0.482493,0
38.6477,-17.6175,0.483128,0
38.6506,-17.5182,0.483763,0
38.6512,-17.4187,0.484398,0
38.6495,-17.3193,0.485023,0
38.6455,-17.2198,0.485638,0
38.6393,-17.1204,0.486253,0
38.6309,-17.0211,0.486849,0
38.6201,-16.9219,0.487445,0
38.6071,-16.823,0.488021,0
38.5919,-16.7243,0.488607,0
38.5743,-16.6259,0.489173,0
38.5545,-16.5279,0.48973,0
38.5327,-16.4304,0.490277,0
38.5084,-16.3332,0.490814,0
38.4825,-16.2364,0.491527,0
33.576,-21.7708,0.440482,0
33.6756,-21.7871,0.441155,0
33.7757,-21.801,0.441829,0
33.876,-21.8125,0.442503,0
33.9765,-21.8216,0.443177,0
34.0771,-21.8284,0.443821,0
34.1778,-21.8327,0.444476,0
34.2785,-21.8347,0.44512,0
34.3792,-21.8343,0.445755,0
34.4798,-21.8315,0.44638,0
34.5802,-21.8263,0.447005,0
34.6805,-21.8188,0.447611,0
34.7805,-21.8083,0.44803,0
34.8802,-21.7952,0.448343,0
34.9793,-21.7797,0.448655,0
35.078,-21.762,0.448958,0
35.1762,-21.742,0.44928,0
35.2738,-21.7197,0.449583,0
35.371,-21.696,0.45013,0
35.4677,-21.6702,0.450745,0
35.5637,-21.6422,0.451351,0
35.6589,-21.612,0.451956,0
35.7534,-21.5796,0.452552,0
35.847,-21.545,0.453138,0
35.9398,-21.5083,0.453734,0
36.0316,-21.4694,0.45431,0
36.1225,-21.4285,0.454896,0
36.2123,-21.3855,0.455452,0
36.3012,-21.3404,0.456009,0
36.3889,-21.2933,0.456575,0
36.4755,-21.2442,0.457122,0
36.561,-21.1935,0.457786,0
36.6454,-21.141,0.458489,0
36.7285,-21.0865,0.459193,0
36.8104,-21.0302,0.459886,0
36.8909,-20.972,0.460579,0
36.9701,-20.912,0.461263,0
37.0478,-20.8503,0.461956,0
37.1241,-20.7867,0.46264,0
37.1989,-20.7215,0.463323,0
37.2722,-20.6546,0.463997,0
37.3439,-20.586,0.464661,0
37.4141,-20.5158,0.465335,0
37.4825,-20.4441,0.465999,0
37.5493,-20.3708,0.466644,0
37.6144,-20.296,0.467288,0
37.6777,-20.2198,0.467933,0
37.7393,-20.1421,0.468568,0
37.7986,-20.0627,0.468987,0
37.8555,-19.9816,0.469232,0
37.9108,-19.8994,0.469495,0
37.964,-19.8159,0.469759,0
38.0153,-19.7313,0.470023,0
38.0648,-19.6456,0.470306,0
38.1123,-19.5588,0.47057,0
38.1577,-19.471,0.470853,0
38.2013,-19.3822,0.471126,0
38.2428,-19.2925,0.471409,0
38.2823,-19.2019,0.471702,0
38.3197,-19.1104,0.471995,0
38.3551,-19.0182,0.472288,0
38.3884,-18.9251,0.472581,0
38.4195,-18.8314,0.472874,0
38.4491,-18.7371,0.473353,0
38.4779,-18.6426,0.474241,0
38.5046,-18.5474,0.47515,0
38.5291,-18.4516,0.476048,0
38.5516,-18.3552,0.476966,0
38.5718,-18.2583,0.477894,0
38.5899,-18.1608,0.478812,0
38.6059,-18.063,0.479739,0
38.6196,-17.9647,0.480667,0
38.6309,-17.8661,0.481507,0
38.6393,-17.7672,0.482161,0
38.6455,-17.6681,0.482806,0
38.6495,-17.5688,0.48345,0
38.6512,-17.4694,0.484075,0
38.6506,-17.3699,0.4847,0
38.6478,-17.2704,0.485325,0
38.6428,-17.171,0.485941,0
38.6355,-17.0716,0.486546,0
38.6259,-16.9723,0.487142,0
38.614,-16.8733,0.487728,0
38.5998,-16.7745,0.488314,0
38.5835,-16.676,0.48889,0
38.5649,-16.5778,0.489437,0
38.5441,-16.48,0.490003,0
38.5209,-16.3826,0.49054,0
38.4958,-16.2857,0.491107,0
38.4691,-16.189,0.491937,0
33.6249,-21.7791,0.440804,0
33.7248,-21.7942,0.441497,0
33.8249,-21.8069,0.442161,0
33.9253,-21.8173,0.442835,0
34.0259,-21.8252,0.443499,0
34.1266,-21.8308,0.444144,0
34.2273,-21.834,0.444798,0
34.328,-21.8348,0.445433,0
34.4287,-21.8332,0.446068,0
34.5291,-21.8293,0.446683,0
34.6295,-21.8229,0.447298,0
34.7297,-21.8141,0.447855,0
34.8295,-21.8021,0.448177,0
34.9288,-21.7879,0.448489,0
35.0278,-21.7713,0.448812,0
35.1263,-21.7524,0.449114,0
35.2242,-21.7313,0.449427,0
35.3216,-21.7082,0.449818,0
35.4186,-21.6836,0.450433,0
35.5148,-21.6567,0.451038,0
35.6105,-21.6276,0.451654,0
35.7053,-21.5963,0.452249,0
35.7995,-21.5629,0.452845,0
35.8927,-21.5272,0.453431,0
35.985,-21.4895,0.454017,0
36.0763,-21.4496,0.454593,0
36.1668,-21.4076,0.455159,0
36.2561,-21.3636,0.455726,0
36.3444,-21.3175,0.456292,0
36.4316,-21.2695,0.456849,0
36.5176,-21.2195,0.457435,0
36.6027,-21.168,0.458138,0
36.6864,-21.1145,0.458831,0
36.769,-21.0591,0.459525,0
36.8502,-21.0019,0.460228,0
36.93,-20.9428,0.460921,0
37.0085,-20.8819,0.461605,0
37.0855,-20.8193,0.462288,0
37.1611,-20.7549,0.462972,0
37.2352,-20.6888,0.463655,0
37.3076,-20.6211,0.46432,0
37.3785,-20.5518,0.464993,0
37.4478,-20.4808,0.465657,0
37.5155,-20.4083,0.466312,0
37.5815,-20.3343,0.466956,0
37.6457,-20.2588,0.467601,0
37.7081,-20.1818,0.468245,0
37.7688,-20.1034,0.468851,0
37.8268,-20.023,0.469105,0
37.8829,-19.9414,0.469359,0
37.9371,-19.8585,0.469622,0
37.9895,-19.7745,0.469896,0
38.0399,-19.6893,0.470159,0
38.0884,-19.6031,0.470433,0
38.1349,-19.5158,0.470706,0
38.1794,-19.4275,0.470989,0
38.2219,-19.3383,0.471263,0
38.2625,-19.2481,0.471556,0
38.3009,-19.1571,0.471839,0
38.3373,-19.0652,0.472132,0
38.3716,-18.9726,0.472435,0
38.4039,-18.8792,0.472728,0
38.4341,-18.7851,0.473021,0
38.4636,-18.6908,0.473782,0
38.4913,-18.5959,0.474691,0
38.5169,-18.5004,0.475589,0
38.5404,-18.4043,0.476497,0
38.5618,-18.3076,0.477415,0
38.5809,-18.2105,0.478343,0
38.598,-18.1129,0.479271,0
38.6128,-18.0148,0.480198,0
38.6256,-17.9164,0.481136,0
38.6352,-17.8176,0.481829,0
38.6427,-17.7186,0.482474,0
38.6477,-17.6193,0.483118,0
38.6505,-17.52,0.483763,0
38.6512,-17.4205,0.484388,0
38.6495,-17.321,0.485013,0
38.6456,-17.2216,0.485628,0
38.6395,-17.1221,0.486243,0
38.631,-17.0228,0.486839,0
38.6203,-16.9237,0.487435,0
38.6073,-16.8247,0.488021,0
38.5921,-16.7261,0.488597,0
38.5747,-16.6277,0.489163,0
38.5549,-16.5297,0.48972,0
38.533,-16.4321,0.490267,0
38.5088,-16.335,0.490804,0
38.483,-16.2382,0.491517,0
34.3316,-21.7252,0.445111,0
34.4297,-21.7237,0.445726,0
34.5277,-21.7198,0.446331,0
34.6255,-21.7137,0.446937,0
34.7231,-21.7052,0.447523,0
34.8204,-21.6945,0.448099,0
34.9173,-21.6807,0.44845,0
35.0138,-21.6646,0.448763,0
35.1098,-21.6463,0.449066,0
35.2053,-21.6257,0.449359,0
35.3002,-21.603,0.449691,0
35.3948,-21.579,0.450277,0
35.4887,-21.5528,0.450872,0
35.5819,-21.5245,0.451468,0
35.6744,-21.494,0.452044,0
35.7661,-21.4613,0.45263,0
35.857,-21.4266,0.453206,0
35.947,-21.3898,0.453782,0
36.0361,-21.3509,0.454349,0
36.1242,-21.31,0.454896,0
36.2113,-21.2671,0.455443,0
36.2975,-21.2223,0.456029,0
36.3827,-21.1758,0.456722,0
36.4668,-21.1274,0.457405,0
36.5497,-21.0771,0.458089,0
36.6313,-21.025,0.458773,0
36.7119,-20.971,0.459456,0
36.791,-20.9151,0.46013,0
36.8689,-20.8575,0.460804,0
36.9455,-20.7981,0.461478,0
37.0205,-20.737,0.462142,0
37.0943,-20.6742,0.462806,0
37.1664,-20.6098,0.46346,0
37.2372,-20.5437,0.464124,0
37.3063,-20.476,0.464779,0
37.3739,-20.4068,0.465423,0
37.4399,-20.3361,0.466058,0
37.5042,-20.2639,0.466702,0
37.5668,-20.1902,0.467327,0
37.6278,-20.1152,0.467952,0
37.687,-20.0387,0.468568,0
37.7444,-19.961,0.469173,0
37.7994,-19.8815,0.469554,0
37.8523,-19.8007,0.469808,0
37.9034,-19.7187,0.470062,0
37.9526,-19.6356,0.470325,0
37.9998,-19.5514,0.470599,0
38.0452,-19.4662,0.470862,0
38.0887,-19.3801,0.471136,0
38.1302,-19.293,0.471409,0
38.1698,-19.205,0.471693,0
38.2072,-19.1162,0.471976,0
38.2427,-19.0265,0.472259,0
38.2762,-18.9361,0.472542,0
38.3077,-18.845,0.472825,0
38.3373,-18.7532,0.473196,0
38.3663,-18.6613,0.474066,0
38.3933,-18.5687,0.474945,0
38.4183,-18.4754,0.475823,0
38.4411,-18.3816,0.476712,0
38.4618,-18.2873,0.477611,0
38.4805,-18.1924,0.478509,0
38.497,-18.0971,0.479417,0
38.5112,-18.0014,0.480267,0
38.5227,-17.9053,0.480911,0
38.532,-17.8089,0.481556,0
38.5391,-17.7123,0.482191,0
38.544,-17.6155,0.482806,0
38.5466,-17.5186,0.483431,0
38.5472,-17.4216,0.484056,0
38.5455,-17.3245,0.484661,0
38.5416,-17.2275,0.485267,0
38.5355,-17.1305,0.485862,0
38.5271,-17.0336,0.486439,0
38.5166,-16.9369,0.487015,0
38.5039,-16.8404,0.487591,0
38.4889,-16.7442,0.488157,0
38.4718,-16.6482,0.488704,0
38.4525,-16.5527,0.489251,0
38.4309,-16.4575,0.489779,0
38.4073,-16.3628,0.490306,0
38.3816,-16.2685,0.490902,0
33.5971,-21.6625,0.440267,0
33.6943,-21.6784,0.440931,0
33.7917,-21.692,0.441595,0
33.8894,-21.7032,0.442249,0
33.9873,-21.7122,0.442894,0
34.0854,-21.7188,0.443529,0
34.1835,-21.7231,0.444163,0
34.2817,-21.7251,0.444798,0
34.3798,-21.7247,0.445413,0
34.4779,-21.722,0.446029,0
34.5758,-21.7171,0.446624,0
34.6734,-21.7098,0.44722,0
34.7709,-21.7002,0.447816,0
34.868,-21.6881,0.448304,0
34.9648,-21.6731,0.448607,0
35.0611,-21.6559,0.448909,0
35.1568,-21.6364,0.449212,0
35.252,-21.6148,0.449515,0
35.3467,-21.5915,0.449974,0
35.441,-21.5664,0.45057,0
35.5345,-21.5392,0.451165,0
35.6273,-21.5098,0.451761,0
35.7195,-21.4782,0.452337,0
35.8108,-21.4445,0.452913,0
35.9013,-21.4088,0.453489,0
35.9909,-21.371,0.454056,0
36.0795,-21.3311,0.454612,0
36.1671,-21.2892,0.455169,0
36.2537,-21.2453,0.455716,0
36.3395,-21.1997,0.45637,0
36.4241,-21.1523,0.457054,0
36.5077,-21.103,0.457738,0
36.5899,-21.0517,0.458431,0
36.6711,-20.9987,0.459095,0
36.7509,-20.9438,0.459788,0
36.8295,-20.8871,0.460462,0
36.9067,-20.8286,0.461136,0
36.9826,-20.7683,0.4618,0
37.057,-20.7064,0.462464,0
37.1298,-20.6428,0.463128,0
37.2013,-20.5775,0.463792,0
37.2713,-20.5107,0.464446,0
37.3397,-20.4422,0.465091,0
37.4065,-20.3723,0.465736,0
37.4716,-20.3008,0.46637,0
37.5352,-20.2279,0.467005,0
37.597,-20.1535,0.46763,0
37.657,-20.0778,0.468255,0
37.7154,-20.0007,0.468861,0
37.7718,-19.9222,0.469427,0
37.8256,-19.842,0.469681,0
37.8777,-19.7605,0.469935,0
37.9278,-19.678,0.470198,0
37.976,-19.5944,0.470462,0
38.0224,-19.5097,0.470726,0
38.0668,-19.4241,0.470999,0
38.1094,-19.3374,0.471273,0
38.1498,-19.2499,0.471546,0
38.1884,-19.1615,0.471829,0
38.2249,-19.0722,0.472113,0
38.2595,-18.9822,0.472386,0
38.2919,-18.8914,0.472679,0
38.3223,-18.8,0.472972,0
38.3517,-18.7082,0.473626,0
38.3798,-18.6159,0.474505,0
38.4058,-18.523,0.475374,0
38.4297,-18.4294,0.476273,0
38.4516,-18.3354,0.477161,0
38.4712,-18.2408,0.47805,0
38.4889,-18.1457,0.478958,0
38.5044,-18.0502,0.479866,0
38.5172,-17.9543,0.480589,0
38.5276,-17.858,0.481234,0
38.5357,-17.7615,0.481868,0
38.5417,-17.6648,0.482493,0
38.5456,-17.5679,0.483128,0
38.5472,-17.4709,0.483734,0
38.5466,-17.3739,0.484359,0
38.5438,-17.2768,0.484954,0
38.5388,-17.1798,0.48555,0
38.5316,-17.0829,0.486146,0
38.5222,-16.9861,0.486722,0
38.5106,-16.8895,0.487298,0
38.4968,-16.7931,0.487874,0
38.4808,-16.697,0.488431,0
38.4626,-16.6013,0.488978,0
38.4421,-16.5059,0.489505,0
38.4195,-16.4109,0.490042,0
38.3948,-16.3164,0.49056,0
38.3686,-16.2223,0.491302,0
33.6448,-21.6706,0.440589,0
33.7421,-21.6853,0.441253,0
33.8397,-21.6978,0.441907,0
33.9375,-21.7079,0.442562,0
34.0355,-21.7157,0.443206,0
34.1335,-21.7212,0.443841,0
34.2317,-21.7244,0.444476,0
34.3298,-21.7252,0.445101,0
34.428,-21.7237,0.445716,0
34.526,-21.7199,0.446321,0
34.6237,-21.7138,0.446917,0
34.7213,-21.7054,0.447513,0
34.8187,-21.6947,0.448099,0
34.9156,-21.681,0.44845,0
35.012,-21.6649,0.448763,0
35.1081,-21.6466,0.449056,0
35.2037,-21.6261,0.449368,0
35.2986,-21.6034,0.449671,0
35.3931,-21.5795,0.450277,0
35.487,-21.5533,0.450872,0
35.5802,-21.525,0.451458,0
35.6727,-21.4945,0.452044,0
35.7645,-21.462,0.45263,0
35.8554,-21.4273,0.453196,0
35.9454,-21.3905,0.453763,0
36.0345,-21.3517,0.454329,0
36.1227,-21.3108,0.454886,0
36.2098,-21.2679,0.455443,0
36.2959,-21.2231,0.456019,0
36.3811,-21.1767,0.456712,0
36.4652,-21.1283,0.457396,0
36.5482,-21.0781,0.458079,0
36.6299,-21.0259,0.458753,0
36.7105,-20.9719,0.459437,0
36.7896,-20.9161,0.460111,0
36.8676,-20.8585,0.460794,0
36.9441,-20.7992,0.461458,0
37.0193,-20.7381,0.462132,0
37.0929,-20.6754,0.462796,0
37.1652,-20.6109,0.46346,0
37.2359,-20.5449,0.464114,0
37.3051,-20.4773,0.464769,0
37.3727,-20.4081,0.465413,0
37.4387,-20.3374,0.466048,0
37.503,-20.2652,0.466683,0
37.5657,-20.1915,0.467308,0
37.6266,-20.1165,0.467943,0
37.6859,-20.0401,0.468548,0
37.7434,-19.9624,0.469163,0
37.7985,-19.883,0.469554,0
37.8514,-19.8021,0.469808,0
37.9025,-19.7202,0.470071,0
37.9517,-19.6371,0.470325,0
37.9991,-19.5529,0.470589,0
38.0445,-19.4678,0.470862,0
38.088,-19.3816,0.471136,0
38.1295,-19.2945,0.471409,0
38.169,-19.2066,0.471693,0
38.2066,-19.1178,0.471966,0
38.2421,-19.0281,0.472249,0
38.2757,-18.9377,0.472542,0
38.3071,-18.8466,0.472825,0
38.3367,-18.7549,0.473177,0
38.3658,-18.6629,0.474056,0
38.3928,-18.5703,0.474935,0
38.4178,-18.4771,0.475804,0
38.4407,-18.3833,0.476702,0
38.4615,-18.289,0.477601,0
38.4802,-18.1941,0.478499,0
38.4967,-18.0988,0.479407,0
38.5111,-18.0031,0.480257,0
38.5225,-17.907,0.480911,0
38.5319,-17.8107,0.481546,0
38.539,-17.714,0.482181,0
38.5439,-17.6172,0.482806,0
38.5466,-17.5203,0.483431,0
38.5472,-17.4233,0.484046,0
38.5455,-17.3262,0.484652,0
38.5416,-17.2292,0.485247,0
38.5355,-17.1322,0.485843,0
38.5273,-17.0353,0.486429,0
38.5168,-16.9387,0.487015,0
38.5041,-16.8421,0.487571,0
38.4892,-16.7459,0.488138,0
38.4721,-16.65,0.488695,0
38.4529,-16.5544,0.489241,0
38.4313,-16.4592,0.489779,0
38.4077,-16.3645,0.490306,0
38.382,-16.2702,0.490882,0
34.3334,-21.6206,0.444788,0
34.4291,-21.6191,0.445384,0
34.5246,-21.6154,0.44598,0
34.62,-21.6095,0.446566,0
34.7152,-21.6013,0.447142,0
34.8101,-21.5909,0.447708,0
34.9046,-21.5782,0.448265,0
34.9988,-21.563,0.448714,0
35.0924,-21.5452,0.449007,0
35.1856,-21.5252,0.4493,0
35.2782,-21.5031,0.449593,0
35.3704,-21.4795,0.45013,0
35.462,-21.4541,0.450716,0
35.553,-21.4264,0.451282,0
35.6431,-21.3967,0.451859,0
35.7327,-21.365,0.452425,0
35.8213,-21.3311,0.452982,0
35.9091,-21.2953,0.453528,0
35.9961,-21.2574,0.454085,0
36.0821,-21.2177,0.454691,0
36.1673,-21.1762,0.455355,0
36.2515,-21.1328,0.456029,0
36.3347,-21.0875,0.456693,0
36.4167,-21.0403,0.457366,0
36.4976,-20.9912,0.45803,0
36.5773,-20.9403,0.458695,0
36.6559,-20.8877,0.459359,0
36.7332,-20.8332,0.460023,0
36.8092,-20.777,0.460677,0
36.8838,-20.7191,0.461331,0
36.9572,-20.6595,0.461986,0
37.0291,-20.5982,0.46264,0
37.0995,-20.5353,0.463275,0
37.1686,-20.4709,0.463919,0
37.2361,-20.4049,0.464554,0
37.3021,-20.3373,0.465179,0
37.3665,-20.2683,0.465814,0
37.4292,-20.1979,0.466439,0
37.4903,-20.126,0.467044,0
37.5498,-20.0527,0.46765,0
37.6076,-19.9782,0.468245,0
37.6636,-19.9023,0.468851,0
37.7179,-19.8252,0.469437,0
37.7703,-19.7468,0.469974,0
37.8202,-19.6667,0.470237,0
37.8682,-19.5856,0.470482,0
37.9145,-19.5035,0.470755,0
37.9587,-19.4203,0.471009,0
38.0012,-19.3362,0.471273,0
38.0417,-19.2512,0.471546,0
38.0802,-19.1653,0.47182,0
38.1169,-19.0786,0.472083,0
38.1516,-18.9911,0.472366,0
