37.4355,-28.7388,0.450696,0
37.5955,-28.7548,0.450189,0
37.7558,-28.7652,0.449329,0
37.917,-28.763,0.446878,0
38.0776,-28.7568,0.444349,0
38.2377,-28.747,0.441859,0
38.3973,-28.7338,0.439378,0
38.5562,-28.7171,0.436917,0
38.7143,-28.6969,0.434476,0
38.8716,-28.6734,0.432064,0
39.028,-28.6464,0.429681,0
39.1834,-28.6167,0.427405,0
39.338,-28.5837,0.425179,0
39.4913,-28.5475,0.422982,0
39.6436,-28.508,0.420823,0
39.7947,-28.4655,0.418695,0
39.9445,-28.4198,0.416614,0
40.093,-28.3711,0.414583,0
40.2402,-28.3192,0.412552,0
40.3846,-28.2598,0.40973,0
40.5273,-28.1976,0.406966,0
40.6683,-28.1327,0.404251,0
40.8076,-28.065,0.401605,0
40.945,-27.9946,0.399007,0
41.0806,-27.9216,0.396458,0
41.2145,-27.8461,0.393978,0
41.3462,-27.768,0.391556,0
41.4762,-27.6875,0.389183,0
41.6041,-27.6045,0.386878,0
41.7299,-27.5191,0.384632,0
41.8537,-27.4314,0.382445,0
41.9755,-27.3414,0.380325,0
42.0951,-27.2492,0.378265,0
42.2126,-27.1548,0.376263,0
42.3278,-27.0582,0.37432,0
42.4408,-26.9596,0.372445,0
42.5516,-26.8589,0.370618,0
42.6602,-26.7562,0.36887,0
42.7645,-26.6495,0.366683,0
42.8652,-26.5394,0.364202,0
42.9634,-26.4277,0.36179,0
43.0592,-26.3145,0.359476,0
43.1525,-26.1998,0.357249,0
43.2455,-26.0855,0.355609,0
43.3366,-25.9701,0.354183,0
43.4253,-25.8533,0.352864,0
43.5116,-25.735,0.351624,0
43.5956,-25.6154,0.350482,0
43.6773,-25.4943,0.349427,0
43.7565,-25.372,0.34848,0
43.8332,-25.2484,0.347611,0
43.9077,-25.1235,0.346839,0
43.9795,-24.9974,0.346165,0
44.049,-24.8701,0.345579,0
44.1156,-24.7415,0.345013,0
44.1794,-24.6115,0.344437,0
44.2405,-24.4805,0.343939,0
44.2991,-24.3484,0.343529,0
44.355,-24.2154,0.343196,0
44.4085,-24.0814,0.342943,0
44.4593,-23.9466,0.342777,0
44.5076,-23.8109,0.342689,0
44.5536,-23.6745,0.342777,0
44.5986,-23.5378,0.343226,0
44.6409,-23.4003,0.343753,0
44.6807,-23.262,0.344378,0
44.7178,-23.1229,0.345071,0
44.7523,-22.9832,0.345863,0
44.7843,-22.8427,0.346732,0
44.8134,-22.7017,0.347689,0
44.8401,-22.56,0.348724,0
44.864,-22.4178,0.349837,0
44.8852,-22.275,0.351038,0
44.9037,-22.1318,0.352327,0
44.9195,-21.9881,0.353685,0
44.9327,-21.844,0.35513,0
44.943,-21.6996,0.356673,0
44.9507,-21.5548,0.358284,0
44.9549,-21.4097,0.359837,0
44.9549,-21.2645,0.361224,0
44.9539,-21.1191,0.363001,0
44.9505,-20.9735,0.364925,0
44.9442,-20.8277,0.366927,0
44.9352,-20.6819,0.368997,0
44.9233,-20.5361,0.371146,0
36.0519,-28.4426,0.455062,0
36.2062,-28.4902,0.454573,0
36.3615,-28.5343,0.454085,0
36.5177,-28.5749,0.453587,0
36.6748,-28.6118,0.453089,0
36.8325,-28.6452,0.452591,0
36.9909,-28.6749,0.452093,0
37.1497,-28.7011,0.451595,0
37.3091,-28.7236,0.451087,0
37.4688,-28.7424,0.450579,0
37.6289,-28.7577,0.450081,0
37.7895,-28.7654,0.44888,0
37.9505,-28.762,0.446351,0
38.1111,-28.7551,0.443831,0
38.2712,-28.7446,0.441341,0
38.4305,-28.7306,0.438851,0
38.5892,-28.7132,0.436409,0
38.7472,-28.6923,0.433978,0
38.9043,-28.668,0.431566,0
39.0605,-28.6405,0.429202,0
39.2158,-28.6101,0.426937,0
39.3701,-28.5764,0.42471,0
39.5233,-28.5395,0.422523,0
39.6752,-28.4994,0.420374,0
39.826,-28.4562,0.418265,0
39.9756,-28.4099,0.416195,0
40.1238,-28.3606,0.414163,0
40.2705,-28.307,0.411956,0
40.4145,-28.247,0.409144,0
40.5569,-28.1843,0.40639,0
40.6976,-28.1188,0.403695,0
40.8364,-28.0505,0.401058,0
40.9735,-27.9796,0.39847,0
41.1087,-27.9061,0.395941,0
41.2421,-27.83,0.39347,0
41.3736,-27.7514,0.391058,0
41.5031,-27.6703,0.388695,0
41.6305,-27.5869,0.386409,0
41.7559,-27.501,0.384173,0
41.8794,-27.4128,0.381995,0
42.0006,-27.3223,0.379876,0
42.1198,-27.2296,0.377835,0
42.2368,-27.1348,0.375843,0
42.3516,-27.0378,0.373919,0
42.4641,-26.9387,0.372054,0
42.5744,-26.8376,0.370257,0
42.6824,-26.7345,0.368509,0
42.7857,-26.6266,0.366146,0
42.8859,-26.5162,0.363685,0
42.9836,-26.4042,0.361302,0
43.0789,-26.2907,0.359007,0
43.1718,-26.1757,0.3568,0
43.2647,-26.0615,0.355306,0
43.3553,-25.9459,0.353909,0
43.4435,-25.8287,0.352591,0
43.5294,-25.7102,0.35138,0
43.6129,-25.5902,0.350267,0
43.6941,-25.4689,0.349222,0
43.7727,-25.3463,0.348294,0
43.849,-25.2224,0.347435,0
43.9229,-25.0972,0.346683,0
43.9943,-24.9709,0.346029,0
44.0632,-24.8434,0.345472,0
44.1292,-24.7144,0.344886,0
44.1923,-24.5842,0.34432,0
44.253,-24.453,0.343841,0
44.311,-24.3207,0.34345,0
44.3664,-24.1875,0.343138,0
44.4193,-24.0533,0.342904,0
44.4695,-23.9183,0.342747,0
44.5173,-23.7824,0.342689,0
44.5632,-23.646,0.342855,0
44.6076,-23.5091,0.343323,0
44.6495,-23.3715,0.34388,0
44.6887,-23.233,0.344515,0
44.7252,-23.0938,0.345237,0
44.7592,-22.9539,0.346038,0
44.7905,-22.8133,0.346917,0
44.8192,-22.6721,0.347894,0
44.8452,-22.5303,0.348939,0
44.8686,-22.388,0.350081,0
44.8893,-22.2452,0.351302,0
44.9073,-22.1018,0.352601,0
44.9226,-21.958,0.353987,0
44.9351,-21.8139,0.355452,0
44.9449,-21.6694,0.356995,0
44.952,-21.5245,0.358626,0
44.9552,-21.3794,0.36013,0
44.9547,-21.2342,0.361517,0
44.9534,-21.0887,0.363392,0
44.9495,-20.943,0.365345,0
44.9426,-20.7973,0.367357,0
44.933,-20.6515,0.369437,0
44.9204,-20.5056,0.371605,0
36.084,-28.4528,0.454964,0
36.2385,-28.4997,0.454476,0
36.3941,-28.5431,0.453987,0
36.5505,-28.5829,0.453489,0
36.7077,-28.6191,0.452991,0
36.8655,-28.6517,0.452493,0
37.0239,-28.6807,0.451986,0
37.183,-28.7061,0.451487,0
37.3424,-28.7278,0.45098,0
37.5023,-28.7459,0.450482,0
37.6623,-28.7602,0.449935,0
37.8231,-28.765,0.448353,0
37.9841,-28.7609,0.445823,0
38.1445,-28.7532,0.443314,0
38.3045,-28.742,0.440814,0
38.4637,-28.7273,0.438343,0
38.6223,-28.7091,0.435892,0
38.7801,-28.6875,0.43347,0
38.937,-28.6625,0.431068,0
39.093,-28.6344,0.428724,0
39.2481,-28.6033,0.426478,0
39.4022,-28.5689,0.424251,0
39.5551,-28.5314,0.422073,0
39.7069,-28.4906,0.419925,0
39.8574,-28.4468,0.417825,0
40.0067,-28.3999,0.415765,0
40.1547,-28.3499,0.413743,0
40.3007,-28.2947,0.411361,0
40.4444,-28.2342,0.408568,0
40.5863,-28.1708,0.405823,0
40.7266,-28.1047,0.403138,0
40.8652,-28.0359,0.400511,0
41.002,-27.9645,0.397943,0
41.1367,-27.8904,0.395413,0
41.2698,-27.8138,0.392962,0
41.4008,-27.7347,0.39056,0
41.5298,-27.6531,0.388216,0
41.6569,-27.5691,0.385931,0
41.7819,-27.4828,0.383724,0
41.9048,-27.3941,0.381556,0
42.0257,-27.3032,0.379456,0
42.1444,-27.21,0.377425,0
42.2609,-27.1147,0.375433,0
42.3753,-27.0173,0.373519,0
42.4873,-26.9178,0.371673,0
42.5972,-26.8163,0.369886,0
42.7048,-26.7127,0.368157,0
42.8069,-26.6037,0.365628,0
42.9064,-26.493,0.363177,0
43.0037,-26.3807,0.360823,0
43.0984,-26.2668,0.358538,0
43.1913,-26.1519,0.356478,0
43.2838,-26.0375,0.355003,0
43.3739,-25.9215,0.353616,0
43.4616,-25.8041,0.352327,0
43.547,-25.6853,0.351136,0
43.63,-25.565,0.350032,0
43.7106,-25.4434,0.349027,0
43.7888,-25.3205,0.348099,0
43.8646,-25.1964,0.347279,0
43.938,-25.071,0.346546,0
44.0088,-24.9444,0.345911,0
44.0773,-24.8166,0.345355,0
44.1426,-24.6873,0.344759,0
44.2052,-24.5569,0.344212,0
44.2652,-24.4254,0.343753,0
44.3227,-24.293,0.343372,0
44.3777,-24.1596,0.343079,0
44.4301,-24.0252,0.342864,0
44.4798,-23.89,0.342728,0
44.527,-23.754,0.342679,0
44.5727,-23.6175,0.342943,0
44.6166,-23.4805,0.343431,0
44.6578,-23.3426,0.343997,0
44.6965,-23.204,0.344652,0
44.7326,-23.0647,0.345394,0
44.766,-22.9246,0.346214,0
44.7968,-22.7839,0.347122,0
44.8249,-22.6426,0.348099,0
44.8504,-22.5007,0.349173,0
44.8731,-22.3582,0.350325,0
44.8933,-22.2153,0.351566,0
44.9106,-22.0718,0.352884,0
44.9254,-21.928,0.35428,0
44.9374,-21.7837,0.355765,0
44.9466,-21.6391,0.357327,0
44.9531,-21.4942,0.358987,0
44.9553,-21.3491,0.360413,0
36.1166,-28.1564,0.454857,0
36.2645,-28.2029,0.454388,0
36.4133,-28.2461,0.453919,0
36.563,-28.2859,0.45345,0
36.7135,-28.3222,0.452972,0
36.8648,-28.3551,0.452493,0
37.0166,-28.3845,0.452015,0
37.1691,-28.4105,0.451536,0
37.3219,-28.433,0.451048,0
37.4752,-28.452,0.45057,0
37.6287,-28.4675,0.450081,0
37.7826,-28.479,0.449476,0
37.937,-28.482,0.447972,0
38.0912,-28.4767,0.44556,0
38.2452,-28.4681,0.443187,0
38.3985,-28.4562,0.440843,0
38.5513,-28.4409,0.438519,0
38.7033,-28.4224,0.436234,0
38.8545,-28.4007,0.433968,0
39.0051,-28.3758,0.431751,0
39.1546,-28.3477,0.429564,0
39.3033,-28.3165,0.427415,0
39.4509,-28.2822,0.425296,0
39.5974,-28.2448,0.423216,0
39.7429,-28.2043,0.421165,0
39.8872,-28.1609,0.419163,0
40.0302,-28.1145,0.417191,0
40.172,-28.0652,0.415267,0
40.3116,-28.0106,0.412923,0
40.4493,-27.9513,0.410247,0
40.5852,-27.8894,0.40763,0
40.7195,-27.8248,0.405071,0
40.8522,-27.7576,0.402552,0
40.983,-27.6879,0.400101,0
41.1121,-27.6156,0.397698,0
41.2394,-27.5409,0.395355,0
41.3648,-27.4638,0.39307,0
41.4882,-27.3844,0.390833,0
41.6098,-27.3026,0.388675,0
41.7294,-27.2185,0.386546,0
41.8469,-27.1322,0.384486,0
41.9624,-27.0438,0.382493,0
42.0759,-26.9532,0.38055,0
42.1873,-26.8605,0.378675,0
42.2965,-26.7658,0.376859,0
42.4035,-26.6691,0.375101,0
42.5084,-26.5704,0.373402,0
42.6111,-26.4698,0.371761,0
42.7114,-26.3672,0.37014,0
42.8066,-26.2599,0.367816,0
42.8999,-26.1514,0.365696,0
42.9927,-26.0433,0.364144,0
43.0834,-25.9335,0.362659,0
43.1716,-25.8223,0.361273,0
43.2576,-25.7096,0.359984,0
43.3412,-25.5955,0.358782,0
43.4227,-25.48,0.357659,0
43.5016,-25.3631,0.356595,0
43.5778,-25.2446,0.35555,0
43.6517,-25.1249,0.354583,0
43.7232,-25.0039,0.353685,0
43.7923,-24.8818,0.352884,0
43.8588,-24.7585,0.352161,0
43.923,-24.6341,0.351517,0
43.9847,-24.5086,0.35095,0
44.044,-24.3821,0.350462,0
44.1006,-24.2546,0.350062,0
44.1549,-24.1261,0.349739,0
44.2066,-23.9967,0.349495,0
44.2559,-23.8665,0.349329,0
44.3026,-23.7354,0.349241,0
44.3482,-23.604,0.349515,0
44.3916,-23.4719,0.349954,0
44.4326,-23.3389,0.350462,0
44.4709,-23.2053,0.351058,0
44.5068,-23.0709,0.351741,0
44.5402,-22.9358,0.352493,0
44.5709,-22.8001,0.353343,0
44.599,-22.6637,0.354271,0
44.6247,-22.5268,0.355267,0
44.6477,-22.3893,0.356351,0
44.668,-22.2513,0.357513,0
44.6858,-22.1129,0.358763,0
44.7009,-21.9741,0.360081,0
44.7134,-21.8348,0.361497,0
44.7233,-21.6952,0.362972,0
44.7286,-21.5553,0.364193,0
44.7312,-21.4153,0.365462,0
44.7309,-21.275,0.36679,0
44.7296,-21.1346,0.36848,0
44.726,-20.994,0.370345,0
44.7197,-20.8534,0.372288,0
44.7106,-20.7126,0.3743,0
44.6988,-20.5718,0.37637,0
36.1474,-28.1664,0.454769,0
36.2955,-28.2122,0.45429,0
36.4445,-28.2547,0.453831,0
36.5944,-28.2937,0.453353,0
36.7451,-28.3294,0.452874,0
36.8965,-28.3615,0.452396,0
37.0484,-28.3903,0.451917,0
37.2009,-28.4155,0.451429,0
37.3539,-28.4372,0.450941,0
37.5073,-28.4555,0.450462,0
37.6608,-28.4703,0.449984,0
37.8148,-28.4799,0.449173,0
37.9692,-28.4812,0.447464,0
38.1234,-28.4752,0.445062,0
38.2773,-28.4659,0.442689,0
38.4305,-28.4532,0.440345,0
38.583,-28.4373,0.43804,0
38.7349,-28.4182,0.435755,0
38.8861,-28.3958,0.433509,0
39.0363,-28.3702,0.431292,0
39.1857,-28.3415,0.429105,0
39.3341,-28.3096,0.426966,0
39.4816,-28.2746,0.424857,0
39.6279,-28.2366,0.422786,0
39.7731,-28.1955,0.420745,0
39.9171,-28.1515,0.418743,0
40.0599,-28.1045,0.41679,0
40.2014,-28.0545,0.414866,0
40.3405,-27.9985,0.412366,0
40.4777,-27.9386,0.4097,0
40.6134,-27.8761,0.407093,0
40.7474,-27.811,0.404534,0
40.8796,-27.7433,0.402034,0
41.0102,-27.673,0.399593,0
41.1388,-27.6003,0.39721,0
41.2657,-27.525,0.394876,0
41.3907,-27.4474,0.392601,0
41.5137,-27.3675,0.390384,0
41.6348,-27.2852,0.388216,0
41.7541,-27.2007,0.386116,0
41.8712,-27.1139,0.384066,0
41.9863,-27.025,0.382083,0
42.0993,-26.934,0.380159,0
42.2102,-26.8409,0.378294,0
42.3191,-26.7457,0.376487,0
42.4256,-26.6486,0.374739,0
42.5301,-26.5496,0.37305,0
42.6323,-26.4486,0.371429,0
42.7315,-26.3449,0.369652,0
42.8262,-26.2372,0.367337,0
42.9195,-26.129,0.365364,0
43.0119,-26.0205,0.363821,0
43.102,-25.9104,0.362357,0
43.1897,-25.7989,0.360999,0
43.2753,-25.6859,0.35973,0
43.3584,-25.5715,0.358538,0
43.4395,-25.4558,0.357445,0
43.5177,-25.3385,0.35637,0
43.5935,-25.2197,0.355335,0
43.6669,-25.0998,0.354388,0
43.7378,-24.9785,0.353519,0
43.8064,-24.8562,0.352728,0
43.8724,-24.7326,0.352025,0
43.9361,-24.608,0.35139,0
43.9973,-24.4823,0.350843,0
44.056,-24.3555,0.350374,0
44.1122,-24.2278,0.349984,0
44.1659,-24.0992,0.349681,0
44.2171,-23.9696,0.349456,0
44.2659,-23.8392,0.3493,0
44.312,-23.7079,0.349232,0
44.3574,-23.5764,0.349593,0
44.4003,-23.4441,0.350042,0
44.4408,-23.3111,0.350579,0
44.4786,-23.1773,0.351185,0
44.514,-23.0427,0.351888,0
44.5468,-22.9075,0.352669,0
44.577,-22.7716,0.353528,0
44.6046,-22.6352,0.354466,0
44.6296,-22.4981,0.355491,0
44.6521,-22.3605,0.356595,0
44.672,-22.2225,0.357767,0
44.6892,-22.084,0.359036,0
44.7038,-21.945,0.360374,0
44.7157,-21.8057,0.3618,0
44.7247,-21.666,0.363236,0
44.7294,-21.5261,0.364456,0
44.7313,-21.386,0.365726,0
44.7305,-21.2457,0.367083,0
44.7291,-21.1053,0.368861,0
44.7249,-20.9647,0.370745,0
44.718,-20.824,0.372708,0
44.7084,-20.6832,0.37472,0
44.6959,-20.5425,0.37682,0
36.1782,-28.1762,0.454671,0
36.3266,-28.2214,0.454202,0
36.4757,-28.2631,0.453724,0
36.6259,-28.3015,0.453255,0
36.7766,-28.3364,0.452777,0
36.9281,-28.3678,0.452288,0
37.0802,-28.3958,0.45181,0
37.2329,-28.4203,0.451331,0
37.3859,-28.4413,0.450843,0
37.5393,-28.4589,0.450364,0
37.693,-28.473,0.449876,0
37.847,-28.4808,0.44887,0
38.0015,-28.4802,0.446966,0
38.1556,-28.4735,0.444564,0
38.3093,-28.4635,0.4422,0
38.4623,-28.4502,0.439866,0
38.6148,-28.4336,0.437552,0
38.7666,-28.4138,0.435286,0
38.9175,-28.3907,0.43304,0
39.0677,-28.3645,0.430833,0
39.2169,-28.3351,0.428665,0
39.3651,-28.3025,0.426527,0
39.5123,-28.2669,0.424427,0
39.6584,-28.2283,0.422357,0
39.8034,-28.1866,0.420335,0
39.947,-28.1419,0.418343,0
40.0895,-28.0943,0.41638,0
40.2308,-28.0437,0.414476,0
40.3693,-27.9862,0.4118,0
40.5062,-27.9258,0.409154,0
40.6416,-27.8627,0.406546,0
40.7752,-27.7971,0.404017,0
40.907,-27.7288,0.401527,0
41.0371,-27.658,0.399095,0
41.1655,-27.5847,0.396712,0
41.2919,-27.509,0.394398,0
41.4166,-27.4309,0.392122,0
41.5392,-27.3505,0.389925,0
41.6599,-27.2678,0.387777,0
41.7787,-27.1828,0.385687,0
41.8954,-27.0955,0.383655,0
42.0101,-27.0062,0.381683,0
42.1227,-26.9147,0.379769,0
42.2331,-26.8212,0.377913,0
42.3414,-26.7256,0.376116,0
42.4476,-26.6281,0.374388,0
42.5516,-26.5286,0.372708,0
42.6534,-26.4273,0.371097,0
42.7514,-26.3226,0.369153,0
42.8457,-26.2145,0.366859,0
42.939,-26.1064,0.365032,0
43.0309,-25.9976,0.363519,0
43.1204,-25.8872,0.362073,0
43.2078,-25.7754,0.360736,0
43.2928,-25.6621,0.359466,0
43.3755,-25.5475,0.358304,0
43.456,-25.4314,0.35723,0
43.5337,-25.3138,0.356155,0
43.609,-25.1948,0.35514,0
43.6819,-25.0745,0.354202,0
43.7523,-24.9531,0.353343,0
43.8204,-24.8304,0.352571,0
43.8859,-24.7067,0.351878,0
43.9491,-24.5818,0.351263,0
44.0097,-24.4559,0.350736,0
44.0679,-24.3289,0.350286,0
44.1237,-24.201,0.349915,0
44.1768,-24.0722,0.349622,0
44.2275,-23.9424,0.349407,0
44.2757,-23.8118,0.34928,0
44.3217,-23.6805,0.34929,0
44.3666,-23.5489,0.349681,0
44.409,-23.4164,0.35015,0
44.4489,-23.2832,0.350696,0
44.4862,-23.1492,0.351331,0
44.521,-23.0145,0.352044,0
44.5533,-22.8792,0.352845,0
44.583,-22.7432,0.353714,0
44.61,-22.6066,0.354671,0
44.6345,-22.4694,0.355706,0
44.6565,-22.3318,0.356829,0
44.6758,-22.1936,0.35803,0
44.6924,-22.055,0.35931,0
44.7065,-21.916,0.360667,0
44.7178,-21.7766,0.362103,0
44.7259,-21.6368,0.363489,0
44.7301,-21.4969,0.36471,0
44.7314,-21.3567,0.365999,0
36.2061,-27.9012,0.454573,0
36.3482,-27.9461,0.454134,0
36.4913,-27.9877,0.453675,0
36.6352,-28.0261,0.453216,0
36.7799,-28.0611,0.452767,0
36.9252,-28.0929,0.452298,0
37.0712,-28.1213,0.451839,0
37.2177,-28.1464,0.45138,0
37.3646,-28.1682,0.450911,0
37.5119,-28.1866,0.450443,0
37.6595,-28.2017,0.449984,0
37.8075,-28.212,0.449241,0
37.9559,-28.2155,0.447835,0
38.104,-28.2157,0.446429,0
38.252,-28.2108,0.4447,0
38.3996,-28.1998,0.442445,0
38.5466,-28.1857,0.440198,0
38.693,-28.1684,0.438001,0
38.8387,-28.148,0.435823,0
38.9837,-28.1245,0.433685,0
39.1278,-28.0979,0.431566,0
39.271,-28.0683,0.429495,0
39.4134,-28.0357,0.427445,0
39.5546,-28.0001,0.425443,0
39.6948,-27.9616,0.42346,0
39.8339,-27.9202,0.421536,0
39.9718,-27.876,0.419632,0
40.1085,-27.8289,0.417767,0
40.2438,-27.7787,0.415892,0
40.3766,-27.7221,0.413304,0
40.508,-27.6629,0.410775,0
40.6376,-27.6012,0.408294,0
40.7656,-27.5369,0.405872,0
40.8921,-27.4701,0.403489,0
41.0168,-27.401,0.401165,0
41.1397,-27.3294,0.3989,0
41.2609,-27.2554,0.396683,0
41.3802,-27.1792,0.394525,0
41.4977,-27.1007,0.392425,0
41.6133,-27.02,0.390374,0
41.727,-26.9372,0.388382,0
41.8387,-26.8522,0.386439,0
41.9484,-26.7651,0.384564,0
42.0561,-26.676,0.382747,0
42.1618,-26.5849,0.38098,0
42.2654,-26.4919,0.37928,0
42.3669,-26.397,0.37763,0
42.4662,-26.3002,0.376048,0
42.5634,-26.2016,0.374515,0
42.6592,-26.1021,0.373255,0
42.7522,-26.0001,0.371878,0
42.842,-25.8956,0.370316,0
42.9296,-25.7895,0.368821,0
43.015,-25.682,0.367425,0
43.0981,-25.573,0.366087,0
43.179,-25.4626,0.364837,0
43.2576,-25.3508,0.363655,0
43.3337,-25.2377,0.362562,0
43.4077,-25.1233,0.361536,0
43.4795,-25.0077,0.360599,0
43.5487,-24.8908,0.35973,0
43.6157,-24.7728,0.358948,0
43.6803,-24.6537,0.358236,0
43.7425,-24.5335,0.357601,0
43.8023,-24.4122,0.357054,0
43.8598,-24.2899,0.356585,0
43.9148,-24.1666,0.356185,0
43.9673,-24.0424,0.355872,0
44.0175,-23.9173,0.355628,0
44.0652,-23.7914,0.355462,0
44.111,-23.6648,0.355482,0
44.1555,-23.5378,0.355833,0
44.1976,-23.41,0.356243,0
44.2372,-23.2814,0.356751,0
44.2743,-23.1521,0.357327,0
44.309,-23.0221,0.357991,0
44.3412,-22.8914,0.358724,0
44.3709,-22.76,0.359534,0
44.398,-22.6281,0.360433,0
44.4227,-22.4956,0.361409,0
44.4448,-22.3626,0.362464,0
44.4645,-22.2292,0.363597,0
44.4815,-22.0952,0.364808,0
44.4959,-21.9609,0.366087,0
44.5068,-21.8261,0.36723,0
44.5145,-21.6911,0.368323,0
44.5193,-21.5558,0.369476,0
44.5216,-21.4204,0.370706,0
44.5213,-21.2849,0.372005,0
44.5196,-21.1492,0.373607,0
44.5159,-21.0133,0.375413,0
44.5095,-20.8773,0.377298,0
44.5005,-20.7413,0.379251,0
44.4888,-20.6053,0.381263,0
36.2358,-27.9109,0.454486,0
36.378,-27.9551,0.454036,0
36.5212,-27.996,0.453577,0
36.6654,-28.0337,0.453118,0
36.8102,-28.068,0.452669,0
36.9556,-28.0991,0.4522,0
37.1017,-28.1268,0.451751,0
37.2484,-28.1512,0.451282,0
37.3953,-28.1723,0.450814,0
37.5427,-28.19,0.450355,0
37.6905,-28.2044,0.449876,0
37.8385,-28.213,0.448948,0
37.9868,-28.2158,0.447542,0
38.1349,-28.2153,0.446136,0
38.2828,-28.2088,0.444222,0
38.4304,-28.1971,0.441966,0
38.5773,-28.1823,0.439739,0
38.7235,-28.1644,0.437542,0
38.8691,-28.1433,0.435374,0
39.0139,-28.1192,0.433236,0
39.1578,-28.092,0.431136,0
39.3009,-28.0617,0.429066,0
39.4429,-28.0285,0.427034,0
39.584,-27.9923,0.425023,0
39.724,-27.9532,0.42305,0
39.8627,-27.9112,0.421126,0
40.0005,-27.8664,0.419241,0
40.1368,-27.8187,0.417376,0
40.2716,-27.7671,0.415345,0
40.4042,-27.71,0.412777,0
40.5352,-27.6502,0.410247,0
40.6645,-27.588,0.407777,0
40.7922,-27.5232,0.405364,0
40.9182,-27.4559,0.403001,0
41.0426,-27.3862,0.400687,0
41.1652,-27.3141,0.398431,0
41.2859,-27.2397,0.396234,0
41.4049,-27.163,0.394075,0
41.522,-27.0841,0.391986,0
41.6372,-27.0029,0.389945,0
41.7505,-26.9196,0.387972,0
41.8617,-26.8342,0.386048,0
41.9711,-26.7467,0.384173,0
42.0784,-26.6572,0.382376,0
42.1836,-26.5657,0.380628,0
42.2868,-26.4723,0.378929,0
42.3878,-26.3769,0.377288,0
42.4867,-26.2798,0.375716,0
42.5835,-26.1808,0.374212,0
42.6791,-26.0811,0.373021,0
42.7711,-25.9784,0.371556,0
42.8605,-25.8736,0.369993,0
42.9476,-25.7672,0.368529,0
43.0325,-25.6593,0.367142,0
43.1152,-25.55,0.365823,0
43.1956,-25.4393,0.364583,0
43.2736,-25.3273,0.363421,0
43.3495,-25.2139,0.362337,0
43.4229,-25.0993,0.361331,0
43.4941,-24.9834,0.360413,0
43.5629,-24.8663,0.359564,0
43.6294,-24.748,0.358792,0
43.6934,-24.6287,0.358099,0
43.7552,-24.5082,0.357493,0
43.8145,-24.3867,0.356956,0
43.8714,-24.2642,0.356497,0
43.9259,-24.1408,0.356116,0
43.978,-24.0164,0.355814,0
44.0277,-23.8911,0.355589,0
44.0748,-23.765,0.355443,0
44.1205,-23.6384,0.35555,0
44.1645,-23.5112,0.355902,0
44.206,-23.3832,0.356351,0
44.2451,-23.2545,0.356859,0
44.2817,-23.125,0.357464,0
44.3159,-22.9948,0.358128,0
44.3476,-22.864,0.35888,0
44.3767,-22.7325,0.35972,0
44.4034,-22.6005,0.360628,0
44.4275,-22.4679,0.361624,0
44.4491,-22.3348,0.362689,0
44.4682,-22.2012,0.363831,0
44.4847,-22.0672,0.365071,0
44.4987,-21.9328,0.366361,0
44.5086,-21.798,0.367454,0
44.5156,-21.6629,0.368558,0
44.5201,-21.5276,0.36973,0
44.5218,-21.3921,0.37097,0
44.5209,-21.2566,0.372279,0
44.519,-21.1208,0.373978,0
44.5148,-20.9849,0.375804,0
44.5079,-20.8489,0.377698,0
44.4983,-20.7129,0.379661,0
44.486,-20.5769,0.381693,0
36.2654,-27.9204,0.454388,0
36.4079,-27.9639,0.453939,0
36.5513,-28.0041,0.453489,0
36.6955,-28.0411,0.45303,0
36.8405,-28.0748,0.452562,0
36.9861,-28.1052,0.452112,0
37.1323,-28.1322,0.451654,0
37.279,-28.1559,0.451185,0
37.4261,-28.1763,0.450716,0
37.5735,-28.1933,0.450257,0
37.7212,-28.207,0.449788,0
37.8695,-28.2139,0.448655,0
38.0177,-28.216,0.447249,0
38.1658,-28.2147,0.445843,0
38.3137,-28.2066,0.443753,0
38.4611,-28.1943,0.441507,0
38.6079,-28.1788,0.43928,0
38.754,-28.1602,0.437083,0
38.8995,-28.1385,0.434925,0
39.044,-28.1137,0.432796,0
39.1877,-28.0859,0.430696,0
39.3306,-28.0551,0.428636,0
39.4724,-28.0212,0.426605,0
39.6133,-27.9844,0.424603,0
39.753,-27.9447,0.422659,0
39.8916,-27.9021,0.420736,0
40.029,-27.8566,0.418841,0
40.1652,-27.8083,0.416995,0
40.2995,-27.7554,0.414798,0
40.4316,-27.6977,0.412239,0
40.5623,-27.6374,0.40973,0
40.6913,-27.5746,0.407279,0
40.8187,-27.5093,0.404866,0
40.9443,-27.4415,0.402513,0
41.0684,-27.3714,0.400218,0
41.1905,-27.2988,0.397972,0
41.3109,-27.2239,0.395784,0
41.4295,-27.1467,0.393646,0
41.5462,-27.0673,0.391566,0
41.661,-26.9857,0.389544,0
41.7739,-26.9019,0.387562,0
41.8848,-26.8161,0.385657,0
41.9937,-26.7282,0.383792,0
42.1005,-26.6382,0.382005,0
42.2053,-26.5463,0.380257,0
42.308,-26.4525,0.378587,0
42.4087,-26.3568,0.376966,0
42.5071,-26.2593,0.375404,0
42.6036,-26.1601,0.373948,0
42.6987,-26.0601,0.372786,0
42.7899,-25.9566,0.371214,0
42.8788,-25.8515,0.369681,0
42.9655,-25.7448,0.368226,0
43.05,-25.6366,0.366849,0
43.1322,-25.527,0.36555,0
43.212,-25.4161,0.364339,0
43.2897,-25.3037,0.363187,0
43.365,-25.1901,0.362122,0
43.438,-25.0752,0.361136,0
43.5086,-24.959,0.360228,0
43.577,-24.8417,0.359398,0
43.6429,-24.7232,0.358646,0
43.7066,-24.6036,0.357972,0
43.7677,-24.4829,0.357366,0
43.8266,-24.3612,0.356849,0
43.883,-24.2385,0.356409,0
43.937,-24.1149,0.356038,0
43.9886,-23.9903,0.355755,0
44.0377,-23.8649,0.35555,0
44.0845,-23.7385,0.355413,0
44.1299,-23.6119,0.355628,0
44.1734,-23.4846,0.355989,0
44.2145,-23.3564,0.356448,0
44.253,-23.2275,0.356986,0
44.2891,-23.0979,0.357591,0
44.3227,-22.9676,0.358284,0
44.3538,-22.8366,0.359056,0
44.3825,-22.705,0.359905,0
44.4087,-22.5729,0.360833,0
44.4323,-22.4402,0.361839,0
44.4534,-22.307,0.362923,0
44.4719,-22.1733,0.364085,0
44.4879,-22.0392,0.365325,0
44.5012,-21.9047,0.366624,0
44.5102,-21.7698,0.367679,0
44.5167,-21.6347,0.368802,0
44.5206,-21.4993,0.369984,0
44.5219,-21.3639,0.371243,0
36.2892,-27.6645,0.45432,0
36.4259,-27.7078,0.45388,0
36.5637,-27.748,0.45345,0
36.7022,-27.785,0.453011,0
36.8414,-27.8188,0.452571,0
36.9813,-27.8495,0.452132,0
37.1218,-27.877,0.451673,0
37.2628,-27.9013,0.451243,0
37.4042,-27.9224,0.450784,0
37.5461,-27.9402,0.450335,0
37.6882,-27.9549,0.449886,0
37.8307,-27.9642,0.449017,0
37.9734,-27.9679,0.447669,0
38.1161,-27.9684,0.446312,0
38.2585,-27.9656,0.444964,0
38.4006,-27.9597,0.443616,0
38.5424,-27.9481,0.44178,0
38.6836,-27.9318,0.439642,0
38.8241,-27.9126,0.437542,0
38.9639,-27.8904,0.435472,0
39.1028,-27.8652,0.433441,0
39.241,-27.8371,0.431429,0
39.3784,-27.8061,0.429456,0
39.5147,-27.7722,0.427513,0
39.65,-27.7354,0.425599,0
39.7842,-27.6959,0.423734,0
39.9173,-27.6536,0.421898,0
40.0493,-27.6085,0.420091,0
40.18,-27.5608,0.418333,0
40.3089,-27.5082,0.416155,0
40.4357,-27.4516,0.413714,0
40.5611,-27.3924,0.411312,0
40.6849,-27.3308,0.408958,0
40.8071,-27.2668,0.406654,0
40.9277,-27.2005,0.404407,0
41.0466,-27.1318,0.40221,0
41.1639,-27.0608,0.400062,0
41.2793,-26.9876,0.397972,0
41.393,-26.9121,0.395931,0
41.5049,-26.8346,0.393939,0
41.6149,-26.7549,0.392015,0
41.723,-26.6731,0.39014,0
41.8292,-26.5893,0.388314,0
41.9335,-26.5035,0.386546,0
42.0359,-26.4158,0.384837,0
42.1362,-26.3262,0.383187,0
42.2345,-26.2348,0.381595,0
42.3311,-26.1419,0.38015,0
42.4262,-26.0479,0.378939,0
42.5191,-25.9521,0.377786,0
42.6102,-25.8546,0.376693,0
42.699,-25.7555,0.375677,0
42.7841,-25.6532,0.374261,0
42.867,-25.5493,0.372894,0
42.9476,-25.444,0.371595,0
43.0261,-25.3373,0.370364,0
43.1023,-25.2293,0.369222,0
43.1763,-25.12,0.368157,0
43.2481,-25.0094,0.367161,0
43.3177,-24.8977,0.366243,0
43.3849,-24.7847,0.365404,0
43.4499,-24.6705,0.364632,0
43.5127,-24.5553,0.363948,0
43.573,-24.439,0.363323,0
43.6311,-24.3216,0.362786,0
43.6868,-24.2033,0.362327,0
43.7402,-24.0841,0.361937,0
43.7912,-23.9639,0.361624,0
43.8399,-23.8428,0.36139,0
43.8862,-23.7209,0.361224,0
43.9315,-23.5987,0.361439,0
43.9746,-23.4757,0.361761,0
44.0153,-23.3519,0.362171,0
44.0536,-23.2274,0.36265,0
44.0895,-23.1022,0.363226,0
44.1231,-22.9762,0.363861,0
44.1542,-22.8496,0.364573,0
44.1829,-22.7225,0.365364,0
44.2091,-22.5947,0.366234,0
44.233,-22.4664,0.367181,0
44.2543,-22.3376,0.368196,0
44.2732,-22.2083,0.3693,0
44.289,-22.0786,0.370345,0
44.3013,-21.9484,0.371273,0
44.3111,-21.8179,0.372259,0
44.3183,-21.6872,0.373314,0
44.323,-21.5564,0.374446,0
44.3251,-21.4253,0.375628,0
44.3246,-21.2941,0.376888,0
44.3226,-21.1628,0.378411,0
44.3188,-21.0314,0.380179,0
44.3124,-20.8998,0.381995,0
44.3034,-20.7682,0.38389,0
44.2919,-20.6367,0.385853,0
36.3177,-27.6738,0.454232,0
36.4547,-27.7164,0.453792,0
36.5925,-27.7559,0.453353,0
36.7312,-27.7923,0.452913,0
36.8705,-27.8255,0.452474,0
37.0106,-27.8555,0.452034,0
37.1512,-27.8823,0.451585,0
37.2923,-27.906,0.451146,0
37.4338,-27.9264,0.450696,0
37.5757,-27.9436,0.450247,0
37.7179,-27.9575,0.449798,0
37.8605,-27.9653,0.448743,0
38.0033,-27.9683,0.447386,0
38.1459,-27.9681,0.446029,0
38.2882,-27.9647,0.444681,0
38.4302,-27.9581,0.443343,0
38.5719,-27.9449,0.441331,0
38.713,-27.9281,0.439202,0
38.8533,-27.9082,0.437103,0
38.9929,-27.8854,0.435042,0
39.1318,-27.8596,0.433011,0
39.2698,-27.8308,0.431009,0
39.4069,-27.7992,0.429046,0
39.543,-27.7648,0.427112,0
39.6781,-27.7274,0.425208,0
39.8121,-27.6873,0.423343,0
39.945,-27.6444,0.421517,0
40.0767,-27.5988,0.41972,0
40.2072,-27.5505,0.417972,0
40.3355,-27.4966,0.415648,0
40.462,-27.4394,0.413196,0
40.5871,-27.3798,0.410814,0
40.7106,-27.3177,0.40847,0
40.8324,-27.2532,0.406185,0
40.9527,-27.1863,0.403939,0
41.0713,-27.1171,0.401761,0
41.188,-27.0457,0.399632,0
41.3032,-26.972,0.397542,0
41.4166,-26.8961,0.395511,0
41.528,-26.8181,0.393538,0
41.6376,-26.738,0.391614,0
41.7453,-26.6558,0.389749,0
41.8512,-26.5716,0.387943,0
41.9551,-26.4854,0.386195,0
42.057,-26.3973,0.384486,0
42.157,-26.3073,0.382845,0
42.2548,-26.2155,0.381263,0
42.3511,-26.1224,0.379886,0
42.4457,-26.028,0.378685,0
42.5383,-25.9319,0.377552,0
42.6288,-25.834,0.376478,0
42.717,-25.7343,0.375404,0
42.8016,-25.6316,0.373968,0
42.884,-25.5274,0.372611,0
42.9642,-25.4219,0.371331,0
43.0422,-25.3149,0.37012,0
43.118,-25.2066,0.368988,0
43.1915,-25.097,0.367943,0
43.2628,-24.9862,0.366966,0
43.3319,-24.8741,0.366058,0
43.3987,-24.7609,0.365238,0
43.4633,-24.6466,0.364486,0
43.5255,-24.5311,0.363812,0
43.5853,-24.4146,0.363206,0
43.6429,-24.297,0.362679,0
43.6981,-24.1785,0.362239,0
43.751,-24.059,0.361868,0
43.8016,-23.9386,0.361566,0
43.8497,-23.8174,0.361351,0
43.8957,-23.6954,0.361234,0
43.9406,-23.573,0.361497,0
43.9833,-23.4499,0.361849,0
44.0235,-23.326,0.362269,0
44.0612,-23.2013,0.362767,0
44.0968,-23.0759,0.363343,0
44.1298,-22.9498,0.363997,0
44.1605,-22.8231,0.36473,0
44.1886,-22.6958,0.36554,0
44.2144,-22.5679,0.366429,0
44.2377,-22.4395,0.367386,0
44.2584,-22.3106,0.368421,0
44.2769,-22.1813,0.369544,0
44.2918,-22.0514,0.37053,0
44.3035,-21.9212,0.371468,0
44.3128,-21.7907,0.372484,0
44.3195,-21.6599,0.373548,0
44.3237,-21.529,0.374681,0
44.3252,-21.3979,0.375892,0
44.3242,-21.2667,0.377161,0
44.322,-21.1354,0.378773,0
44.3177,-21.0039,0.38055,0
44.3108,-20.8723,0.382386,0
44.3012,-20.7408,0.3843,0
44.2891,-20.6092,0.386263,0
36.3462,-27.6829,0.454134,0
36.4834,-27.7249,0.453704,0
36.6214,-27.7638,0.453265,0
36.7602,-27.7995,0.452825,0
36.8998,-27.832,0.452386,0
37.0398,-27.8614,0.451946,0
37.1806,-27.8875,0.451487,0
37.3218,-27.9105,0.451048,0
37.4634,-27.9302,0.450599,0
37.6053,-27.9467,0.45015,0
37.7476,-27.96,0.4497,0
37.8903,-27.9662,0.44846,0
38.033,-27.9685,0.447103,0
38.1755,-27.9676,0.445755,0
38.3179,-27.9635,0.444398,0
38.4598,-27.9561,0.44303,0
38.6015,-27.9417,0.440882,0
38.7423,-27.9242,0.438763,0
38.8825,-27.9037,0.436673,0
39.022,-27.8802,0.434622,0
39.1607,-27.8538,0.432591,0
39.2985,-27.8245,0.430599,0
39.4353,-27.7923,0.428646,0
39.5713,-27.7572,0.426712,0
39.7062,-27.7193,0.424818,0
39.8399,-27.6786,0.422952,0
39.9727,-27.6351,0.421136,0
40.1041,-27.5889,0.419359,0
40.2342,-27.54,0.417601,0
40.362,-27.4849,0.41513,0
40.4883,-27.4272,0.412698,0
40.613,-27.367,0.410316,0
40.7362,-27.3044,0.407982,0
40.8577,-27.2394,0.405706,0
40.9776,-27.1721,0.403489,0
41.0958,-27.1024,0.401302,0
41.2123,-27.0305,0.399183,0
41.327,-26.9563,0.397112,0
41.4399,-26.88,0.395091,0
41.551,-26.8015,0.393138,0
41.6603,-26.721,0.391224,0
41.7677,-26.6383,0.389368,0
41.873,-26.5537,0.387571,0
41.9765,-26.4671,0.385823,0
42.078,-26.3787,0.384144,0
42.1775,-26.2883,0.382513,0
42.2749,-26.1961,0.380941,0
42.3709,-26.1028,0.379632,0
42.4652,-26.0081,0.37845,0
42.5573,-25.9116,0.377327,0
42.6474,-25.8134,0.376263,0
42.7348,-25.713,0.375101,0
42.819,-25.61,0.373685,0
42.9009,-25.5055,0.372337,0
42.9806,-25.3996,0.371068,0
43.0582,-25.2924,0.369886,0
43.1335,-25.1838,0.368773,0
43.2066,-25.074,0.367728,0
43.2775,-24.9629,0.366771,0
43.3461,-24.8506,0.365882,0
43.4123,-24.7371,0.365071,0
43.4763,-24.6225,0.364339,0
43.5381,-24.5069,0.363675,0
43.5975,-24.3901,0.363099,0
43.6546,-24.2724,0.362581,0
43.7094,-24.1536,0.362152,0
43.7618,-24.034,0.3618,0
43.8118,-23.9134,0.361517,0
43.8595,-23.792,0.361312,0
43.9053,-23.6699,0.361273,0
43.9498,-23.5474,0.361566,0
43.9919,-23.4241,0.361927,0
44.0316,-23.3,0.362366,0
44.0689,-23.1752,0.362884,0
44.1039,-23.0496,0.36347,0
44.1364,-22.9234,0.364154,0
44.1666,-22.7966,0.364886,0
44.1942,-22.6692,0.365716,0
44.2194,-22.5412,0.366624,0
44.2422,-22.4126,0.367591,0
44.2625,-22.2837,0.368646,0
44.2803,-22.1542,0.369779,0
44.2945,-22.0242,0.370726,0
44.3057,-21.894,0.371683,0
44.3144,-21.7634,0.372698,0
44.3205,-21.6326,0.373773,0
44.3242,-21.5016,0.374935,0
44.3252,-21.3705,0.376146,0
36.3666,-27.4442,0.454066,0
36.4984,-27.486,0.453655,0
36.631,-27.5248,0.453236,0
36.7645,-27.5606,0.452806,0
36.8986,-27.5934,0.452386,0
37.0334,-27.623,0.451966,0
37.1688,-27.6496,0.451536,0
37.3048,-27.6732,0.451107,0
37.4411,-27.6936,0.450677,0
37.5778,-27.7109,0.450247,0
37.7148,-27.7252,0.449808,0
37.8523,-27.7336,0.448821,0
37.9898,-27.7375,0.447513,0
38.1273,-27.7382,0.446204,0
38.2646,-27.7358,0.444905,0
38.4016,-27.7304,0.443607,0
38.5384,-27.7219,0.442308,0
38.6747,-27.7103,0.441019,0
38.8103,-27.6929,0.439154,0
38.9453,-27.6718,0.437152,0
39.0795,-27.6479,0.435179,0
39.213,-27.6212,0.433236,0
39.3456,-27.5916,0.431331,0
39.4773,-27.5592,0.429446,0
39.608,-27.5241,0.427611,0
39.7378,-27.4863,0.425794,0
39.8665,-27.4458,0.424017,0
39.9941,-27.4026,0.422269,0
40.1204,-27.3568,0.42056,0
40.2455,-27.3081,0.418831,0
40.3682,-27.2538,0.416448,0
40.4895,-27.1971,0.414124,0
40.6094,-27.138,0.411849,0
40.7277,-27.0765,0.409622,0
40.8444,-27.0128,0.407445,0
40.9595,-26.9467,0.405306,0
41.073,-26.8785,0.403226,0
41.1848,-26.808,0.401204,0
41.2949,-26.7355,0.399212,0
41.4033,-26.6608,0.397288,0
41.5098,-26.584,0.395423,0
41.6147,-26.5053,0.393597,0
41.7176,-26.4246,0.391829,0
41.8186,-26.3419,0.39012,0
41.9178,-26.2573,0.38846,0
42.0151,-26.171,0.386868,0
42.1112,-26.0837,0.38557,0
42.2053,-25.9946,0.384329,0
42.2975,-25.9038,0.383148,0
42.3877,-25.8113,0.382034,0
42.4759,-25.7171,0.38098,0
42.562,-25.6213,0.379974,0
42.6462,-25.5239,0.379036,0
42.7277,-25.4246,0.37803,0
42.8061,-25.3228,0.376771,0
42.8823,-25.2196,0.375579,0
42.9563,-25.1151,0.374456,0
43.0283,-25.0094,0.373421,0
43.098,-24.9024,0.372454,0
43.1655,-24.7941,0.371556,0
43.2309,-24.6848,0.370736,0
43.294,-24.5743,0.369993,0
43.3549,-24.4627,0.36931,0
43.4136,-24.3501,0.368704,0
43.4699,-24.2365,0.368187,0
43.5241,-24.1219,0.367728,0
43.5759,-24.0064,0.367357,0
43.6255,-23.8899,0.367044,0
43.6727,-23.7726,0.36681,0
43.7183,-23.6548,0.36679,0
43.7624,-23.5364,0.367044,0
43.8042,-23.4172,0.367357,0
43.8437,-23.2972,0.367747,0
43.8809,-23.1765,0.368216,0
43.9156,-23.0551,0.368753,0
43.9481,-22.933,0.369378,0
43.9783,-22.8104,0.370071,0
44.006,-22.6871,0.370843,0
44.0314,-22.5632,0.371683,0
44.0545,-22.4388,0.372601,0
44.0747,-22.314,0.373538,0
44.0915,-22.1885,0.37431,0
44.1059,-22.0627,0.37513,0
44.1177,-21.9366,0.376029,0
44.127,-21.8102,0.376995,0
44.134,-21.6836,0.378021,0
44.1384,-21.5568,0.379114,0
44.1403,-21.4299,0.380267,0
44.1398,-21.3028,0.381487,0
44.1374,-21.1756,0.382933,0
44.1336,-21.0483,0.384652,0
44.1272,-20.921,0.386419,0
44.1182,-20.7936,0.388255,0
44.1067,-20.6662,0.390159,0
36.394,-27.4531,0.453987,0
36.5259,-27.4944,0.453558,0
36.6588,-27.5325,0.453148,0
36.7924,-27.5677,0.452718,0
36.9267,-27.5998,0.452308,0
37.0617,-27.6288,0.451868,0
37.1972,-27.6548,0.451439,0
37.3332,-27.6777,0.451009,0
37.4696,-27.6975,0.450579,0
37.6064,-27.7142,0.45015,0
37.7434,-27.7277,0.44972,0
37.8809,-27.7347,0.448548,0
38.0186,-27.7379,0.447239,0
38.1559,-27.7379,0.445931,0
38.2932,-27.7349,0.444632,0
38.4302,-27.7288,0.443333,0
38.5669,-27.7197,0.442034,0
38.7031,-27.7075,0.440745,0
38.8386,-27.6887,0.438734,0
38.9734,-27.6671,0.436732,0
39.1075,-27.6426,0.434769,0
39.2409,-27.6152,0.432835,0
39.3732,-27.5851,0.430931,0
39.5047,-27.5521,0.429066,0
39.6352,-27.5165,0.42723,0
39.7648,-27.4781,0.425423,0
39.8932,-27.437,0.423655,0
40.0205,-27.3933,0.421907,0
40.1466,-27.3469,0.420208,0
40.2712,-27.297,0.418323,0
40.3937,-27.2422,0.41596,0
40.5146,-27.185,0.413655,0
40.6341,-27.1254,0.41138,0
40.7521,-27.0634,0.409163,0
40.8685,-26.9992,0.406986,0
40.9833,-26.9327,0.404866,0
41.0965,-26.864,0.402806,0
41.2079,-26.7931,0.400784,0
41.3177,-26.72,0.398812,0
41.4256,-26.6449,0.396898,0
41.5319,-26.5678,0.395032,0
41.6363,-26.4886,0.393226,0
41.7388,-26.4074,0.391468,0
41.8395,-26.3244,0.389769,0
41.9383,-26.2394,0.388118,0
42.0353,-26.1529,0.386585,0
42.131,-26.0652,0.385306,0
42.2247,-25.9758,0.384075,0
42.3165,-25.8846,0.382913,0
42.4062,-25.7918,0.3818,0
42.494,-25.6972,0.380765,0
42.5798,-25.6011,0.379779,0
42.6634,-25.5034,0.378851,0
42.7443,-25.4034,0.377767,0
42.8221,-25.3013,0.376517,0
42.8979,-25.1979,0.375335,0
42.9716,-25.0931,0.374241,0
43.043,-24.9871,0.373216,0
43.1123,-24.8799,0.372259,0
43.1794,-24.7714,0.37138,0
43.2442,-24.6618,0.37057,0
43.3069,-24.5511,0.369837,0
43.3673,-24.4393,0.369173,0
43.4255,-24.3265,0.368597,0
43.4814,-24.2126,0.368079,0
43.5351,-24.0978,0.36764,0
43.5864,-23.9821,0.367279,0
43.6355,-23.8655,0.366986,0
43.6823,-23.748,0.366771,0
43.7277,-23.6301,0.366839,0
43.7713,-23.5116,0.367093,0
43.8127,-23.3922,0.367435,0
43.8516,-23.2721,0.367835,0
43.8884,-23.1512,0.368323,0
43.9227,-23.0297,0.36888,0
43.9546,-22.9075,0.369525,0
43.9842,-22.7847,0.370228,0
44.0116,-22.6613,0.371019,0
44.0364,-22.5373,0.371878,0
44.0589,-22.4128,0.372806,0
44.0784,-22.2878,0.373685,0
44.0947,-22.1623,0.374476,0
44.1085,-22.0364,0.375316,0
44.1198,-21.9102,0.376224,0
44.1287,-21.7838,0.377191,0
44.1351,-21.6572,0.378245,0
44.139,-21.5303,0.379349,0
44.1404,-21.4033,0.380511,0
44.1393,-21.2763,0.381741,0
44.1368,-21.1491,0.383294,0
44.1325,-21.0217,0.385013,0
44.1255,-20.8944,0.3868,0
44.116,-20.767,0.388646,0
44.1041,-20.6396,0.39056,0
36.4215,-27.462,0.4539,0
36.5536,-27.5026,0.45348,0
36.6866,-27.5401,0.45306,0
36.8205,-27.5746,0.45263,0
36.9548,-27.6061,0.45221,0
37.0899,-27.6345,0.45178,0
37.2255,-27.6598,0.451361,0
37.3616,-27.6821,0.450931,0
37.4982,-27.7012,0.450491,0
37.6349,-27.7172,0.450052,0
37.7721,-27.7299,0.449573,0
37.9097,-27.7356,0.448275,0
38.0472,-27.7381,0.446966,0
38.1847,-27.7376,0.445667,0
38.3218,-27.7339,0.444359,0
38.4587,-27.7272,0.44307,0
38.5953,-27.7174,0.441771,0
38.7314,-27.7038,0.440325,0
38.8668,-27.6845,0.438304,0
39.0014,-27.6622,0.436321,0
39.1354,-27.6371,0.434368,0
39.2685,-27.6092,0.432435,0
39.4007,-27.5784,0.43054,0
39.5321,-27.5449,0.428675,0
39.6623,-27.5087,0.426839,0
39.7916,-27.4697,0.425042,0
39.9198,-27.4281,0.423284,0
40.047,-27.3838,0.421546,0
40.1728,-27.3369,0.419857,0
40.2969,-27.2858,0.417825,0
40.4191,-27.2304,0.415472,0
40.5398,-27.1727,0.413177,0
40.659,-27.1126,0.410911,0
40.7766,-27.0502,0.408704,0
40.8927,-26.9855,0.406546,0
41.0071,-26.9185,0.404437,0
41.1199,-26.8493,0.402376,0
41.231,-26.778,0.400364,0
41.3404,-26.7045,0.398411,0
41.448,-26.629,0.396507,0
41.5538,-26.5514,0.394652,0
41.6579,-26.4718,0.392855,0
41.7601,-26.3903,0.391107,0
41.8603,-26.3068,0.389417,0
41.9587,-26.2215,0.387777,0
42.0555,-26.1347,0.386321,0
42.1508,-26.0467,0.385042,0
42.244,-25.9569,0.383821,0
42.3354,-25.8654,0.382669,0
42.4248,-25.7722,0.381575,0
42.5121,-25.6773,0.38054,0
42.5974,-25.5808,0.379573,0
42.6807,-25.4828,0.378665,0
42.7608,-25.3822,0.377493,0
42.8382,-25.2798,0.376263,0
42.9134,-25.1761,0.375101,0
42.9866,-25.0711,0.374017,0
43.0577,-24.9648,0.373001,0
43.1265,-24.8573,0.372064,0
43.1931,-24.7486,0.371204,0
43.2575,-24.6388,0.370403,0
43.3197,-24.5278,0.369691,0
43.3796,-24.4158,0.369046,0
43.4373,-24.3028,0.36848,0
43.4928,-24.1887,0.367982,0
43.5459,-24.0737,0.367562,0
43.597,-23.9578,0.36722,0
43.6455,-23.841,0.366937,0
43.6918,-23.7234,0.366732,0
43.737,-23.6054,0.366888,0
43.7802,-23.4867,0.367161,0
43.8209,-23.3672,0.367503,0
43.8595,-23.2469,0.367943,0
43.8956,-23.1259,0.368431,0
43.9295,-23.0042,0.369017,0
43.961,-22.8819,0.369671,0
43.9901,-22.7589,0.370384,0
44.0169,-22.6354,0.371195,0
44.0413,-22.5113,0.372064,0
44.0634,-22.3868,0.373011,0
44.082,-22.2616,0.373841,0
44.0978,-22.136,0.374642,0
44.111,-22.0101,0.375501,0
44.1219,-21.8839,0.376419,0
44.1303,-21.7574,0.377405,0
44.1362,-21.6307,0.37847,0
44.1395,-21.5038,0.379583,0
44.1404,-21.3768,0.380765,0
36.4387,-27.2386,0.453841,0
36.5659,-27.2791,0.453441,0
36.6938,-27.3166,0.45303,0
36.8227,-27.3513,0.45262,0
36.9521,-27.383,0.45221,0
37.0821,-27.4117,0.45181,0
37.2128,-27.4375,0.45139,0
37.3439,-27.4603,0.45098,0
37.4755,-27.4801,0.45056,0
37.6074,-27.4969,0.45014,0
37.7396,-27.5108,0.44973,0
37.8723,-27.5185,0.448626,0
38.0051,-27.5224,0.447366,0
38.1377,-27.5234,0.446107,0
38.2702,-27.5213,0.444847,0
38.4026,-27.5163,0.443597,0
38.5345,-27.5084,0.442337,0
38.6661,-27.4974,0.441097,0
38.7973,-27.4836,0.439847,0
38.9279,-27.4668,0.438616,0
39.0577,-27.4446,0.43681,0
39.1868,-27.419,0.434935,0
39.315,-27.3908,0.433089,0
39.4423,-27.3599,0.431273,0
39.5689,-27.3263,0.429476,0
39.6943,-27.29,0.427718,0
39.8188,-27.2512,0.425999,0
39.9423,-27.2097,0.42432,0
40.0645,-27.1658,0.422659,0
40.1856,-27.1192,0.421028,0
40.3049,-27.0684,0.419027,0
40.4224,-27.0139,0.416771,0
40.5384,-26.9571,0.414564,0
40.653,-26.898,0.412396,0
40.7662,-26.8367,0.410286,0
40.8777,-26.7731,0.408216,0
40.9877,-26.7074,0.406204,0
41.0961,-26.6395,0.404222,0
41.2029,-26.5696,0.402308,0
41.3079,-26.4976,0.400433,0
41.4112,-26.4237,0.398616,0
41.5129,-26.3477,0.396849,0
41.6127,-26.2698,0.39513,0
41.7107,-26.19,0.39347,0
41.8075,-26.1091,0.392044,0
41.9025,-26.0266,0.390726,0
41.9957,-25.9422,0.389466,0
42.087,-25.8561,0.388255,0
42.1765,-25.7683,0.387112,0
42.264,-25.6789,0.386019,0
42.3496,-25.5878,0.384993,0
42.4333,-25.4951,0.384017,0
42.5149,-25.4009,0.383109,0
42.5945,-25.3052,0.382249,0
42.6721,-25.208,0.381458,0
42.7468,-25.1087,0.380482,0
42.8188,-25.0075,0.379398,0
42.8887,-24.9051,0.378382,0
42.9565,-24.8014,0.377435,0
43.0222,-24.6966,0.376566,0
43.0856,-24.5907,0.375755,0
43.147,-24.4836,0.375023,0
43.2062,-24.3755,0.374368,0
43.2632,-24.2663,0.373782,0
43.318,-24.1562,0.373265,0
43.3706,-24.0451,0.372825,0
43.421,-23.9331,0.372454,0
43.4692,-23.8202,0.372142,0
43.5151,-23.7065,0.371917,0
43.5602,-23.5925,0.372083,0
43.603,-23.4776,0.372318,0
43.6435,-23.362,0.37262,0
43.6818,-23.2456,0.373001,0
43.7179,-23.1286,0.37346,0
43.7516,-23.0108,0.373997,0
43.7831,-22.8924,0.374593,0
43.8123,-22.7733,0.375267,0
43.8391,-22.6537,0.376019,0
43.8636,-22.5335,0.37679,0
43.8845,-22.4127,0.377415,0
43.9032,-22.2914,0.378089,0
43.9194,-22.1698,0.378831,0
43.9333,-22.0478,0.379642,0
43.9447,-21.9255,0.380511,0
43.9537,-21.803,0.381448,0
43.9603,-21.6802,0.382445,0
43.9645,-21.5573,0.383499,0
43.9662,-21.4342,0.384632,0
43.9656,-21.311,0.385814,0
43.963,-21.1877,0.387191,0
43.9591,-21.0643,0.388851,0
43.9527,-20.9408,0.390579,0
43.9438,-20.8174,0.392366,0
43.9325,-20.6939,0.394212,0
36.4652,-27.2473,0.453753,0
36.5925,-27.2872,0.453353,0
36.7207,-27.3241,0.452943,0
36.8496,-27.3581,0.452542,0
36.9791,-27.3892,0.452132,0
37.1094,-27.4173,0.451722,0
37.2402,-27.4425,0.451312,0
37.3714,-27.4647,0.450892,0
37.503,-27.4839,0.450482,0
37.635,-27.5001,0.450052,0
37.7673,-27.5132,0.449622,0
37.9001,-27.5195,0.448362,0
38.0328,-27.5229,0.447103,0
38.1655,-27.5232,0.445843,0
38.2979,-27.5205,0.444583,0
38.4301,-27.5149,0.443343,0
38.562,-27.5063,0.442093,0
38.6935,-27.4948,0.440833,0
38.8245,-27.4804,0.439593,0
38.9552,-27.4628,0.438323,0
39.0848,-27.4394,0.436409,0
39.2136,-27.4134,0.434544,0
39.3417,-27.3846,0.432698,0
39.4689,-27.3531,0.430882,0
39.5951,-27.3189,0.429105,0
39.7204,-27.2821,0.427357,0
39.8447,-27.2427,0.425648,0
39.9679,-27.2008,0.423958,0
40.0898,-27.1562,0.422308,0
40.2108,-27.1092,0.420696,0
40.3295,-27.0572,0.418558,0
40.4468,-27.0023,0.416312,0
40.5625,-26.945,0.414105,0
40.6768,-26.8854,0.411946,0
40.7896,-26.8236,0.409847,0
40.9009,-26.7596,0.407786,0
41.0105,-26.6934,0.405784,0
41.1186,-26.6251,0.403831,0
41.2249,-26.5548,0.401917,0
41.3296,-26.4824,0.400052,0
41.4326,-26.408,0.398245,0
41.5338,-26.3316,0.396488,0
41.6333,-26.2533,0.394779,0
41.731,-26.1732,0.393138,0
41.8274,-26.092,0.391761,0
41.9221,-26.0091,0.390462,0
42.0149,-25.9244,0.389212,0
42.1059,-25.8379,0.388021,0
42.1949,-25.7498,0.386878,0
42.2821,-25.66,0.385804,0
42.3672,-25.5686,0.384788,0
42.4505,-25.4756,0.383821,0
42.5317,-25.381,0.382923,0
42.6109,-25.285,0.382073,0
42.6881,-25.1875,0.381302,0
42.762,-25.0877,0.380257,0
42.8336,-24.9862,0.379183,0
42.903,-24.8835,0.378177,0
42.9704,-24.7796,0.377249,0
43.0356,-24.6746,0.37639,0
43.0986,-24.5684,0.375599,0
43.1595,-24.4611,0.374886,0
43.2183,-24.3528,0.374241,0
43.2748,-24.2434,0.373665,0
43.3292,-24.1331,0.373177,0
43.3813,-24.0218,0.372747,0
43.4312,-23.9096,0.372386,0
43.479,-23.7965,0.372103,0
43.5247,-23.6827,0.371956,0
43.5692,-23.5686,0.372132,0
43.6116,-23.4536,0.372376,0
43.6516,-23.3378,0.372698,0
43.6895,-23.2212,0.373089,0
43.7251,-23.104,0.373568,0
43.7584,-22.9861,0.374105,0
43.7894,-22.8675,0.37473,0
43.8181,-22.7484,0.375413,0
43.8445,-22.6287,0.376185,0
43.8681,-22.5083,0.376917,0
43.8886,-22.3874,0.377552,0
43.9068,-22.266,0.378236,0
43.9225,-22.1443,0.378997,0
43.9359,-22.0223,0.379818,0
43.9468,-21.8999,0.380706,0
43.9553,-21.7773,0.381654,0
43.9614,-21.6545,0.382659,0
43.9651,-21.5316,0.383743,0
43.9662,-21.4085,0.384866,0
43.9652,-21.2853,0.386068,0
43.9624,-21.162,0.387532,0
43.958,-21.0385,0.389212,0
43.9511,-20.9151,0.39095,0
43.9417,-20.7916,0.392747,0
43.9298,-20.6682,0.394603,0
36.4916,-27.2559,0.453675,0
36.6192,-27.2951,0.453275,0
36.7475,-27.3315,0.452864,0
36.8766,-27.3649,0.452464,0
37.0063,-27.3953,0.452044,0
37.1366,-27.4228,0.451634,0
37.2676,-27.4474,0.451224,0
37.3989,-27.4689,0.450804,0
37.5305,-27.4875,0.450394,0
37.6627,-27.5031,0.449974,0
37.795,-27.5148,0.449359,0
37.9278,-27.5205,0.448099,0
38.0605,-27.5232,0.446849,0
38.1931,-27.5229,0.445579,0
38.3255,-27.5196,0.444329,0
38.4577,-27.5134,0.44307,0
38.5895,-27.5042,0.441829,0
38.7209,-27.492,0.44057,0
38.852,-27.4769,0.439329,0
38.9823,-27.4581,0.437913,0
39.1117,-27.4342,0.436019,0
39.2405,-27.4076,0.434153,0
39.3683,-27.3782,0.432318,0
39.4953,-27.3462,0.430511,0
39.6213,-27.3114,0.428743,0
39.7464,-27.2741,0.426995,0
39.8705,-27.2342,0.425286,0
39.9934,-27.1917,0.423616,0
40.1152,-27.1466,0.421966,0
40.2359,-27.0991,0.420364,0
40.3541,-27.0459,0.418079,0
40.4711,-26.9905,0.415843,0
40.5865,-26.9327,0.413655,0
40.7005,-26.8727,0.411507,0
40.813,-26.8104,0.409417,0
40.9239,-26.7459,0.407366,0
41.0332,-26.6793,0.405374,0
41.1409,-26.6106,0.403411,0
41.2469,-26.5398,0.401517,0
41.3513,-26.467,0.399671,0
41.4539,-26.3922,0.397874,0
41.5548,-26.3154,0.396126,0
41.6539,-26.2367,0.394427,0
41.7513,-26.1564,0.392845,0
41.8473,-26.0749,0.391488,0
41.9416,-25.9916,0.390198,0
42.0341,-25.9065,0.388958,0
42.1247,-25.8197,0.387777,0
42.2133,-25.7312,0.386654,0
42.3,-25.6411,0.385589,0
42.3848,-25.5493,0.384573,0
42.4676,-25.456,0.383636,0
42.5484,-25.3611,0.382737,0
42.6272,-25.2648,0.381917,0
42.7039,-25.167,0.381146,0
42.7771,-25.0666,0.380023,0
42.8483,-24.9649,0.378968,0
42.9173,-24.8619,0.377972,0
42.9841,-24.7578,0.377064,0
43.0489,-24.6525,0.376224,0
43.1115,-24.5461,0.375443,0
43.172,-24.4386,0.374749,0
43.2302,-24.33,0.374114,0
43.2863,-24.2204,0.373558,0
43.3402,-24.1099,0.37307,0
43.392,-23.9984,0.372659,0
43.4415,-23.8861,0.372308,0
43.4887,-23.7728,0.372044,0
43.5342,-23.659,0.371976,0
43.5783,-23.5446,0.372171,0
43.6202,-23.4295,0.372435,0
43.6598,-23.3135,0.372777,0
43.6971,-23.1968,0.373187,0
43.7323,-23.0795,0.373675,0
43.7651,-22.9614,0.374241,0
43.7956,-22.8427,0.374857,0
43.8237,-22.7234,0.37557,0
43.8497,-22.6036,0.376351,0
43.8727,-22.4831,0.377044,0
43.8927,-22.3621,0.377689,0
43.9102,-22.2406,0.378392,0
43.9255,-22.1189,0.379163,0
43.9383,-21.9967,0.379993,0
43.9487,-21.8743,0.380892,0
43.9567,-21.7517,0.381859,0
43.9623,-21.6289,0.382874,0
43.9655,-21.5059,0.383958,0
43.9662,-21.3828,0.38512,0
36.5061,-27.0464,0.453626,0
36.6289,-27.0856,0.453236,0
36.7526,-27.122,0.452845,0
36.877,-27.1555,0.452464,0
37.0021,-27.1862,0.452054,0
37.1277,-27.214,0.451663,0
37.2539,-27.239,0.451263,0
37.3806,-27.2612,0.450862,0
37.5077,-27.2804,0.450462,0
37.6352,-27.2967,0.450052,0
37.7628,-27.3102,0.449652,0
37.8912,-27.3172,0.448441,0
38.0194,-27.3212,0.44723,0
38.1476,-27.3224,0.446019,0
38.2756,-27.3207,0.444808,0
38.4034,-27.316,0.443587,0
38.5309,-27.3086,0.442376,0
38.658,-27.2983,0.441175,0
38.7849,-27.2851,0.439964,0
38.9112,-27.2692,0.438773,0
39.037,-27.2504,0.437571,0
39.1621,-27.2288,0.43639,0
39.2862,-27.2024,0.43473,0
39.4096,-27.1728,0.432962,0
39.532,-27.1406,0.431234,0
39.6535,-27.1058,0.429534,0
39.7741,-27.0685,0.427864,0
