53.877,-53.6165,-0.503405,0
53.9548,-53.5778,-0.512028,0
54.0319,-53.5374,-0.520544,0
54.1079,-53.4952,-0.528932,0
54.183,-53.4513,-0.537204,0
54.2571,-53.4057,-0.545358,0
54.3302,-53.3584,-0.553376,0
54.3986,-53.3046,-0.563117,0
54.465,-53.2486,-0.572985,0
54.5299,-53.191,-0.582741,0
54.5933,-53.1318,-0.592375,0
54.655,-53.0712,-0.601896,0
54.7152,-53.0092,-0.611296,0
54.7737,-52.9458,-0.620558,0
54.8305,-52.8811,-0.62968,0
54.8855,-52.8151,-0.638669,0
54.9389,-52.7479,-0.647502,0
54.9905,-52.6795,-0.656188,0
55.0404,-52.61,-0.664723,0
55.0891,-52.5399,-0.672868,0
55.1363,-52.469,-0.68071,0
55.1818,-52.397,-0.68841,0
55.2254,-52.324,-0.695959,0
55.267,-52.2501,-0.703351,0
55.3068,-52.1753,-0.710578,0
55.3447,-52.0996,-0.717634,0
55.3806,-52.0231,-0.724528,0
55.4145,-51.9459,-0.731252,0
55.4466,-51.868,-0.73779,0
55.4766,-51.7894,-0.744157,0
55.5047,-51.7102,-0.750344,0
55.5308,-51.6306,-0.75634,0
55.5548,-51.5504,-0.76215,0
55.577,-51.4698,-0.76777,0
55.5971,-51.3888,-0.77319,0
55.6152,-51.3075,-0.778429,0
55.6312,-51.2259,-0.783464,0
55.6453,-51.1441,-0.788298,0
55.6575,-51.0621,-0.792927,0
55.6676,-50.9799,-0.79736,0
55.6757,-50.8978,-0.801589,0
55.6837,-50.8158,-0.805163,0
55.6901,-50.7338,-0.80842,0
55.6945,-50.6518,-0.811476,0
55.697,-50.5698,-0.814333,0
55.6976,-50.4878,-0.816984,0
55.6962,-50.406,-0.819421,0
55.6928,-50.3243,-0.821662,0
55.6881,-50.2428,-0.823576,0
55.6848,-50.1613,-0.82446,0
55.6795,-50.08,-0.825124,0
55.6726,-49.9988,-0.825563,0
55.6637,-49.9178,-0.825778,0
55.653,-49.8371,-0.825773,0
55.6405,-49.7566,-0.825534,0
55.6261,-49.6764,-0.825085,0
55.61,-49.5965,-0.824406,0
51.3102,-53.7901,-0.249855,0
51.392,-53.8182,-0.256047,0
51.4743,-53.8444,-0.262306,0
51.5574,-53.8687,-0.268649,0
51.6412,-53.8911,-0.27506,0
51.7256,-53.9116,-0.28154,0
51.8106,-53.9302,-0.288078,0
51.8962,-53.9468,-0.294684,0
51.9822,-53.9613,-0.301398,0
52.0688,-53.9698,-0.30966,0
52.1557,-53.9763,-0.317941,0
52.2427,-53.9809,-0.326227,0
52.3298,-53.9834,-0.334509,0
52.417,-53.984,-0.342785,0
52.5043,-53.9827,-0.351056,0
52.5916,-53.9791,-0.359377,0
52.6783,-53.9694,-0.369186,0
52.7646,-53.9578,-0.378942,0
52.8507,-53.9442,-0.388649,0
52.9363,-53.9286,-0.398303,0
53.0216,-53.9111,-0.407902,0
53.1064,-53.8917,-0.417433,0
53.1908,-53.8704,-0.426901,0
53.2746,-53.8471,-0.436305,0
53.3579,-53.822,-0.445617,0
53.4405,-53.795,-0.454855,0
53.5226,-53.7662,-0.464011,0
53.6039,-53.7355,-0.473083,0
53.6846,-53.7029,-0.482053,0
53.7645,-53.6686,-0.490925,0
53.8435,-53.6325,-0.499704,0
53.9217,-53.5945,-0.508366,0
53.9991,-53.5548,-0.516921,0
54.0755,-53.5134,-0.525368,0
54.1511,-53.4702,-0.533698,0
54.2257,-53.4253,-0.541901,0
54.2992,-53.3788,-0.549972,0
54.3698,-53.328,-0.558874,0
54.4369,-53.2727,-0.568781,0
54.5025,-53.2157,-0.578586,0
54.5665,-53.1572,-0.588283,0
54.6289,-53.0972,-0.597853,0
54.6898,-53.0358,-0.607302,0
54.749,-52.973,-0.616623,0
54.8064,-52.9089,-0.625807,0
54.8623,-52.8434,-0.634855,0
54.9164,-52.7767,-0.643757,0
54.9688,-52.7088,-0.652511,0
55.0193,-52.6397,-0.661105,0
55.0684,-52.5697,-0.669474,0
55.1164,-52.4993,-0.677385,0
55.1627,-52.4278,-0.685148,0
55.207,-52.3553,-0.692761,0
55.2495,-52.2817,-0.700217,0
55.2901,-52.2073,-0.707516,0
55.3288,-52.132,-0.714645,0
55.3655,-52.0558,-0.721613,0
55.4003,-51.9789,-0.72841,0
55.4332,-51.9013,-0.735031,0
55.4641,-51.823,-0.741462,0
55.493,-51.7441,-0.747726,0
55.5198,-51.6646,-0.753801,0
55.5448,-51.5846,-0.759694,0
55.5677,-51.5042,-0.765402,0
55.5887,-51.4234,-0.7709,0
55.6077,-51.3422,-0.776218,0
55.6246,-51.2607,-0.781335,0
55.6396,-51.179,-0.786257,0
55.6526,-51.097,-0.790978,0
55.6635,-51.015,-0.7955,0
55.6725,-50.9328,-0.799816,0
55.6803,-50.8507,-0.803703,0
55.6876,-50.7687,-0.807052,0
55.6929,-50.6867,-0.810197,0
55.6962,-50.6047,-0.813141,0
55.6976,-50.5227,-0.815876,0
55.697,-50.4408,-0.81841,0
55.6945,-50.3591,-0.820729,0
55.6902,-50.2775,-0.822848,0
55.6864,-50.1961,-0.824108,0
55.682,-50.1147,-0.824865,0
55.6758,-50.0334,-0.825407,0
55.6677,-49.9523,-0.82572,0
55.6578,-49.8715,-0.825803,0
55.646,-49.7909,-0.825671,0
55.6324,-49.7105,-0.825304,0
55.617,-49.6305,-0.824723,0
55.5998,-49.5509,-0.823918,0
51.2757,-53.7775,-0.247243,0
51.357,-53.8064,-0.2534,0
51.4391,-53.8334,-0.259636,0
51.5219,-53.8586,-0.265944,0
51.6054,-53.8818,-0.272326,0
51.6895,-53.9031,-0.278771,0
51.7743,-53.9225,-0.28528,0
51.8596,-53.94,-0.291867,0
51.9455,-53.9554,-0.298512,0
52.0319,-53.9664,-0.306135,0
52.1186,-53.9738,-0.314406,0
52.2055,-53.9792,-0.322687,0
52.2926,-53.9826,-0.330973,0
52.3798,-53.984,-0.339255,0
52.4672,-53.9835,-0.347531,0
52.5544,-53.981,-0.355798,0
52.6413,-53.9738,-0.365002,0
52.7278,-53.963,-0.374782,0
52.8141,-53.9502,-0.384509,0
52.8998,-53.9355,-0.394196,0
52.9854,-53.9188,-0.40382,0
53.0703,-53.9002,-0.413376,0
53.1549,-53.8797,-0.422873,0
53.239,-53.8573,-0.432306,0
53.3224,-53.833,-0.441652,0
53.4054,-53.8068,-0.450925,0
53.4877,-53.7787,-0.460119,0
53.5693,-53.7488,-0.469225,0
53.6502,-53.717,-0.478244,0
53.7304,-53.6835,-0.487155,0
54.4419,-53.1568,-0.574118,0
54.5048,-53.0999,-0.58361,0
54.566,-53.0417,-0.592985,0
54.6259,-52.982,-0.602238,0
54.684,-52.921,-0.611364,0
54.7405,-52.8586,-0.620368,0
54.7954,-52.7949,-0.629235,0
54.8486,-52.73,-0.637971,0
54.9002,-52.6639,-0.646545,0
54.9499,-52.5967,-0.654982,0
54.998,-52.5284,-0.663263,0
55.0444,-52.4591,-0.671384,0
55.0895,-52.3892,-0.679108,0
55.1333,-52.3185,-0.686579,0
55.1752,-52.2469,-0.693884,0
55.2152,-52.1744,-0.701047,0
55.2534,-52.101,-0.708053,0
55.2896,-52.0268,-0.714885,0
55.3241,-51.9518,-0.721564,0
55.3566,-51.8761,-0.728063,0
55.3872,-51.7998,-0.734391,0
55.4159,-51.7228,-0.740553,0
55.4425,-51.6453,-0.746525,0
55.4673,-51.5673,-0.752321,0
55.4902,-51.4888,-0.757936,0
55.5111,-51.4099,-0.763356,0
55.53,-51.3306,-0.768586,0
55.547,-51.2511,-0.773639,0
55.562,-51.1712,-0.778483,0
55.5752,-51.0912,-0.783136,0
55.5863,-51.011,-0.787599,0
55.5955,-50.9308,-0.791862,0
55.6036,-50.8505,-0.7957,0
55.611,-50.7704,-0.799015,0
55.6166,-50.6903,-0.802131,0
55.6202,-50.6101,-0.805041,0
55.622,-50.5299,-0.807756,0
55.6218,-50.4498,-0.81027,0
55.6197,-50.3698,-0.812585,0
55.6172,-50.29,-0.814318,0
55.615,-50.2103,-0.815314,0
55.611,-50.1306,-0.816081,0
55.6052,-50.051,-0.816647,0
55.5975,-49.9717,-0.816984,0
55.5881,-49.8925,-0.817101,0
55.5769,-49.8135,-0.816994,0
55.5638,-49.7348,-0.816681,0
55.5491,-49.6565,-0.816135,0
55.5325,-49.5785,-0.815378,0
51.3655,-53.7271,-0.254826,0
51.4458,-53.7537,-0.260915,0
51.5267,-53.7785,-0.267077,0
51.6083,-53.8014,-0.273317,0
51.6905,-53.8224,-0.279621,0
51.7734,-53.8415,-0.285983,0
51.8569,-53.8587,-0.292419,0
51.9408,-53.874,-0.298903,0
52.0252,-53.8873,-0.305456,0
52.11,-53.896,-0.313102,0
52.1952,-53.9015,-0.321213,0
52.2803,-53.9051,-0.329318,0
52.3658,-53.9067,-0.337429,0
52.4512,-53.9064,-0.345534,0
52.5366,-53.9042,-0.353625,0
52.6219,-53.8984,-0.362316,0
52.7066,-53.8881,-0.371887,0
52.791,-53.8759,-0.381428,0
52.8751,-53.8618,-0.390905,0
52.9588,-53.8458,-0.400344,0
53.0421,-53.8279,-0.409709,0
53.125,-53.8081,-0.41902,0
53.2074,-53.7865,-0.428254,0
53.2892,-53.7629,-0.437429,0
53.3705,-53.7376,-0.446525,0
53.4512,-53.7104,-0.455534,0
53.5312,-53.6814,-0.464455,0
53.6105,-53.6506,-0.473298,0
53.6891,-53.618,-0.482043,0
53.767,-53.5836,-0.49069,0
53.8441,-53.5474,-0.49924,0
53.9204,-53.5096,-0.507677,0
53.9957,-53.47,-0.516012,0
54.0702,-53.4287,-0.524225,0
54.1438,-53.3857,-0.532331,0
54.2155,-53.3397,-0.540817,0
54.2833,-53.2882,-0.550656,0
54.3497,-53.2351,-0.560402,0
54.4146,-53.1805,-0.570036,0
54.4781,-53.1244,-0.579572,0
54.5401,-53.0667,-0.589006,0
54.6005,-53.0076,-0.598312,0
54.6594,-52.9471,-0.607497,0
54.7166,-52.8853,-0.616545,0
54.7722,-52.8222,-0.625475,0
54.8262,-52.7578,-0.63426,0
54.8784,-52.6922,-0.642902,0
54.9289,-52.6255,-0.651403,0
54.9778,-52.5577,-0.659748,0
55.0248,-52.4887,-0.667936,0
55.0704,-52.419,-0.675876,0
55.1148,-52.3488,-0.68341,0
55.1575,-52.2776,-0.690783,0
55.1983,-52.2054,-0.698014,0
55.2373,-52.1324,-0.70509,0
55.2744,-52.0585,-0.711994,0
55.3096,-51.9839,-0.718737,0
55.3429,-51.9085,-0.725314,0
55.3744,-51.8324,-0.731725,0
55.4038,-51.7557,-0.737946,0
55.4313,-51.6784,-0.744001,0
55.457,-51.6006,-0.74988,0
55.4807,-51.5223,-0.755563,0
55.5024,-51.4436,-0.761066,0
55.5221,-51.3644,-0.766379,0
55.54,-51.285,-0.771511,0
55.5559,-51.2053,-0.776442,0
55.5698,-51.1254,-0.781178,0
55.5818,-51.0452,-0.78572,0
55.5918,-50.965,-0.79006,0
55.5998,-50.8847,-0.794216,0
55.6081,-50.8046,-0.797629,0
55.6145,-50.7244,-0.800822,0
55.619,-50.6443,-0.803825,0
55.6214,-50.5641,-0.806623,0
55.6221,-50.4839,-0.809225,0
55.6209,-50.4039,-0.811623,0
55.6177,-50.324,-0.81382,0
55.6162,-50.2443,-0.814909,0
55.6129,-50.1646,-0.815778,0
55.6079,-50.0849,-0.816428,0
55.601,-50.0055,-0.816862,0
55.5923,-49.9262,-0.817077,0
55.5819,-49.8472,-0.817062,0
55.5696,-49.7683,-0.816847,0
55.5556,-49.6899,-0.816393,0
55.5398,-49.6117,-0.815734,0
51.3316,-53.7152,-0.252258,0
51.4116,-53.7426,-0.258307,0
51.4921,-53.7682,-0.26444,0
51.5735,-53.7918,-0.270651,0
51.6555,-53.8137,-0.276916,0
51.738,-53.8336,-0.283263,0
51.8212,-53.8516,-0.28967,0
51.9049,-53.8677,-0.29613,0
51.9891,-53.8819,-0.302658,0
52.0738,-53.893,-0.309655,0
52.1587,-53.8994,-0.317756,0
52.244,-53.9038,-0.325866,0
52.3293,-53.9063,-0.333971,0
52.4148,-53.9068,-0.342077,0
52.5002,-53.9054,-0.350173,0
52.5856,-53.902,-0.358263,0
52.6705,-53.8927,-0.367804,0
52.755,-53.8813,-0.377365,0
52.8392,-53.868,-0.386867,0
52.9231,-53.8529,-0.39632,0
53.0067,-53.8358,-0.40572,0
53.0897,-53.8168,-0.415055,0
53.1723,-53.7959,-0.424328,0
53.2544,-53.7732,-0.433527,0
53.3359,-53.7486,-0.442648,0
53.4169,-53.7222,-0.451701,0
53.4971,-53.694,-0.460666,0
53.5769,-53.6639,-0.469538,0
53.6558,-53.6321,-0.478327,0
53.734,-53.5984,-0.487018,0
53.8114,-53.5631,-0.495607,0
53.888,-53.5259,-0.504094,0
53.9637,-53.4871,-0.512472,0
54.0387,-53.4465,-0.520744,0
54.1126,-53.4042,-0.528888,0
54.1856,-53.3603,-0.536926,0
54.2546,-53.3103,-0.546476,0
54.3216,-53.258,-0.556252,0
54.3871,-53.204,-0.565944,0
54.4512,-53.1485,-0.575524,0
54.5138,-53.0915,-0.584997,0
54.5749,-53.033,-0.594357,0
54.6345,-52.9731,-0.603591,0
54.6924,-52.9118,-0.612707,0
54.7487,-52.8493,-0.621681,0
54.8033,-52.7854,-0.630534,0
54.8563,-52.7203,-0.63924,0
54.9076,-52.6541,-0.6478,0
54.9571,-52.5867,-0.656213,0
55.005,-52.5182,-0.66447,0
55.051,-52.4487,-0.672565,0
55.0961,-52.3788,-0.680212,0
55.1395,-52.3081,-0.687658,0
55.1811,-52.2363,-0.694948,0
55.2209,-52.1636,-0.702092,0
55.2588,-52.0901,-0.709069,0
55.2948,-52.0158,-0.715881,0
55.329,-51.9407,-0.722531,0
55.3612,-51.8649,-0.729006,0
55.3915,-51.7885,-0.735309,0
55.4199,-51.7114,-0.741442,0
55.4463,-51.6338,-0.747394,0
55.4708,-51.5557,-0.753161,0
55.4934,-51.4772,-0.758737,0
55.514,-51.3982,-0.764142,0
55.5327,-51.3189,-0.769343,0
55.5494,-51.2393,-0.774357,0
55.5641,-51.1595,-0.779181,0
55.5769,-51.0794,-0.78381,0
55.5877,-50.9992,-0.788239,0
55.5966,-50.9189,-0.792468,0
55.6048,-50.8387,-0.796203,0
55.612,-50.7586,-0.799484,0
55.6173,-50.6784,-0.802575,0
55.6206,-50.5983,-0.805461,0
55.622,-50.5181,-0.808141,0
55.6216,-50.438,-0.810622,0
55.6192,-50.3581,-0.812912,0
55.617,-50.2783,-0.814474,0
55.6146,-50.1985,-0.815436,0
55.6103,-50.1189,-0.816183,0
55.6041,-50.0393,-0.816706,0
55.5962,-49.96,-0.817013,0
55.5866,-49.8808,-0.817096,0
55.5751,-49.8019,-0.81697,0
55.5618,-49.7233,-0.816608,0
55.5467,-49.645,-0.816042,0
55.5299,-49.5671,-0.815251,0
51.2977,-53.703,-0.249689,0
51.3773,-53.7312,-0.255724,0
51.4577,-53.7575,-0.261818,0
51.5387,-53.782,-0.267995,0
51.6205,-53.8046,-0.27424,0
51.7028,-53.8253,-0.280549,0
51.7857,-53.8442,-0.286935,0
51.8692,-53.8611,-0.293371,0
51.9532,-53.8761,-0.29987,0
52.0377,-53.8891,-0.306423,0
52.1226,-53.8969,-0.314304,0
52.2077,-53.9021,-0.322409,0
52.2929,-53.9055,-0.33051,0
52.3783,-53.9068,-0.33862,0
52.4637,-53.9062,-0.346725,0
52.5492,-53.9037,-0.354816,0
52.6343,-53.897,-0.363722,0
52.719,-53.8864,-0.373298,0
52.8034,-53.8739,-0.382824,0
52.8874,-53.8596,-0.392306,0
52.9711,-53.8433,-0.401725,0
53.0544,-53.8251,-0.411081,0
53.1371,-53.805,-0.420387,0
53.2195,-53.7831,-0.429611,0
53.3013,-53.7593,-0.438776,0
53.3824,-53.7337,-0.447853,0
53.463,-53.7062,-0.456852,0
53.5429,-53.677,-0.465768,0
53.6222,-53.6459,-0.474592,0
53.7007,-53.613,-0.483322,0
54.3929,-53.092,-0.571208,0
54.4545,-53.0366,-0.580485,0
54.5145,-52.9798,-0.589655,0
54.573,-52.9216,-0.598703,0
54.6299,-52.862,-0.607638,0
54.6852,-52.8011,-0.616442,0
54.739,-52.739,-0.625114,0
54.7911,-52.6757,-0.633654,0
54.8416,-52.6112,-0.642048,0
54.8904,-52.5456,-0.6503,0
54.9375,-52.4789,-0.65841,0
54.9829,-52.4111,-0.666354,0
55.0265,-52.3425,-0.674142,0
55.0686,-52.273,-0.681706,0
55.1096,-52.2031,-0.688859,0
55.1489,-52.1323,-0.695866,0
55.1863,-52.0606,-0.702717,0
55.2219,-51.9881,-0.709411,0
55.2557,-51.9149,-0.715944,0
55.2875,-51.841,-0.722311,0
55.3176,-51.7664,-0.728508,0
55.3457,-51.6912,-0.734533,0
55.372,-51.6155,-0.740387,0
55.3963,-51.5392,-0.746061,0
55.4187,-51.4625,-0.751554,0
55.4393,-51.3855,-0.756867,0
55.458,-51.308,-0.762004,0
55.4747,-51.2303,-0.766945,0
55.4895,-51.1522,-0.771696,0
55.5024,-51.074,-0.776262,0
55.5134,-50.9956,-0.780636,0
55.5226,-50.9172,-0.784816,0
55.5309,-50.8388,-0.788498,0
55.5384,-50.7604,-0.79175,0
55.5439,-50.682,-0.794797,0
55.5476,-50.6036,-0.797658,0
55.5493,-50.5252,-0.800329,0
55.5492,-50.4468,-0.802795,0
55.5483,-50.3686,-0.804797,0
55.5479,-50.2905,-0.805978,0
55.5458,-50.2124,-0.806955,0
55.5419,-50.1344,-0.807717,0
55.5362,-50.0565,-0.808268,0
55.5287,-49.9788,-0.8086,0
55.5195,-49.9012,-0.808708,0
55.5085,-49.8239,-0.80861,0
55.4958,-49.7469,-0.808303,0
55.4812,-49.6702,-0.80777,0
55.465,-49.5938,-0.807033,0
51.3854,-53.6548,-0.257087,0
51.4639,-53.6807,-0.263039,0
51.5432,-53.7048,-0.269079,0
51.6231,-53.7271,-0.275187,0
51.7036,-53.7476,-0.281354,0
51.7848,-53.7662,-0.28759,0
51.8664,-53.7829,-0.293888,0
51.9485,-53.7978,-0.300241,0
52.0311,-53.8107,-0.306647,0
52.1141,-53.8217,-0.313107,0
52.1974,-53.8273,-0.320954,0
52.2809,-53.8308,-0.328898,0
52.3645,-53.8323,-0.336838,0
52.4481,-53.832,-0.344777,0
52.5319,-53.8298,-0.352702,0
52.6153,-53.8243,-0.361095,0
52.6983,-53.8143,-0.37048,0
52.781,-53.8024,-0.379826,0
52.8634,-53.7886,-0.389113,0
52.9454,-53.7729,-0.398342,0
53.027,-53.7554,-0.407526,0
53.1081,-53.7361,-0.416647,0
53.1888,-53.7149,-0.4257,0
53.269,-53.6919,-0.434675,0
53.3486,-53.6671,-0.443581,0
53.4277,-53.6404,-0.452404,0
53.506,-53.612,-0.461159,0
53.5837,-53.5819,-0.469811,0
53.6608,-53.5499,-0.478376,0
53.737,-53.5163,-0.486847,0
53.8125,-53.4809,-0.495212,0
53.8872,-53.4438,-0.503483,0
53.9611,-53.405,-0.511642,0
54.034,-53.3645,-0.519694,0
54.1037,-53.319,-0.528957,0
54.1714,-53.2704,-0.538659,0
54.2377,-53.2202,-0.548278,0
54.3027,-53.1685,-0.557795,0
54.3663,-53.1152,-0.567219,0
54.4284,-53.0604,-0.576545,0
54.4891,-53.0042,-0.585763,0
54.5482,-52.9466,-0.594865,0
54.6058,-52.8876,-0.603849,0
54.6619,-52.8272,-0.612707,0
54.7163,-52.7656,-0.621437,0
54.7691,-52.7028,-0.630031,0
54.8203,-52.6388,-0.638488,0
54.8698,-52.5736,-0.646803,0
54.9176,-52.5074,-0.654968,0
54.9637,-52.4401,-0.662985,0
55.0081,-52.3719,-0.670842,0
55.0508,-52.3026,-0.678542,0
55.0923,-52.233,-0.685832,0
55.1324,-52.1626,-0.692902,0
55.1705,-52.0912,-0.699821,0
55.207,-52.0191,-0.706579,0
55.2415,-51.9462,-0.71318,0
55.2741,-51.8726,-0.719621,0
55.305,-51.7983,-0.725886,0
55.334,-51.7233,-0.731984,0
55.361,-51.6478,-0.737907,0
55.3861,-51.5718,-0.743659,0
55.4095,-51.4953,-0.749235,0
55.4308,-51.4184,-0.754631,0
55.4502,-51.3411,-0.759836,0
55.4678,-51.2634,-0.76486,0
55.4834,-51.1855,-0.769694,0
55.4972,-51.1074,-0.774338,0
55.509,-51.0291,-0.778796,0
55.519,-50.9506,-0.783058,0
55.5273,-50.8721,-0.787057,0
55.5355,-50.7938,-0.790383,0
55.5417,-50.7155,-0.793522,0
55.5462,-50.637,-0.796462,0
55.5487,-50.5586,-0.799211,0
55.5495,-50.4802,-0.801769,0
55.5483,-50.4019,-0.804123,0
55.5483,-50.3238,-0.8055,0
55.547,-50.2457,-0.806564,0
55.5437,-50.1676,-0.807414,0
55.5388,-50.0897,-0.808058,0
55.5321,-50.0119,-0.808483,0
55.5236,-49.9343,-0.808688,0
55.5134,-49.8569,-0.808683,0
55.5013,-49.7797,-0.808459,0
55.4876,-49.7029,-0.808024,0
55.4722,-49.6263,-0.80737,0
51.3521,-53.6432,-0.254562,0
51.4304,-53.6699,-0.260495,0
51.5093,-53.6948,-0.266506,0
51.5889,-53.7178,-0.272575,0
51.6692,-53.7391,-0.278713,0
51.7501,-53.7585,-0.284924,0
51.8315,-53.776,-0.291198,0
51.9134,-53.7917,-0.297531,0
51.9959,-53.8054,-0.303908,0
52.0787,-53.8172,-0.310344,0
52.1619,-53.8252,-0.317575,0
52.2452,-53.8295,-0.325514,0
52.3289,-53.8319,-0.333454,0
52.4125,-53.8324,-0.341398,0
52.4962,-53.831,-0.349323,0
52.5798,-53.8276,-0.357238,0
52.663,-53.8188,-0.366491,0
52.7458,-53.8077,-0.375846,0
52.8283,-53.7947,-0.385158,0
52.9105,-53.7798,-0.394416,0
52.9922,-53.7631,-0.403615,0
53.0736,-53.7446,-0.412765,0
53.1545,-53.7241,-0.421843,0
53.2349,-53.7019,-0.430856,0
53.3148,-53.6779,-0.439792,0
53.394,-53.652,-0.448654,0
53.4727,-53.6244,-0.457433,0
53.5507,-53.5949,-0.466125,0
53.628,-53.5637,-0.474743,0
53.7045,-53.5308,-0.483244,0
53.7804,-53.4962,-0.491652,0
53.8554,-53.4598,-0.499968,0
53.9297,-53.4217,-0.508171,0
54.003,-53.382,-0.516276,0
54.0745,-53.3392,-0.524806,0
54.1427,-53.2913,-0.534533,0
54.2096,-53.2418,-0.544186,0
54.2752,-53.1908,-0.553747,0
54.3394,-53.1381,-0.563215,0
54.4021,-53.084,-0.57258,0
54.4634,-53.0283,-0.581852,0
54.5232,-52.9713,-0.590998,0
54.5814,-52.9129,-0.600031,0
54.6381,-52.8531,-0.608942,0
54.6933,-52.792,-0.617726,0
54.7468,-52.7297,-0.626384,0
54.7987,-52.6662,-0.634904,0
54.8489,-52.6016,-0.643278,0
54.8975,-52.5358,-0.651506,0
54.9443,-52.4689,-0.659587,0
54.9894,-52.4011,-0.667516,0
55.0328,-52.3322,-0.675285,0
55.0748,-52.2627,-0.682765,0
55.1155,-52.1927,-0.689904,0
55.1545,-52.1217,-0.696886,0
55.1916,-52.05,-0.703708,0
55.227,-51.9774,-0.710383,0
55.2605,-51.904,-0.716887,0
55.2921,-51.83,-0.723234,0
55.3218,-51.7553,-0.729411,0
55.3497,-51.6801,-0.735407,0
55.3756,-51.6043,-0.741232,0
55.3997,-51.528,-0.746882,0
55.422,-51.4512,-0.752355,0
55.4421,-51.3741,-0.757638,0
55.4605,-51.2966,-0.762736,0
55.477,-51.2188,-0.767658,0
55.4916,-51.1407,-0.772385,0
55.5042,-51.0625,-0.776916,0
55.515,-50.9841,-0.781262,0
55.5238,-50.9056,-0.785417,0
55.5322,-50.8272,-0.788986,0
55.5393,-50.7489,-0.792209,0
55.5445,-50.6705,-0.795236,0
55.5479,-50.592,-0.798068,0
55.5495,-50.5136,-0.8007,0
55.5491,-50.4353,-0.803141,0
55.5484,-50.3571,-0.804977,0
55.5477,-50.279,-0.806139,0
55.5453,-50.2009,-0.807077,0
55.5412,-50.1229,-0.807809,0
55.5352,-50.045,-0.808327,0
55.5274,-49.9673,-0.808625,0
55.5179,-49.8898,-0.808708,0
55.5067,-49.8126,-0.808576,0
55.4937,-49.7356,-0.808229,0
55.4789,-49.6589,-0.807668,0
55.4625,-49.5826,-0.806901,0
51.3189,-53.6313,-0.252057,0
51.3969,-53.6587,-0.257956,0
51.4755,-53.6844,-0.263928,0
51.5549,-53.7082,-0.269972,0
51.6349,-53.7303,-0.276096,0
51.7155,-53.7504,-0.282277,0
51.7967,-53.7688,-0.288512,0
51.8784,-53.7852,-0.294816,0
51.9606,-53.7998,-0.301179,0
52.0433,-53.8124,-0.307599,0
52.1263,-53.8228,-0.314191,0
52.2097,-53.8279,-0.322131,0
52.2932,-53.8311,-0.33007,0
52.3768,-53.8324,-0.338014,0
52.4605,-53.8318,-0.345949,0
52.5441,-53.8293,-0.353869,0
52.6276,-53.823,-0.362487,0
52.7105,-53.8126,-0.371867,0
52.7932,-53.8005,-0.381188,0
52.8755,-53.7864,-0.390471,0
52.9574,-53.7705,-0.399704,0
53.039,-53.7527,-0.408874,0
53.1201,-53.7331,-0.41798,0
53.2007,-53.7116,-0.427023,0
53.2808,-53.6883,-0.435988,0
53.3603,-53.6632,-0.444889,0
53.4392,-53.6364,-0.453703,0
53.5175,-53.6077,-0.462429,0
53.5952,-53.5773,-0.471081,0
53.672,-53.5451,-0.479626,0
54.3459,-53.0299,-0.56842,0
54.4062,-52.9758,-0.577492,0
54.4649,-52.9203,-0.586462,0
54.5222,-52.8635,-0.595314,0
54.578,-52.8054,-0.604054,0
54.6322,-52.7459,-0.612668,0
54.6848,-52.6853,-0.621149,0
54.7359,-52.6234,-0.629513,0
54.7854,-52.5604,-0.637736,0
54.8332,-52.4964,-0.645807,0
54.8793,-52.4312,-0.653742,0
54.9238,-52.3651,-0.66152,0
54.9666,-52.298,-0.669147,0
55.0077,-52.23,-0.676623,0
55.047,-52.1611,-0.683937,0
55.0852,-52.0918,-0.69089,0
55.122,-52.0218,-0.697595,0
55.1569,-51.951,-0.704147,0
55.1899,-51.8794,-0.710544,0
55.2212,-51.8072,-0.716779,0
55.2506,-51.7343,-0.722844,0
55.2783,-51.6608,-0.728747,0
55.3041,-51.5868,-0.734484,0
55.328,-51.5123,-0.740041,0
55.3501,-51.4373,-0.745427,0
55.3703,-51.362,-0.750637,0
55.3887,-51.2863,-0.755661,0
55.4052,-51.2102,-0.760505,0
55.4198,-51.134,-0.765168,0
55.4326,-51.0575,-0.76965,0
55.4435,-50.9808,-0.773942,0
55.4526,-50.9041,-0.778044,0
55.4612,-50.8275,-0.781564,0
55.4684,-50.7508,-0.784758,0
55.474,-50.6741,-0.787751,0
55.4776,-50.5974,-0.790554,0
55.4794,-50.5207,-0.793171,0
55.4802,-50.444,-0.795402,0
55.4815,-50.3675,-0.796774,0
55.4811,-50.291,-0.797946,0
55.479,-50.2145,-0.798908,0
55.4752,-50.1381,-0.79965,0
55.4696,-50.0618,-0.800192,0
55.4623,-49.9856,-0.80051,0
55.4533,-49.9097,-0.800622,0
55.4425,-49.834,-0.800524,0
55.43,-49.7585,-0.800221,0
55.4159,-49.6834,-0.799704,0
55.3999,-49.6086,-0.798981,0
51.4045,-53.5851,-0.25925,0
51.4814,-53.6104,-0.265095,0
51.559,-53.6339,-0.271003,0
51.6373,-53.6556,-0.276989,0
51.7161,-53.6755,-0.283034,0
51.7955,-53.6936,-0.289137,0
51.8755,-53.7099,-0.295304,0
51.9559,-53.7243,-0.301525,0
52.0368,-53.7369,-0.307795,0
52.118,-53.7475,-0.314118,0
52.1996,-53.7557,-0.32072,0
52.2814,-53.7591,-0.328498,0
52.3634,-53.7606,-0.336276,0
52.4452,-53.7602,-0.34405,0
52.5273,-53.758,-0.351808,0
52.6091,-53.7529,-0.359938,0
52.6903,-53.7431,-0.369128,0
52.7714,-53.7314,-0.378273,0
52.852,-53.718,-0.38738,0
52.9324,-53.7027,-0.396428,0
53.0123,-53.6855,-0.405422,0
53.0919,-53.6666,-0.414347,0
53.1709,-53.6459,-0.423215,0
53.2495,-53.6233,-0.432023,0
53.3275,-53.599,-0.440744,0
53.4048,-53.573,-0.449391,0
53.4817,-53.5451,-0.45797,0
53.5578,-53.5156,-0.466447,0
53.6333,-53.4843,-0.474836,0
53.708,-53.4513,-0.483137,0
53.782,-53.4166,-0.491335,0
53.8552,-53.3803,-0.49944,0
53.9268,-53.3411,-0.507907,0
53.9955,-53.297,-0.517536,0
54.063,-53.2513,-0.527096,0
54.1292,-53.2039,-0.536584,0
54.1941,-53.155,-0.545983,0
54.2577,-53.1045,-0.5553,0
54.3198,-53.0525,-0.564518,0
54.3807,-52.999,-0.573635,0
54.4401,-52.9442,-0.582653,0
54.498,-52.8879,-0.59155,0
54.5544,-52.8303,-0.600339,0
54.6092,-52.7714,-0.609011,0
54.6626,-52.7113,-0.617551,0
54.7143,-52.6499,-0.625964,0
54.7645,-52.5874,-0.634245,0
54.813,-52.5238,-0.64238,0
54.8598,-52.4591,-0.650378,0
54.905,-52.3934,-0.658229,0
54.9486,-52.3267,-0.665925,0
54.9904,-52.2591,-0.673459,0
55.0305,-52.1906,-0.680842,0
55.0691,-52.1214,-0.68798,0
55.1065,-52.0517,-0.694753,0
55.1421,-51.9812,-0.701369,0
55.1761,-51.91,-0.707839,0
55.2081,-51.838,-0.714142,0
55.2384,-51.7654,-0.72028,0
55.2668,-51.6922,-0.726252,0
55.2933,-51.6184,-0.732057,0
55.318,-51.5441,-0.737697,0
55.3409,-51.4693,-0.743151,0
55.362,-51.3942,-0.748439,0
55.3811,-51.3186,-0.753542,0
55.3984,-51.2427,-0.758464,0
55.4138,-51.1665,-0.763215,0
55.4273,-51.0901,-0.76777,0
55.4391,-51.0135,-0.772136,0
55.4489,-50.9368,-0.776315,0
55.4574,-50.8601,-0.780148,0
55.4656,-50.7835,-0.78341,0
55.4719,-50.7068,-0.786491,0
55.4762,-50.6301,-0.789387,0
55.4788,-50.5533,-0.792082,0
55.4796,-50.4767,-0.794592,0
55.4811,-50.4001,-0.796218,0
55.4815,-50.3236,-0.797472,0
55.4802,-50.2471,-0.798522,0
55.477,-50.1706,-0.799357,0
55.4722,-50.0943,-0.799982,0
55.4657,-50.0181,-0.800392,0
55.4573,-49.942,-0.800602,0
55.4473,-49.8662,-0.800593,0
55.4355,-49.7906,-0.800378,0
55.4221,-49.7154,-0.799953,0
55.407,-49.6404,-0.799318,0
51.3719,-53.5738,-0.256779,0
51.4485,-53.5998,-0.26259,0
51.5259,-53.6241,-0.268478,0
51.6038,-53.6466,-0.274426,0
51.6824,-53.6673,-0.280451,0
51.7616,-53.6861,-0.28653,0
51.8413,-53.7032,-0.292663,0
51.9216,-53.7184,-0.298864,0
52.0023,-53.7318,-0.305114,0
52.0833,-53.7432,-0.311423,0
52.1648,-53.7528,-0.317765,0
52.2466,-53.7579,-0.325182,0
52.3284,-53.7602,-0.332961,0
52.4103,-53.7606,-0.340734,0
52.4923,-53.7592,-0.348498,0
52.5742,-53.7558,-0.356257,0
52.6557,-53.7475,-0.365212,0
52.7369,-53.7366,-0.374382,0
52.8177,-53.7239,-0.383503,0
52.8982,-53.7094,-0.39258,0
52.9784,-53.6931,-0.401594,0
53.058,-53.6749,-0.410558,0
53.1373,-53.6549,-0.41945,0
53.2161,-53.6331,-0.428278,0
53.2942,-53.6096,-0.437038,0
53.372,-53.5843,-0.44572,0
53.4491,-53.5572,-0.454323,0
53.5255,-53.5284,-0.462839,0
53.6012,-53.4978,-0.471276,0
53.6763,-53.4656,-0.479611,0
53.7505,-53.4316,-0.487848,0
53.8241,-53.396,-0.495993,0
53.8967,-53.3587,-0.50404,0
53.9663,-53.316,-0.513434,0
54.0344,-53.271,-0.523024,0
54.1011,-53.2243,-0.532551,0
54.1666,-53.176,-0.541984,0
54.2308,-53.1262,-0.551335,0
54.2936,-53.0748,-0.560597,0
54.3549,-53.022,-0.569758,0
54.4149,-52.9677,-0.578815,0
54.4734,-52.912,-0.58777,0
54.5305,-52.855,-0.596608,0
54.586,-52.7967,-0.605324,0
54.64,-52.7371,-0.613923,0
54.6924,-52.6762,-0.622394,0
54.7433,-52.6142,-0.630729,0
54.7924,-52.5511,-0.638928,0
54.84,-52.4868,-0.646984,0
54.8859,-52.4215,-0.654904,0
54.9302,-52.3553,-0.662658,0
54.9727,-52.288,-0.670265,0
55.0136,-52.2199,-0.677712,0
55.0527,-52.1509,-0.685002,0
55.0907,-52.0815,-0.691882,0
55.1272,-52.0114,-0.698566,0
55.1618,-51.9404,-0.705099,0
55.1946,-51.8688,-0.711467,0
55.2257,-51.7965,-0.717678,0
55.2548,-51.7235,-0.723727,0
55.2823,-51.65,-0.729601,0
55.3077,-51.5759,-0.735314,0
55.3314,-51.5013,-0.740851,0
55.3532,-51.4263,-0.746213,0
55.3731,-51.3508,-0.751388,0
55.3913,-51.2751,-0.756384,0
55.4074,-51.199,-0.761203,0
55.4218,-51.1227,-0.765846,0
55.4343,-51.0462,-0.770295,0
55.4449,-50.9695,-0.774553,0
55.4537,-50.8927,-0.77863,0
55.4623,-50.8162,-0.782048,0
55.4694,-50.7395,-0.785212,0
55.4745,-50.6628,-0.78818,0
55.478,-50.5861,-0.790954,0
55.4795,-50.5093,-0.793542,0
55.4805,-50.4327,-0.795617,0
55.4816,-50.3562,-0.796965,0
55.4809,-50.2797,-0.798102,0
55.4786,-50.2032,-0.799025,0
55.4745,-50.1268,-0.799738,0
55.4687,-50.0505,-0.800241,0
55.4611,-49.9744,-0.800539,0
55.4518,-49.8985,-0.800622,0
55.4408,-49.8228,-0.8005,0
55.428,-49.7474,-0.800163,0
55.4136,-49.6723,-0.799611,0
55.3974,-49.5976,-0.798859,0
51.3395,-53.5622,-0.254323,0
51.4158,-53.5889,-0.260104,0
51.4928,-53.6139,-0.265959,0
51.5705,-53.6372,-0.271882,0
51.6489,-53.6587,-0.277878,0
51.7278,-53.6783,-0.283928,0
51.8073,-53.6962,-0.290041,0
51.8873,-53.7122,-0.296218,0
51.9678,-53.7263,-0.302438,0
52.0487,-53.7386,-0.308727,0
52.1301,-53.7489,-0.315055,0
52.2117,-53.7563,-0.321857,0
52.2934,-53.7594,-0.329645,0
52.3754,-53.7606,-0.337424,0
52.4573,-53.76,-0.345197,0
52.5393,-53.7575,-0.352951,0
52.621,-53.7515,-0.361291,0
52.7023,-53.7415,-0.370475,0
52.7833,-53.7296,-0.379616,0
52.8639,-53.7158,-0.388708,0
52.9442,-53.7002,-0.397756,0
53.0241,-53.6828,-0.406745,0
53.1036,-53.6636,-0.415666,0
53.1825,-53.6426,-0.424523,0
53.261,-53.6198,-0.433317,0
53.3389,-53.5953,-0.442028,0
53.4162,-53.569,-0.450661,0
53.493,-53.5409,-0.459216,0
53.569,-53.5111,-0.467692,0
53.6444,-53.4795,-0.476061,0
54.3008,-52.9701,-0.565729,0
54.3598,-52.9173,-0.574611,0
54.4173,-52.8632,-0.58339,0
54.4734,-52.8077,-0.592053,0
54.528,-52.7509,-0.600607,0
54.5811,-52.6929,-0.609035,0
54.6327,-52.6336,-0.61735,0
54.6827,-52.5732,-0.625524,0
54.7312,-52.5117,-0.633576,0
54.778,-52.449,-0.641486,0
54.8234,-52.3854,-0.64925,0
54.867,-52.3208,-0.656872,0
54.9089,-52.2552,-0.664343,0
54.9493,-52.1887,-0.671672,0
54.9879,-52.1214,-0.678835,0
55.0248,-52.0533,-0.685837,0
55.0599,-51.9844,-0.692663,0
55.0943,-51.9152,-0.699084,0
55.1267,-51.8453,-0.705348,0
55.1574,-51.7747,-0.711452,0
55.1863,-51.7034,-0.717399,0
55.2134,-51.6316,-0.72319,0
55.2388,-51.5592,-0.728801,0
55.2623,-51.4864,-0.734255,0
55.2841,-51.4131,-0.739528,0
55.3039,-51.3394,-0.744636,0
55.322,-51.2653,-0.749562,0
55.3383,-51.191,-0.754323,0
55.3527,-51.1164,-0.758893,0
55.3653,-51.0416,-0.763283,0
55.3761,-50.9666,-0.767487,0
55.3851,-50.8915,-0.771515,0
55.3939,-50.8166,-0.774894,0
55.4011,-50.7415,-0.778024,0
55.4066,-50.6665,-0.780959,0
55.4102,-50.5914,-0.783718,0
55.4126,-50.5163,-0.786144,0
55.4157,-50.4414,-0.787697,0
55.417,-50.3664,-0.78905,0
55.4166,-50.2914,-0.790197,0
55.4146,-50.2165,-0.79113,0
55.4109,-50.1416,-0.791867,0
55.4054,-50.0668,-0.792389,0
55.3983,-49.9922,-0.792707,0
55.3895,-49.9178,-0.792819,0
55.3789,-49.8436,-0.792731,0
55.3666,-49.7697,-0.792424,0
55.3527,-49.6961,-0.791921,0
55.3372,-49.6228,-0.791213,0
51.4228,-53.5179,-0.261345,0
51.4982,-53.5425,-0.267067,0
51.5743,-53.5655,-0.272863,0
51.651,-53.5867,-0.278727,0
51.7282,-53.6061,-0.28464,0
51.806,-53.6237,-0.290632,0
51.8844,-53.6395,-0.296667,0
51.963,-53.6535,-0.302765,0
52.0423,-53.6657,-0.308908,0
52.1219,-53.676,-0.315104,0
52.2018,-53.6845,-0.321335,0
52.2819,-53.6899,-0.328107,0
52.3621,-53.6913,-0.335729,0
52.4424,-53.6909,-0.343346,0
52.5228,-53.6887,-0.350944,0
52.603,-53.6839,-0.35881,0
52.6827,-53.6744,-0.367819,0
52.762,-53.663,-0.376789,0
52.8411,-53.6498,-0.3857,0
52.9199,-53.6348,-0.394572,0
52.9983,-53.618,-0.403386,0
53.0762,-53.5995,-0.41214,0
53.1537,-53.5792,-0.420837,0
53.2306,-53.5571,-0.42946,0
53.307,-53.5333,-0.43801,0
53.383,-53.5078,-0.446486,0
53.4582,-53.4805,-0.454885,0
53.5329,-53.4516,-0.463195,0
53.6069,-53.4209,-0.471418,0
53.6801,-53.3886,-0.479553,0
53.7526,-53.3546,-0.48759,0
53.8221,-53.3152,-0.497048,0
53.8905,-53.2738,-0.506535,0
53.9577,-53.2308,-0.515959,0
54.0238,-53.1862,-0.525309,0
54.0885,-53.14,-0.534592,0
54.1521,-53.0922,-0.543776,0
54.2143,-53.0429,-0.552892,0
54.2752,-52.9922,-0.561911,0
54.3348,-52.94,-0.570837,0
54.3929,-52.8864,-0.57966,0
54.4496,-52.8315,-0.588376,0
54.5049,-52.7753,-0.596969,0
54.5587,-52.7177,-0.605456,0
54.6109,-52.659,-0.61382,0
54.6616,-52.5991,-0.622053,0
54.7107,-52.538,-0.630158,0
54.7583,-52.4759,-0.638122,0
54.8042,-52.4127,-0.645959,0
54.8485,-52.3484,-0.653644,0
54.8913,-52.2833,-0.661183,0
54.9323,-52.2172,-0.668566,0
54.9716,-52.1502,-0.675803,0
55.0092,-52.0824,-0.682878,0
55.0452,-52.0139,-0.689777,0
55.0798,-51.9448,-0.696364,0
55.1131,-51.8752,-0.702697,0
55.1445,-51.8048,-0.708874,0
55.1742,-51.7339,-0.714889,0
55.2021,-51.6623,-0.720739,0
55.2283,-51.5902,-0.726423,0
55.2525,-51.5175,-0.73195,0
55.275,-51.4444,-0.737302,0
55.2956,-51.3709,-0.742477,0
55.3145,-51.2969,-0.747487,0
55.3316,-51.2227,-0.752311,0
55.3468,-51.1482,-0.756965,0
55.3601,-51.0735,-0.761437,0
55.3717,-50.9986,-0.765724,0
55.3815,-50.9235,-0.769826,0
55.3902,-50.8485,-0.773503,0
55.3983,-50.7735,-0.776711,0
55.4045,-50.6985,-0.779728,0
55.4089,-50.6234,-0.78257,0
55.4115,-50.5483,-0.785217,0
55.4145,-50.4733,-0.787057,0
55.4166,-50.3983,-0.788498,0
55.417,-50.3234,-0.789728,0
55.4157,-50.2484,-0.790754,0
55.4127,-50.1735,-0.791579,0
55.4079,-50.0987,-0.792194,0
55.4015,-50.024,-0.792599,0
55.3934,-49.9495,-0.7928,0
55.3836,-49.8752,-0.79279,0
55.372,-49.8012,-0.792585,0
55.3589,-49.7275,-0.792165,0
55.344,-49.654,-0.79154,0
51.3909,-53.5069,-0.258923,0
51.466,-53.5322,-0.264616,0
51.5418,-53.5559,-0.270383,0
51.6182,-53.5778,-0.276213,0
51.6952,-53.598,-0.282116,0
51.7727,-53.6164,-0.288068,0
51.8509,-53.633,-0.294089,0
51.9295,-53.6478,-0.300158,0
52.0084,-53.6608,-0.306281,0
52.0878,-53.6719,-0.312458,0
52.1676,-53.6811,-0.318669,0
52.2477,-53.6885,-0.324933,0
52.328,-53.6909,-0.332477,0
52.4082,-53.6913,-0.340095,0
52.4886,-53.6898,-0.347707,0
52.5688,-53.6866,-0.355309,0
52.6487,-53.6786,-0.363981,0
52.7283,-53.668,-0.372966,0
52.8075,-53.6556,-0.381911,0
52.8863,-53.6414,-0.390798,0
52.9649,-53.6254,-0.399636,0
53.043,-53.6076,-0.408425,0
53.1207,-53.5881,-0.417136,0
53.1979,-53.5667,-0.425798,0
53.2746,-53.5437,-0.434367,0
53.3507,-53.5189,-0.442887,0
53.4262,-53.4924,-0.45132,0
53.5012,-53.4641,-0.459665,0
53.5754,-53.4342,-0.467922,0
53.6489,-53.4026,-0.4761,0
53.7217,-53.3693,-0.484177,0
53.7927,-53.3323,-0.49299,0
53.8615,-53.2917,-0.502502,0
53.9292,-53.2494,-0.51194,0
53.9957,-53.2054,-0.52133,0
54.0611,-53.1599,-0.530636,0
54.1252,-53.1128,-0.53987,0
54.1879,-53.0641,-0.549015,0
54.2495,-53.014,-0.558078,0
54.3095,-52.9624,-0.567048,0
54.3683,-52.9094,-0.57591,0
54.4256,-52.8551,-0.584675,0
54.4815,-52.7994,-0.593322,0
54.5359,-52.7424,-0.601852,0
54.5888,-52.6842,-0.61027,0
54.6402,-52.6248,-0.618556,0
54.69,-52.5642,-0.626716,0
54.7383,-52.5025,-0.634753,0
54.7848,-52.4397,-0.642634,0
54.8298,-52.3759,-0.650383,0
54.8733,-52.3112,-0.657985,0
54.915,-52.2455,-0.665436,0
54.955,-52.1789,-0.672736,0
54.9934,-52.1114,-0.679875,0
55.0301,-52.0432,-0.686857,0
55.0652,-51.9743,-0.69362,0
55.0991,-51.9049,-0.700016,0
55.1313,-51.8349,-0.706257,0
55.1618,-51.7642,-0.712336,0
55.1905,-51.6929,-0.718263,0
55.2173,-51.621,-0.724025,0
55.2423,-51.5485,-0.729611,0
55.2656,-51.4756,-0.735041,0
55.287,-51.4022,-0.7403,0
55.3067,-51.3285,-0.745368,0
55.3245,-51.2544,-0.750275,0
55.3405,-51.18,-0.755007,0
55.3547,-51.1054,-0.759548,0
55.367,-51.0305,-0.763913,0
55.3775,-50.9555,-0.768097,0
55.3862,-50.8804,-0.772082,0
55.395,-50.8055,-0.775363,0
55.402,-50.7305,-0.778464,0
55.4073,-50.6554,-0.781374,0
55.4105,-50.5803,-0.784103,0
55.4131,-50.5053,-0.786384,0
55.416,-50.4303,-0.787907,0
55.417,-50.3553,-0.78923,0
55.4165,-50.2804,-0.790339,0
55.4141,-50.2054,-0.791252,0
55.4102,-50.1306,-0.79196,0
55.4045,-50.0558,-0.792448,0
55.397,-49.9813,-0.792736,0
55.388,-49.9069,-0.792824,0
55.3772,-49.8327,-0.792692,0
55.3647,-49.7589,-0.79236,0
55.3505,-49.6853,-0.791833,0
55.3347,-49.612,-0.791086,0
51.3591,-53.4955,-0.25652,0
51.4339,-53.5216,-0.262175,0
51.5094,-53.546,-0.267912,0
51.5855,-53.5687,-0.273727,0
51.6623,-53.5896,-0.279592,0
51.7397,-53.6088,-0.285524,0
51.8175,-53.6262,-0.291511,0
51.8959,-53.6417,-0.29756,0
51.9748,-53.6555,-0.303664,0
52.054,-53.6674,-0.309816,0
52.1336,-53.6774,-0.316013,0
52.2135,-53.6856,-0.322258,0
52.2937,-53.6902,-0.32923,0
52.374,-53.6914,-0.336852,0
52.4543,-53.6907,-0.344465,0
52.5346,-53.6882,-0.352067,0
52.6148,-53.6826,-0.360138,0
52.6944,-53.6728,-0.369142,0
52.7738,-53.6611,-0.378097,0
52.8528,-53.6477,-0.387013,0
52.9314,-53.6325,-0.395876,0
53.0098,-53.6154,-0.404679,0
53.0876,-53.5966,-0.413425,0
53.165,-53.5761,-0.422106,0
53.242,-53.5537,-0.430724,0
53.3183,-53.5297,-0.439269,0
53.3941,-53.5039,-0.447731,0
53.4692,-53.4764,-0.456115,0
53.5438,-53.4472,-0.464411,0
53.6177,-53.4163,-0.472624,0
54.2573,-52.9126,-0.563141,0
54.3151,-52.8611,-0.571833,0
54.3714,-52.8082,-0.580427,0
54.4264,-52.7539,-0.588913,0
54.4798,-52.6985,-0.597282,0
54.532,-52.6418,-0.605539,0
54.5826,-52.5839,-0.613683,0
54.6316,-52.5248,-0.621691,0
54.6791,-52.4647,-0.629572,0
54.7251,-52.4035,-0.637316,0
54.7695,-52.3413,-0.644929,0
54.8122,-52.2781,-0.652399,0
54.8534,-52.214,-0.659714,0
54.893,-52.149,-0.666891,0
54.9309,-52.0832,-0.673913,0
54.9671,-52.0166,-0.680778,0
55.0016,-51.9492,-0.687487,0
55.0345,-51.8811,-0.694025,0
55.0659,-51.8124,-0.700348,0
55.096,-51.7434,-0.706335,0
55.1245,-51.6737,-0.712155,0
55.151,-51.6035,-0.717829,0
55.1759,-51.5327,-0.723332,0
55.1991,-51.4614,-0.728674,0
55.2204,-51.3897,-0.733854,0
55.24,-51.3176,-0.738864,0
55.2578,-51.2452,-0.743693,0
55.2738,-51.1724,-0.748356,0
55.288,-51.0994,-0.752848,0
55.3005,-51.0262,-0.75715,0
55.3112,-50.9528,-0.761281,0
55.3202,-50.8794,-0.765212,0
55.3291,-50.806,-0.768459,0
55.3363,-50.7326,-0.77153,0
55.3416,-50.6591,-0.774416,0
55.3456,-50.5856,-0.777004,0
55.3504,-50.5122,-0.778732,0
55.3534,-50.4388,-0.780256,0
55.3548,-50.3653,-0.781589,0
55.3545,-50.2918,-0.782707,0
55.3524,-50.2184,-0.78363,0
55.3487,-50.145,-0.784347,0
55.3434,-50.0717,-0.784865,0
55.3364,-49.9986,-0.785173,0
55.3277,-49.9257,-0.785285,0
55.3174,-49.853,-0.785192,0
55.3055,-49.7805,-0.784904,0
55.2918,-49.7084,-0.784406,0
55.2766,-49.6366,-0.783708,0
51.4406,-53.453,-0.263356,0
51.5145,-53.4771,-0.268971,0
51.589,-53.4995,-0.274655,0
51.6642,-53.5201,-0.280397,0
51.7398,-53.5391,-0.286203,0
51.8161,-53.5562,-0.292067,0
51.8928,-53.5716,-0.297985,0
51.97,-53.5853,-0.303957,0
52.0476,-53.5971,-0.309972,0
52.1255,-53.6071,-0.316037,0
52.2038,-53.6153,-0.32215,0
52.2823,-53.6216,-0.328303,0
52.3611,-53.6244,-0.335207,0
52.4398,-53.624,-0.342668,0
52.5185,-53.6217,-0.350119,0
52.5971,-53.6173,-0.357717,0
52.6752,-53.608,-0.366554,0
52.753,-53.5968,-0.375344,0
52.8306,-53.5839,-0.384089,0
52.9077,-53.5693,-0.39279,0
52.9846,-53.5529,-0.401423,0
53.061,-53.5347,-0.410012,0
53.137,-53.5148,-0.418527,0
53.2124,-53.4932,-0.426979,0
53.2874,-53.4699,-0.435363,0
53.3617,-53.4449,-0.443674,0
53.4355,-53.4181,-0.451906,0
53.5087,-53.3898,-0.46006,0
53.5812,-53.3597,-0.468117,0
53.6516,-53.3252,-0.477228,0
53.7207,-53.2882,-0.486608,0
53.7886,-53.2495,-0.495939,0
53.8555,-53.2092,-0.505217,0
53.9214,-53.1672,-0.514435,0
53.986,-53.1236,-0.523591,0
54.0495,-53.0785,-0.532663,0
54.1117,-53.0319,-0.541662,0
54.1727,-52.9837,-0.550578,0
54.2323,-52.9342,-0.559406,0
54.2906,-52.8832,-0.568141,0
54.3475,-52.8309,-0.576774,0
54.4031,-52.7772,-0.585304,0
54.4573,-52.7223,-0.593727,0
54.5099,-52.6661,-0.602038,0
54.5612,-52.6087,-0.610221,0
54.6109,-52.5501,-0.618283,0
54.659,-52.4905,-0.626227,0
54.7057,-52.4297,-0.634035,0
54.7507,-52.3679,-0.641706,0
54.7942,-52.3052,-0.64923,0
54.836,-52.2414,-0.656613,0
54.8763,-52.1768,-0.663854,0
54.9149,-52.1113,-0.670939,0
54.9519,-52.0451,-0.677873,0
54.9871,-51.978,-0.684645,0
55.0207,-51.9102,-0.691252,0
55.0527,-51.8417,-0.697707,0
55.0834,-51.7729,-0.703796,0
55.1125,-51.7035,-0.709694,0
55.1398,-51.6335,-0.715431,0
55.1655,-51.5629,-0.721008,0
55.1895,-51.4919,-0.726418,0
55.2115,-51.4203,-0.731667,0
55.2319,-51.3484,-0.736745,0
55.2504,-51.2761,-0.741657,0
55.2672,-51.2035,-0.746388,0
55.2823,-51.1306,-0.750954,0
55.2954,-51.0575,-0.755339,0
55.3068,-50.9841,-0.759543,0
55.3165,-50.9107,-0.763571,0
55.3255,-50.8373,-0.767096,0
55.3334,-50.7639,-0.770246,0
55.3395,-50.6905,-0.77321,0
55.3439,-50.6169,-0.775993,0
55.3486,-50.5435,-0.778024,0
55.3523,-50.4701,-0.779631,0
55.3544,-50.3966,-0.781042,0
55.3548,-50.3231,-0.782258,0
55.3535,-50.2497,-0.783259,0
55.3505,-50.1763,-0.784069,0
55.3459,-50.103,-0.784665,0
55.3396,-50.0298,-0.785065,0
55.3316,-49.9568,-0.785265,0
55.322,-49.884,-0.785256,0
55.3107,-49.8114,-0.785046,0
55.2978,-49.7391,-0.78464,0
55.2833,-49.6671,-0.78403,0
51.4094,-53.4422,-0.260993,0
51.4829,-53.467,-0.266569,0
51.5572,-53.4901,-0.272228,0
51.632,-53.5115,-0.277946,0
51.7075,-53.5312,-0.283722,0
51.7835,-53.5491,-0.289557,0
51.8601,-53.5653,-0.295456,0
51.937,-53.5797,-0.301403,0
52.0144,-53.5923,-0.307399,0
52.0922,-53.6031,-0.313449,0
52.1704,-53.612,-0.319538,0
52.2488,-53.6192,-0.32568,0
52.3275,-53.624,-0.332018,0
52.4062,-53.6244,-0.339484,0
52.4849,-53.6229,-0.34694,0
52.5637,-53.6196,-0.354391,0
52.642,-53.6122,-0.362795,0
52.7199,-53.6018,-0.371598,0
52.7976,-53.5896,-0.380368,0
52.8749,-53.5757,-0.389084,0
52.952,-53.5601,-0.397741,0
53.0285,-53.5426,-0.406359,0
53.1046,-53.5235,-0.414904,0
53.1803,-53.5026,-0.423386,0
53.2555,-53.48,-0.431799,0
53.3302,-53.4557,-0.440143,0
53.4041,-53.4297,-0.448405,0
53.4776,-53.4021,-0.456594,0
53.5504,-53.3727,-0.464689,0
53.6219,-53.3405,-0.473215,0
53.6913,-53.3042,-0.482619,0
53.7598,-53.2662,-0.491965,0
53.8272,-53.2266,-0.501271,0
53.8935,-53.1853,-0.510514,0
53.9587,-53.1424,-0.519689,0
54.0226,-53.0979,-0.528801,0
54.0853,-53.0519,-0.537839,0
54.1468,-53.0044,-0.546789,0
54.207,-52.9555,-0.555656,0
54.2659,-52.9051,-0.56443,0
54.3234,-52.8534,-0.573107,0
54.3796,-52.8003,-0.581681,0
54.4343,-52.7458,-0.590153,0
54.4877,-52.6902,-0.598508,0
54.5395,-52.6333,-0.60675,0
54.5898,-52.5752,-0.61487,0
54.6387,-52.516,-0.622853,0
54.686,-52.4557,-0.630724,0
54.7317,-52.3944,-0.638449,0
54.7759,-52.332,-0.646037,0
54.8184,-52.2687,-0.653488,0
54.8593,-52.2045,-0.660788,0
54.8986,-52.1394,-0.667936,0
54.9363,-52.0734,-0.674938,0
54.9723,-52.0067,-0.681779,0
55.0066,-51.9392,-0.688459,0
55.0392,-51.871,-0.694977,0
55.0705,-51.8023,-0.701242,0
55.1003,-51.7332,-0.707199,0
55.1284,-51.6634,-0.71301,0
55.1548,-51.5931,-0.718649,0
55.1795,-51.5222,-0.724133,0
55.2023,-51.4509,-0.72945,0
55.2234,-51.3791,-0.734596,0
55.2427,-51.307,-0.739587,0
55.2603,-51.2345,-0.744391,0
55.276,-51.1617,-0.749025,0
55.29,-51.0887,-0.753488,0
55.3022,-51.0154,-0.757775,0
55.3126,-50.942,-0.761877,0
55.3216,-50.8686,-0.7657,0
55.3302,-50.7952,-0.768928,0
55.3371,-50.7218,-0.771969,0
55.3423,-50.6483,-0.774821,0
55.3465,-50.5748,-0.777277,0
55.3509,-50.5014,-0.778971,0
55.3537,-50.428,-0.78047,0
55.3548,-50.3545,-0.78176,0
55.3542,-50.281,-0.782858,0
55.352,-50.2076,-0.783747,0
55.348,-50.1342,-0.78444,0
55.3425,-50.061,-0.784919,0
55.3352,-49.9879,-0.785202,0
55.3263,-49.915,-0.785285,0
55.3158,-49.8423,-0.785168,0
55.3036,-49.7699,-0.784845,0
55.2897,-49.6978,-0.784318,0
55.2741,-49.626,-0.783586,0
51.3782,-53.4312,-0.25863,0
51.4515,-53.4567,-0.264186,0
51.5255,-53.4805,-0.269806,0
51.6001,-53.5026,-0.2755,0
51.6752,-53.523,-0.281252,0
51.751,-53.5417,-0.287062,0
51.8273,-53.5586,-0.292931,0
51.9041,-53.5738,-0.298859,0
51.9814,-53.5871,-0.304841,0
52.0591,-53.5987,-0.310871,0
52.137,-53.6084,-0.31694,0
52.2153,-53.6163,-0.323054,0
52.294,-53.6224,-0.329211,0
52.3726,-53.6244,-0.336305,0
52.4514,-53.6238,-0.343766,0
52.5301,-53.6213,-0.351218,0
52.6087,-53.616,-0.35903,0
52.6867,-53.6064,-0.367848,0
52.7645,-53.595,-0.376633,0
52.842,-53.5819,-0.385373,0
52.9191,-53.567,-0.394054,0
52.9959,-53.5503,-0.402692,0
53.0722,-53.5319,-0.411266,0
53.1481,-53.5117,-0.419782,0
53.2235,-53.4899,-0.428224,0
53.2984,-53.4663,-0.436594,0
53.3727,-53.441,-0.444889,0
53.4464,-53.4141,-0.453107,0
53.5195,-53.3854,-0.461252,0
53.5919,-53.3552,-0.469303,0
54.2155,-52.8573,-0.560651,0
54.272,-52.8069,-0.569167,0
54.3273,-52.7552,-0.57758,0
54.3811,-52.7022,-0.585886,0
54.4336,-52.648,-0.594089,0
54.4846,-52.5925,-0.602179,0
54.5341,-52.5359,-0.610143,0
54.5823,-52.4782,-0.617995,0
54.6289,-52.4194,-0.625715,0
54.6739,-52.3596,-0.633303,0
54.7175,-52.2988,-0.640763,0
54.7595,-52.237,-0.648083,0
54.7999,-52.1743,-0.655265,0
54.8387,-52.1107,-0.662297,0
54.8759,-52.0463,-0.669167,0
54.9115,-51.9811,-0.675905,0
54.9455,-51.9152,-0.682482,0
54.9777,-51.8486,-0.688893,0
55.0083,-51.7814,-0.695143,0
55.0373,-51.7135,-0.701232,0
55.0647,-51.6451,-0.707106,0
55.0909,-51.5764,-0.712668,0
55.1154,-51.5071,-0.718058,0
55.138,-51.4374,-0.723307,0
55.1591,-51.3672,-0.728381,0
55.1784,-51.2967,-0.733293,0
55.1959,-51.2258,-0.738029,0
55.2116,-51.1546,-0.742609,0
55.2258,-51.0831,-0.747009,0
55.238,-51.0114,-0.751242,0
55.2486,-50.9396,-0.755295,0
55.2577,-50.8677,-0.759064,0
55.2666,-50.7959,-0.762253,0
55.2736,-50.724,-0.76527,0
55.2794,-50.6521,-0.76799,0
55.2856,-50.5802,-0.76988,0
55.2903,-50.5083,-0.771574,0
55.2932,-50.4363,-0.773073,0
55.2946,-50.3643,-0.774367,0
55.2943,-50.2922,-0.77547,0
55.2923,-50.2202,-0.776379,0
55.2887,-50.1483,-0.777087,0
55.2835,-50.0765,-0.777585,0
55.2766,-50.0048,-0.777897,0
55.2681,-49.9333,-0.778005,0
55.258,-49.862,-0.777917,0
55.2463,-49.791,-0.777629,0
55.2329,-49.7203,-0.777145,0
55.218,-49.6498,-0.776462,0
51.4578,-53.3904,-0.265314,0
51.5302,-53.4139,-0.270817,0
51.6033,-53.4357,-0.276379,0
51.677,-53.4559,-0.282013,0
51.7511,-53.4743,-0.287702,0
51.8259,-53.4911,-0.293454,0
51.901,-53.5061,-0.29925,0
51.9766,-53.5194,-0.305104,0
52.0527,-53.5308,-0.311008,0
52.1291,-53.5406,-0.316955,0
52.2058,-53.5485,-0.322946,0
52.2827,-53.5546,-0.328967,0
52.3599,-53.5589,-0.335031,0
52.4371,-53.5593,-0.342009,0
52.5144,-53.5571,-0.349313,0
52.5915,-53.5529,-0.356672,0
52.668,-53.5438,-0.365334,0
52.7444,-53.5329,-0.373947,0
52.8204,-53.5203,-0.382526,0
52.8961,-53.5059,-0.391052,0
52.9714,-53.4898,-0.399528,0
53.0463,-53.472,-0.407946,0
53.1209,-53.4526,-0.416301,0
53.1948,-53.4314,-0.424582,0
53.2683,-53.4085,-0.432809,0
53.3413,-53.384,-0.440959,0
53.4137,-53.3578,-0.449035,0
53.4842,-53.3274,-0.458093,0
53.5537,-53.2947,-0.467346,0
53.6223,-53.2602,-0.476559,0
53.6898,-53.2241,-0.485739,0
53.7564,-53.1863,-0.494875,0
53.822,-53.1469,-0.503947,0
53.8864,-53.1059,-0.512975,0
53.9497,-53.0634,-0.521926,0
54.0119,-53.0193,-0.530812,0
54.0728,-52.9737,-0.539621,0
54.1325,-52.9267,-0.548346,0
54.1909,-52.8783,-0.556994,0
54.2481,-52.8285,-0.565549,0
54.3039,-52.7774,-0.574006,0
54.3583,-52.7249,-0.582355,0
54.4114,-52.6712,-0.590602,0
54.463,-52.6163,-0.598737,0
54.5132,-52.5602,-0.606764,0
54.562,-52.503,-0.614665,0
54.6091,-52.4446,-0.622438,0
54.6549,-52.3852,-0.63009,0
54.6991,-52.3248,-0.637599,0
54.7418,-52.2634,-0.644982,0
54.7829,-52.2011,-0.652223,0
54.8224,-52.1379,-0.659313,0
54.8602,-52.0739,-0.666257,0
54.8965,-52.009,-0.673054,0
54.9312,-51.9434,-0.679694,0
54.9641,-51.8771,-0.686179,0
54.9955,-51.8101,-0.692502,0
55.0252,-51.7425,-0.698654,0
55.0532,-51.6743,-0.704645,0
55.0799,-51.6057,-0.710314,0
55.1052,-51.5367,-0.715783,0
55.1287,-51.4672,-0.721091,0
55.1504,-51.3972,-0.726237,0
55.1703,-51.3268,-0.731218,0
55.1887,-51.256,-0.736027,0
55.2052,-51.1849,-0.74068,0
55.2199,-51.1136,-0.745158,0
55.233,-51.042,-0.74946,0
55.2443,-50.9702,-0.753591,0
55.2539,-50.8983,-0.757541,0
55.263,-50.8265,-0.760915,0
55.2709,-50.7547,-0.764011,0
55.2769,-50.6827,-0.766921,0
55.2831,-50.6109,-0.769098,0
55.2885,-50.539,-0.770871,0
55.2922,-50.467,-0.772453,0
55.2942,-50.395,-0.77384,0
55.2946,-50.3229,-0.775021,0
55.2934,-50.2509,-0.776012,0
55.2905,-50.179,-0.776803,0
55.2859,-50.1071,-0.777399,0
55.2798,-50.0353,-0.777795,0
55.272,-49.9638,-0.777985,0
55.2626,-49.8924,-0.777975,0
55.2515,-49.8212,-0.777785,0
55.2388,-49.7504,-0.77737,0
55.2245,-49.6798,-0.776779,0
51.4271,-53.3799,-0.26299,0
51.4993,-53.4041,-0.268464,0
51.572,-53.4266,-0.274001,0
51.6455,-53.4475,-0.279606,0
51.7195,-53.4667,-0.28527,0
51.7939,-53.4842,-0.290993,0
51.8689,-53.4999,-0.296774,0
51.9444,-53.5139,-0.302604,0
52.0202,-53.5262,-0.308488,0
52.0964,-53.5366,-0.314411,0
52.173,-53.5453,-0.320383,0
52.2498,-53.5522,-0.326398,0
52.327,-53.5573,-0.332448,0
52.4043,-53.5597,-0.338888,0
52.4814,-53.5582,-0.346198,0
52.5586,-53.555,-0.353503,0
52.6355,-53.5479,-0.361642,0
52.7119,-53.5377,-0.37028,0
52.788,-53.5259,-0.378869,0
52.8639,-53.5122,-0.387424,0
52.9394,-53.4969,-0.39592,0
53.0145,-53.4798,-0.404357,0
53.0891,-53.4611,-0.412746,0
53.1634,-53.4406,-0.421061,0
53.2371,-53.4185,-0.429313,0
53.3102,-53.3947,-0.437492,0
53.3828,-53.3692,-0.445597,0
53.4543,-53.3408,-0.454137,0
53.5242,-53.3088,-0.4634,0
53.5932,-53.2751,-0.472634,0
53.6612,-53.2397,-0.481828,0
53.7281,-53.2026,-0.490983,0
53.7941,-53.1639,-0.50009,0
53.8591,-53.1236,-0.509133,0
53.9228,-53.0817,-0.518122,0
53.9855,-53.0383,-0.527028,0
54.047,-52.9933,-0.535881,0
54.1072,-52.947,-0.54464,0
