45.722,-35.9444,0.171771,0
45.7947,-35.8992,0.168431,0
45.8664,-35.8525,0.165169,0
45.937,-35.8043,0.161986,0
46.0064,-35.7545,0.15888,0
46.0748,-35.7033,0.155853,0
46.142,-35.6506,0.152913,0
46.2078,-35.5965,0.150052,0
46.2725,-35.5409,0.147279,0
46.3359,-35.484,0.144593,0
46.398,-35.4258,0.141986,0
46.4588,-35.3662,0.139476,0
46.5183,-35.3053,0.137044,0
46.5763,-35.2432,0.13471,0
46.633,-35.1799,0.132464,0
46.6884,-35.1153,0.130316,0
46.7422,-35.0496,0.128245,0
46.7945,-34.9827,0.126273,0
46.8454,-34.9147,0.124407,0
46.8948,-34.8457,0.12263,0
46.9426,-34.7756,0.120941,0
46.9888,-34.7045,0.119359,0
47.0336,-34.6324,0.117864,0
47.0767,-34.5593,0.116468,0
47.1181,-34.4854,0.115169,0
47.158,-34.4106,0.113978,0
47.1962,-34.3349,0.112874,0
47.2328,-34.2584,0.111878,0
47.2677,-34.1812,0.11098,0
47.3009,-34.1032,0.110189,0
47.3323,-34.0245,0.109486,0
47.3621,-33.9451,0.10889,0
47.3902,-33.8651,0.108392,0
47.4164,-33.7845,0.108001,0
47.4409,-33.7033,0.107708,0
47.4637,-33.6216,0.107523,0
47.4847,-33.5395,0.107435,0
47.5038,-33.4568,0.107454,0
47.5212,-33.3738,0.107562,0
41.5145,-35.6227,0.345687,0
41.5811,-35.6778,0.343441,0
41.6491,-35.7314,0.341175,0
41.7182,-35.7835,0.33887,0
41.7885,-35.834,0.336556,0
41.86,-35.883,0.334212,0
41.9327,-35.9304,0.331849,0
42.0063,-35.9761,0.329456,0
42.0812,-36.0202,0.327054,0
42.157,-36.0626,0.324632,0
42.2335,-36.1037,0.322327,0
42.3111,-36.143,0.319993,0
42.3896,-36.1806,0.31764,0
42.4691,-36.2164,0.315267,0
42.5495,-36.25,0.312767,0
42.6308,-36.2812,0.309984,0
42.713,-36.3102,0.307112,0
42.7966,-36.3347,0.303265,0
42.8807,-36.3573,0.299398,0
42.9654,-36.3779,0.295521,0
43.0504,-36.3965,0.291634,0
43.1358,-36.4131,0.287757,0
43.2215,-36.4278,0.28387,0
43.3075,-36.4405,0.279974,0
43.3937,-36.4512,0.276087,0
43.4802,-36.46,0.27221,0
43.5667,-36.4667,0.268333,0
43.6533,-36.4714,0.264466,0
43.74,-36.4742,0.260618,0
43.8267,-36.4749,0.256771,0
43.9134,-36.4737,0.252943,0
44,-36.4705,0.249134,0
44.0864,-36.4653,0.245335,0
44.1727,-36.4581,0.241566,0
44.2588,-36.449,0.237816,0
44.3445,-36.4379,0.234085,0
44.43,-36.4248,0.230384,0
44.5151,-36.4098,0.226712,0
44.5998,-36.3929,0.22306,0
44.6841,-36.374,0.219456,0
44.7678,-36.3532,0.215882,0
44.8511,-36.3306,0.212337,0
44.9338,-36.306,0.208831,0
45.0159,-36.2796,0.205364,0
45.0973,-36.2513,0.201937,0
45.178,-36.2211,0.198538,0
45.2572,-36.1872,0.194505,0
45.3354,-36.1515,0.190521,0
45.4127,-36.114,0.186595,0
45.4893,-36.0749,0.182728,0
45.565,-36.0345,0.179075,0
45.6398,-35.9928,0.175579,0
45.7137,-35.9494,0.172152,0
45.7866,-35.9044,0.168802,0
45.8584,-35.8579,0.16554,0
45.9291,-35.8098,0.162337,0
45.9987,-35.7602,0.159222,0
46.0671,-35.7092,0.156195,0
46.1344,-35.6566,0.153245,0
46.2005,-35.6027,0.150374,0
46.2653,-35.5473,0.147591,0
46.3288,-35.4905,0.144886,0
46.3911,-35.4324,0.142279,0
46.452,-35.373,0.139749,0
46.5116,-35.3123,0.137308,0
46.5698,-35.2503,0.134974,0
46.6267,-35.1871,0.132718,0
46.6821,-35.1227,0.13054,0
46.7361,-35.0571,0.12848,0
46.7887,-34.9903,0.126497,0
46.8397,-34.9225,0.124613,0
46.8892,-34.8535,0.122816,0
46.9372,-34.7836,0.121126,0
46.9837,-34.7126,0.119525,0
47.0286,-34.6406,0.11803,0
47.0719,-34.5676,0.116614,0
47.1136,-34.4938,0.115316,0
47.1536,-34.4191,0.114105,0
47.192,-34.3435,0.112991,0
47.2287,-34.2671,0.111986,0
47.2638,-34.1899,0.111077,0
47.2972,-34.112,0.110267,0
47.3289,-34.0334,0.109564,0
47.3589,-33.9541,0.108958,0
47.3871,-33.8742,0.108441,0
47.4136,-33.7937,0.10805,0
47.4383,-33.7126,0.107738,0
47.4613,-33.6309,0.107532,0
47.4824,-33.5488,0.107445,0
47.5018,-33.4662,0.107435,0
47.5193,-33.3832,0.107542,0
47.535,-33.2999,0.107757,0
41.507,-35.6163,0.345941,0
41.5735,-35.6716,0.343704,0
41.6413,-35.7254,0.341429,0
41.7103,-35.7776,0.339134,0
41.7805,-35.8284,0.33682,0
41.8519,-35.8775,0.334476,0
41.9243,-35.9251,0.332112,0
41.9979,-35.971,0.32973,0
45.4707,-35.9911,0.184691,0
45.5446,-35.9516,0.181214,0
45.6177,-35.9104,0.177806,0
45.6897,-35.8677,0.174476,0
45.7607,-35.8234,0.171214,0
45.8308,-35.7776,0.16803,0
45.8997,-35.7303,0.164925,0
45.9675,-35.6815,0.161898,0
46.0343,-35.6313,0.158948,0
46.0998,-35.5796,0.156077,0
46.1641,-35.5266,0.153284,0
46.2273,-35.4722,0.150579,0
46.2891,-35.4164,0.147952,0
46.3498,-35.3593,0.145423,0
46.4092,-35.3009,0.142972,0
46.4672,-35.2412,0.140599,0
46.5239,-35.1804,0.138323,0
46.5792,-35.1183,0.136136,0
46.6331,-35.055,0.134036,0
46.6856,-34.9906,0.132034,0
46.7367,-34.9251,0.13012,0
46.7863,-34.8585,0.128284,0
46.8345,-34.7908,0.126566,0
46.881,-34.7222,0.124915,0
46.9262,-34.6525,0.123382,0
46.9697,-34.5819,0.121927,0
47.0117,-34.5104,0.120579,0
47.0522,-34.438,0.11932,0
47.091,-34.3647,0.118157,0
47.1282,-34.2906,0.117093,0
47.1637,-34.2157,0.116126,0
47.1977,-34.14,0.115267,0
47.23,-34.0636,0.114486,0
47.2605,-33.9866,0.113821,0
47.2895,-33.9089,0.113245,0
47.3167,-33.8306,0.112777,0
47.3423,-33.7516,0.112405,0
47.366,-33.6722,0.112132,0
47.388,-33.5922,0.111956,0
47.4084,-33.5118,0.111888,0
47.4269,-33.4309,0.111917,0
47.4437,-33.3496,0.112044,0
41.5752,-35.5629,0.344339,0
41.6405,-35.6165,0.342142,0
41.707,-35.6687,0.339915,0
41.7748,-35.7195,0.337669,0
41.8438,-35.7687,0.335394,0
41.9137,-35.8163,0.333099,0
41.9848,-35.8624,0.330784,0
42.0571,-35.9069,0.32845,0
42.1303,-35.9498,0.326087,0
42.2045,-35.991,0.323724,0
42.2797,-36.0305,0.321331,0
42.3558,-36.0685,0.318958,0
42.4326,-36.1049,0.316663,0
42.5103,-36.1396,0.314329,0
42.5889,-36.1726,0.312005,0
42.6685,-36.2028,0.3093,0
42.7492,-36.2298,0.306029,0
42.8309,-36.2535,0.302259,0
42.9132,-36.2753,0.29848,0
42.9959,-36.2953,0.294691,0
43.0791,-36.3133,0.290892,0
43.1625,-36.3294,0.287103,0
43.2463,-36.3435,0.283304,0
43.3303,-36.3558,0.279505,0
43.4146,-36.366,0.275706,0
43.4991,-36.3744,0.271917,0
43.5837,-36.3808,0.268128,0
43.6684,-36.3852,0.264349,0
43.753,-36.3877,0.260589,0
43.8377,-36.3883,0.256829,0
43.9224,-36.3869,0.253099,0
44.007,-36.3836,0.249368,0
44.0915,-36.3783,0.245667,0
44.1756,-36.3711,0.241976,0
44.2598,-36.362,0.238314,0
44.3436,-36.351,0.234681,0
44.427,-36.338,0.231058,0
44.5102,-36.3232,0.227474,0
44.5929,-36.3065,0.223919,0
44.6752,-36.2878,0.220394,0
44.757,-36.2674,0.216898,0
44.8384,-36.245,0.213431,0
44.9191,-36.2208,0.210023,0
44.9992,-36.1949,0.206644,0
45.0787,-36.167,0.203294,0
45.1575,-36.1374,0.199993,0
45.235,-36.1046,0.196214,0
45.3114,-36.0696,0.192327,0
45.3872,-36.0333,0.188636,0
45.4623,-35.9955,0.185091,0
45.5362,-35.9562,0.181605,0
45.6094,-35.9152,0.178196,0
45.6816,-35.8726,0.174857,0
45.7527,-35.8285,0.171585,0
45.8228,-35.7829,0.168392,0
45.8919,-35.7358,0.165277,0
45.9599,-35.6871,0.162239,0
46.0267,-35.6371,0.15928,0
46.0924,-35.5856,0.1564,0
46.157,-35.5327,0.153597,0
46.2202,-35.4784,0.150882,0
46.2823,-35.4228,0.148255,0
46.343,-35.3658,0.145696,0
46.4025,-35.3076,0.143245,0
46.4607,-35.2481,0.140872,0
46.5176,-35.1873,0.138577,0
46.573,-35.1254,0.13638,0
46.6271,-35.0622,0.134271,0
46.6798,-34.998,0.132249,0
46.731,-34.9326,0.130325,0
46.7808,-34.8661,0.128499,0
46.8291,-34.7986,0.126741,0
46.8759,-34.73,0.125111,0
46.9212,-34.6605,0.123548,0
46.9648,-34.59,0.122083,0
47.007,-34.5185,0.120726,0
47.0477,-34.4462,0.119456,0
47.0866,-34.373,0.118284,0
47.1241,-34.299,0.11721,0
47.1598,-34.2242,0.116234,0
47.1939,-34.1486,0.115355,0
47.2264,-34.0723,0.114573,0
47.2573,-33.9953,0.11389,0
47.2863,-33.9177,0.113314,0
47.3137,-33.8395,0.112825,0
47.3395,-33.7606,0.112435,0
47.3634,-33.6812,0.112161,0
47.3857,-33.6013,0.111976,0
47.4062,-33.5209,0.111888,0
47.4248,-33.4401,0.111907,0
47.4418,-33.3589,0.112015,0
41.5679,-35.5567,0.344593,0
41.633,-35.6105,0.342396,0
41.6995,-35.6629,0.340179,0
41.767,-35.7138,0.337933,0
41.8358,-35.7632,0.335657,0
41.9058,-35.811,0.333362,0
41.9768,-35.8573,0.331048,0
42.0488,-35.9019,0.328714,0
42.122,-35.945,0.326361,0
42.1961,-35.9864,0.323997,0
42.2712,-36.0261,0.321605,0
42.3471,-36.0642,0.319222,0
42.4238,-36.1009,0.316907,0
42.5015,-36.1358,0.314603,0
42.5799,-36.1689,0.312259,0
42.6594,-36.1995,0.309603,0
42.7401,-36.2269,0.306448,0
42.8217,-36.2509,0.302679,0
42.9039,-36.273,0.298909,0
42.9866,-36.2931,0.295111,0
43.0696,-36.3113,0.291321,0
43.153,-36.3276,0.287523,0
43.2367,-36.342,0.283724,0
43.3208,-36.3545,0.279935,0
43.405,-36.365,0.276146,0
43.4895,-36.3735,0.272347,0
43.574,-36.3802,0.268558,0
43.6587,-36.3848,0.264779,0
43.7434,-36.3875,0.261009,0
43.8281,-36.3883,0.257259,0
43.9128,-36.3872,0.253519,0
43.9974,-36.384,0.249788,0
44.0819,-36.379,0.246087,0
44.1662,-36.372,0.242396,0
44.2502,-36.3631,0.238734,0
44.3341,-36.3523,0.235081,0
44.4176,-36.3396,0.231468,0
44.5008,-36.325,0.227874,0
44.5836,-36.3084,0.22432,0
44.6659,-36.29,0.220794,0
44.7477,-36.2698,0.217288,0
44.8291,-36.2477,0.213831,0
44.9099,-36.2237,0.210413,0
44.9902,-36.1979,0.207015,0
45.0697,-36.1703,0.203665,0
45.1487,-36.1409,0.200364,0
45.2263,-36.1084,0.196654,0
45.3028,-36.0736,0.192767,0
45.3787,-36.0375,0.189046,0
45.4538,-35.9999,0.185491,0
45.528,-35.9607,0.182005,0
45.6012,-35.9199,0.178577,0
45.6735,-35.8775,0.175228,0
45.7448,-35.8336,0.171956,0
45.815,-35.7881,0.168743,0
45.8841,-35.7412,0.165628,0
45.9523,-35.6927,0.162571,0
46.0192,-35.6428,0.159603,0
46.085,-35.5915,0.156722,0
46.1497,-35.5387,0.153919,0
46.2131,-35.4846,0.151185,0
46.2753,-35.4291,0.148538,0
46.3363,-35.3723,0.145989,0
46.3959,-35.3142,0.143519,0
46.4541,-35.2549,0.141126,0
46.5112,-35.1943,0.138831,0
46.5668,-35.1324,0.136624,0
46.621,-35.0694,0.134505,0
46.6738,-35.0053,0.132474,0
46.7252,-34.94,0.13054,0
46.7752,-34.8737,0.128695,0
46.8237,-34.8063,0.126937,0
46.8706,-34.7378,0.125286,0
46.9161,-34.6684,0.123714,0
46.96,-34.598,0.122249,0
47.0023,-34.5267,0.120872,0
47.0431,-34.4544,0.119593,0
47.0823,-34.3813,0.118411,0
47.1199,-34.3074,0.117327,0
47.1559,-34.2327,0.116341,0
47.1902,-34.1572,0.115452,0
47.2228,-34.081,0.114652,0
47.2538,-34.0041,0.113968,0
47.2831,-33.9266,0.113372,0
47.3107,-33.8484,0.112874,0
47.3366,-33.7696,0.112474,0
47.3608,-33.6902,0.112181,0
47.3833,-33.6104,0.111995,0
47.4039,-33.5301,0.111888,0
47.4228,-33.4493,0.111898,0
47.44,-33.3681,0.112005,0
47.4554,-33.2865,0.1122,0
41.5605,-35.5505,0.344837,0
41.6256,-35.6045,0.34264,0
41.6919,-35.657,0.340423,0
41.7594,-35.7081,0.338187,0
41.828,-35.7576,0.335911,0
41.8978,-35.8056,0.333626,0
41.9687,-35.8521,0.331312,0
42.0406,-35.8969,0.328978,0
45.4363,-35.9195,0.187445,0
45.5087,-35.8808,0.184046,0
45.5802,-35.8406,0.180706,0
45.6506,-35.7988,0.177445,0
45.7202,-35.7556,0.174261,0
45.7887,-35.7108,0.171136,0
45.8562,-35.6646,0.168099,0
45.9226,-35.6169,0.16513,0
45.9879,-35.5677,0.162239,0
46.052,-35.5172,0.159437,0
46.115,-35.4654,0.156702,0
46.1768,-35.4121,0.154056,0
46.2374,-35.3576,0.151487,0
46.2968,-35.3017,0.148997,0
46.3548,-35.2446,0.146605,0
46.4117,-35.1863,0.14428,0
46.4672,-35.1268,0.142064,0
46.5213,-35.066,0.139915,0
46.5741,-35.0041,0.137864,0
46.6255,-34.9411,0.135892,0
46.6755,-34.877,0.134007,0
46.724,-34.8119,0.13223,0
46.7711,-34.7457,0.13053,0
46.8168,-34.6785,0.128929,0
46.8609,-34.6104,0.127415,0
46.9036,-34.5413,0.125999,0
46.9447,-34.4713,0.124671,0
46.9842,-34.4004,0.12345,0
47.0223,-34.3287,0.122308,0
47.0587,-34.2562,0.121273,0
47.0935,-34.1829,0.120316,0
47.1266,-34.1089,0.119476,0
47.1583,-34.0342,0.118714,0
47.1883,-33.9588,0.11806,0
47.2166,-33.8827,0.117503,0
47.2432,-33.8061,0.117044,0
47.2681,-33.7289,0.116683,0
47.2913,-33.6511,0.116409,0
47.3129,-33.5729,0.116243,0
47.3327,-33.4942,0.116175,0
47.3509,-33.415,0.116195,0
47.3673,-33.3355,0.116321,0
41.6262,-35.4993,0.343284,0
41.6902,-35.5518,0.341136,0
41.7553,-35.6028,0.338968,0
41.8216,-35.6524,0.336761,0
41.889,-35.7005,0.334544,0
41.9575,-35.747,0.332298,0
42.0271,-35.792,0.330032,0
42.0977,-35.8355,0.327738,0
42.1693,-35.8774,0.325443,0
42.2419,-35.9177,0.323118,0
42.3154,-35.9563,0.320784,0
42.3898,-35.9933,0.318431,0
42.4652,-36.0286,0.316068,0
42.5412,-36.0622,0.313704,0
42.618,-36.0944,0.311409,0
42.6957,-36.1243,0.308939,0
42.7749,-36.1498,0.305384,0
42.8548,-36.173,0.301712,0
42.9352,-36.1944,0.298011,0
43.0161,-36.2139,0.29431,0
43.0973,-36.2315,0.290609,0
43.1788,-36.2473,0.286898,0
43.2607,-36.2612,0.283177,0
43.3429,-36.2731,0.279466,0
43.4252,-36.2832,0.275765,0
43.5078,-36.2914,0.272044,0
43.5905,-36.2977,0.268343,0
43.6732,-36.3021,0.264661,0
43.756,-36.3046,0.26098,0
43.8389,-36.3051,0.257308,0
43.9216,-36.3038,0.253655,0
44.0043,-36.3006,0.250023,0
44.0869,-36.2955,0.24639,0
44.1692,-36.2885,0.242786,0
44.2513,-36.2796,0.239212,0
44.3333,-36.2688,0.235648,0
44.4149,-36.2562,0.232122,0
44.4962,-36.2418,0.228607,0
44.5771,-36.2254,0.22513,0
44.6575,-36.2073,0.221683,0
44.7375,-36.1873,0.218265,0
44.817,-36.1655,0.214886,0
44.896,-36.1419,0.211546,0
44.9744,-36.1165,0.208236,0
45.0521,-36.0893,0.204964,0
45.1291,-36.0604,0.201741,0
45.2054,-36.0295,0.19847,0
45.2805,-35.9959,0.194857,0
45.3546,-35.9606,0.191312,0
45.428,-35.9237,0.187835,0
45.5005,-35.8853,0.184417,0
45.5721,-35.8452,0.181077,0
45.6427,-35.8036,0.177816,0
45.7124,-35.7605,0.174612,0
45.781,-35.7159,0.171487,0
45.8486,-35.6699,0.168441,0
45.9152,-35.6223,0.165462,0
45.9805,-35.5734,0.162571,0
46.0448,-35.523,0.159749,0
46.1079,-35.4713,0.157005,0
46.1699,-35.4182,0.154349,0
46.2306,-35.3638,0.151771,0
46.2901,-35.3081,0.14928,0
46.3484,-35.2512,0.146868,0
46.4053,-35.193,0.144544,0
46.4609,-35.1336,0.142308,0
46.5152,-35.073,0.14015,0
46.5681,-35.0112,0.138089,0
46.6197,-34.9483,0.136107,0
46.6698,-34.8844,0.134222,0
46.7186,-34.8193,0.132425,0
46.7659,-34.7533,0.130716,0
46.8116,-34.6862,0.129114,0
46.856,-34.6181,0.127581,0
46.8988,-34.5492,0.126155,0
46.9401,-34.4793,0.124827,0
46.9798,-34.4085,0.123577,0
47.018,-34.3369,0.122435,0
47.0546,-34.2645,0.12139,0
47.0897,-34.1913,0.120423,0
47.123,-34.1173,0.119573,0
47.1548,-34.0427,0.118802,0
47.1849,-33.9674,0.118138,0
47.2134,-33.8914,0.117562,0
47.2402,-33.8148,0.117093,0
47.2653,-33.7376,0.116712,0
47.2887,-33.66,0.116439,0
47.3105,-33.5818,0.116253,0
47.3306,-33.5031,0.116175,0
47.349,-33.424,0.116185,0
47.3655,-33.3445,0.116302,0
41.6191,-35.4933,0.343529,0
41.6829,-35.5459,0.34138,0
41.7479,-35.5971,0.339202,0
41.814,-35.6468,0.337005,0
41.8812,-35.6951,0.334798,0
41.9497,-35.7418,0.332552,0
42.0191,-35.787,0.330296,0
42.0897,-35.8307,0.328011,0
42.1612,-35.8727,0.325706,0
42.2336,-35.9132,0.323382,0
42.307,-35.952,0.321048,0
42.3814,-35.9892,0.318704,0
42.4566,-36.0247,0.316341,0
42.5326,-36.0585,0.313958,0
42.6092,-36.0908,0.311673,0
42.6869,-36.1211,0.309232,0
42.766,-36.147,0.305804,0
42.8459,-36.1705,0.302132,0
42.9261,-36.192,0.298431,0
43.0069,-36.2118,0.29473,0
43.088,-36.2296,0.291028,0
43.1696,-36.2456,0.287308,0
43.2515,-36.2597,0.283607,0
43.3336,-36.2719,0.279896,0
43.4159,-36.2822,0.276185,0
43.4984,-36.2906,0.272474,0
43.5811,-36.2971,0.268773,0
43.6638,-36.3017,0.265081,0
43.7466,-36.3044,0.2614,0
43.8295,-36.3052,0.257728,0
43.9123,-36.3041,0.254066,0
43.9949,-36.3011,0.250423,0
44.0775,-36.2962,0.2468,0
44.1599,-36.2894,0.243187,0
44.2421,-36.2807,0.239613,0
44.3241,-36.2702,0.236058,0
44.4057,-36.2578,0.232513,0
44.487,-36.2435,0.228997,0
44.568,-36.2274,0.225521,0
44.6484,-36.2094,0.222073,0
44.7285,-36.1896,0.218646,0
44.8081,-36.168,0.215267,0
44.8871,-36.1446,0.211917,0
44.9655,-36.1194,0.208597,0
45.0434,-36.0925,0.205325,0
45.1205,-36.0638,0.202103,0
45.1968,-36.0332,0.19888,0
45.272,-35.9998,0.195267,0
45.3462,-35.9647,0.191702,0
45.4198,-35.928,0.188226,0
45.4924,-35.8897,0.184808,0
45.564,-35.8498,0.181458,0
45.6348,-35.8084,0.178177,0
45.7045,-35.7655,0.174974,0
45.7732,-35.7211,0.171839,0
45.8409,-35.6752,0.168782,0
45.9076,-35.6278,0.165794,0
45.9732,-35.579,0.162884,0
46.0376,-35.5288,0.160062,0
46.1009,-35.4772,0.157318,0
46.1629,-35.4243,0.154652,0
46.2238,-35.3701,0.152054,0
46.2834,-35.3145,0.149564,0
46.3418,-35.2577,0.147142,0
46.3989,-35.1996,0.144798,0
46.4547,-35.1404,0.142552,0
46.5091,-35.0799,0.140394,0
46.5623,-35.0183,0.138314,0
46.614,-34.9555,0.136321,0
46.6643,-34.8917,0.134427,0
46.7131,-34.8267,0.13263,0
46.7605,-34.7608,0.130911,0
46.8066,-34.6938,0.12928,0
46.851,-34.6259,0.127747,0
46.894,-34.557,0.126312,0
46.9355,-34.4872,0.124964,0
46.9755,-34.4166,0.123714,0
47.0137,-34.3451,0.122562,0
47.0505,-34.2727,0.121497,0
47.0857,-34.1996,0.120521,0
47.1193,-34.1258,0.119661,0
47.1512,-34.0512,0.11889,0
47.1816,-33.9759,0.118206,0
47.2103,-33.9,0.11763,0
47.2373,-33.8235,0.117142,0
47.2627,-33.7464,0.116751,0
47.2862,-33.6688,0.116468,0
47.3081,-33.5907,0.116273,0
47.3284,-33.512,0.116175,0
47.3469,-33.433,0.116185,0
47.3638,-33.3536,0.116292,0
47.3787,-33.2737,0.116488,0
41.612,-35.4873,0.343773,0
41.6757,-35.54,0.341634,0
41.7405,-35.5914,0.339456,0
41.8065,-35.6413,0.337269,0
41.8737,-35.6897,0.335042,0
41.9419,-35.7366,0.332806,0
42.0112,-35.782,0.33055,0
42.0816,-35.8258,0.328265,0
45.4032,-35.8505,0.190091,0
45.4741,-35.8127,0.186761,0
45.5441,-35.7734,0.183499,0
45.6131,-35.7326,0.180306,0
45.6812,-35.6902,0.177171,0
45.7482,-35.6465,0.174124,0
45.8143,-35.6012,0.171155,0
45.8793,-35.5546,0.168245,0
45.9433,-35.5066,0.165413,0
46.0061,-35.4572,0.162669,0
46.0677,-35.4064,0.159993,0
46.1283,-35.3544,0.157396,0
46.1876,-35.301,0.154876,0
46.2457,-35.2464,0.152445,0
46.3026,-35.1905,0.150091,0
46.3581,-35.1334,0.147825,0
46.4125,-35.0751,0.145648,0
46.4655,-35.0157,0.143548,0
46.5173,-34.9552,0.141536,0
46.5675,-34.8935,0.139612,0
46.6165,-34.8308,0.137767,0
46.6641,-34.767,0.136019,0
46.7102,-34.7023,0.134359,0
46.7549,-34.6365,0.132786,0
46.7981,-34.5698,0.131302,0
46.8398,-34.5022,0.129915,0
46.8802,-34.4337,0.128626,0
46.9188,-34.3643,0.127425,0
46.9561,-34.2941,0.126312,0
46.9917,-34.2232,0.125286,0
47.0258,-34.1514,0.124359,0
47.0583,-34.079,0.123529,0
47.0892,-34.0058,0.122786,0
47.1185,-33.932,0.122152,0
47.1462,-33.8576,0.121605,0
47.1723,-33.7825,0.121146,0
47.1967,-33.7069,0.120794,0
47.2195,-33.6308,0.12053,0
47.2406,-33.5542,0.120374,0
47.26,-33.4772,0.120296,0
47.2777,-33.3997,0.120325,0
47.2938,-33.3219,0.120452,0
41.6755,-35.4383,0.342269,0
41.738,-35.4896,0.340169,0
41.8017,-35.5394,0.33804,0
41.8666,-35.5879,0.335892,0
41.9326,-35.6349,0.333714,0
41.9996,-35.6804,0.331517,0
42.0677,-35.7244,0.32931,0
42.1368,-35.7669,0.327073,0
42.2069,-35.8078,0.324818,0
42.2779,-35.8472,0.322542,0
42.3498,-35.8849,0.320257,0
42.4227,-35.9211,0.317962,0
42.4963,-35.9556,0.315648,0
42.5707,-35.9884,0.313323,0
42.6459,-36.0196,0.31097,0
42.722,-36.0485,0.308441,0
42.7997,-36.0729,0.304779,0
42.8778,-36.0956,0.301175,0
42.9563,-36.1166,0.297571,0
43.0354,-36.1357,0.293948,0
43.1148,-36.153,0.290316,0
43.1945,-36.1684,0.286693,0
43.2746,-36.182,0.28307,0
43.355,-36.1938,0.279437,0
43.4355,-36.2036,0.275804,0
43.5162,-36.2117,0.272181,0
43.597,-36.2179,0.268568,0
43.678,-36.2222,0.264964,0
43.759,-36.2246,0.261351,0
43.8399,-36.2252,0.257767,0
43.9209,-36.224,0.254193,0
44.0017,-36.2208,0.250628,0
44.0824,-36.2159,0.247093,0
44.163,-36.2091,0.243568,0
44.2434,-36.2004,0.240062,0
44.3234,-36.1899,0.236585,0
44.4033,-36.1776,0.233118,0
44.4827,-36.1635,0.2297,0
44.562,-36.1476,0.226292,0
44.6405,-36.1298,0.222923,0
44.7188,-36.1103,0.219583,0
44.7966,-36.089,0.216273,0
44.8738,-36.066,0.213001,0
44.9505,-36.0414,0.209866,0
45.0267,-36.0154,0.206829,0
45.1023,-35.9875,0.203831,0
45.1772,-35.958,0.200882,0
45.2507,-35.9252,0.197347,0
45.3234,-35.8907,0.19389,0
45.3952,-35.8546,0.190482,0
45.4661,-35.817,0.187132,0
45.5362,-35.7779,0.183861,0
45.6053,-35.7373,0.180667,0
45.6735,-35.6951,0.177532,0
45.7407,-35.6515,0.174466,0
45.8069,-35.6064,0.171478,0
45.872,-35.56,0.168568,0
45.936,-35.5121,0.165726,0
45.999,-35.4628,0.162972,0
46.0608,-35.4122,0.160286,0
46.1214,-35.3603,0.157689,0
46.1809,-35.3071,0.155169,0
46.2392,-35.2526,0.152718,0
46.2962,-35.1969,0.150364,0
46.352,-35.1399,0.148079,0
46.4064,-35.0818,0.145892,0
46.4596,-35.0225,0.143773,0
46.5114,-34.9621,0.141751,0
46.5619,-34.9005,0.139818,0
46.611,-34.838,0.137972,0
46.6587,-34.7743,0.136214,0
46.7051,-34.7096,0.134544,0
46.7498,-34.644,0.132962,0
46.7933,-34.5774,0.131468,0
46.8352,-34.5099,0.130071,0
46.8756,-34.4415,0.128763,0
46.9145,-34.3722,0.127552,0
46.9519,-34.3021,0.126429,0
46.9877,-34.2312,0.125394,0
47.022,-34.1596,0.124466,0
47.0548,-34.0872,0.123626,0
47.0858,-34.0141,0.122864,0
47.1153,-33.9404,0.12222,0
47.1432,-33.866,0.121654,0
47.1695,-33.7911,0.121195,0
47.1941,-33.7155,0.120833,0
47.217,-33.6395,0.12055,0
47.2383,-33.5629,0.120384,0
47.2579,-33.4859,0.120306,0
47.2758,-33.4085,0.120325,0
47.292,-33.3307,0.120433,0
41.6685,-35.4324,0.342513,0
41.7309,-35.4838,0.340403,0
41.7945,-35.5338,0.338284,0
41.8592,-35.5825,0.336136,0
41.925,-35.6296,0.333958,0
41.992,-35.6753,0.331761,0
42.0599,-35.7195,0.329554,0
42.1289,-35.7622,0.327318,0
42.1988,-35.8033,0.325071,0
42.2698,-35.8428,0.322806,0
42.3416,-35.8807,0.320521,0
42.4143,-35.9171,0.318216,0
42.4878,-35.9517,0.315902,0
42.5623,-35.9848,0.313577,0
42.6373,-36.0161,0.311243,0
42.7133,-36.0456,0.308821,0
42.7909,-36.0702,0.305189,0
42.8689,-36.0932,0.301585,0
42.9474,-36.1143,0.297982,0
43.0264,-36.1336,0.294368,0
43.1058,-36.1511,0.290736,0
43.1855,-36.1668,0.287113,0
43.2655,-36.1806,0.28348,0
43.3459,-36.1925,0.279847,0
43.4264,-36.2026,0.276224,0
43.507,-36.2109,0.272601,0
43.5879,-36.2173,0.268978,0
43.6688,-36.2218,0.265364,0
43.7498,-36.2244,0.261761,0
43.8307,-36.2253,0.258167,0
43.9117,-36.2242,0.254593,0
43.9925,-36.2213,0.251038,0
44.0733,-36.2165,0.247493,0
44.1539,-36.2099,0.243968,0
44.2342,-36.2015,0.240462,0
44.3144,-36.1912,0.236986,0
44.3942,-36.1791,0.233519,0
44.4737,-36.1652,0.230091,0
44.553,-36.1495,0.226683,0
44.6317,-36.1319,0.223304,0
44.71,-36.1126,0.219964,0
44.7878,-36.0915,0.216654,0
44.8651,-36.0687,0.213372,0
44.9419,-36.0443,0.210218,0
45.0181,-36.0184,0.207171,0
45.0938,-35.9908,0.204173,0
45.1687,-35.9615,0.201224,0
45.2423,-35.929,0.197747,0
45.3152,-35.8947,0.194271,0
45.387,-35.8588,0.190853,0
45.458,-35.8214,0.187513,0
45.5283,-35.7824,0.184232,0
45.5976,-35.7419,0.181019,0
45.6658,-35.7,0.177884,0
45.7331,-35.6565,0.174818,0
45.7994,-35.6116,0.17182,0
45.8647,-35.5653,0.1689,0
45.9288,-35.5176,0.166048,0
45.9919,-35.4685,0.163275,0
46.0538,-35.418,0.160589,0
46.1146,-35.3663,0.157972,0
46.1743,-35.3132,0.155443,0
46.2327,-35.2589,0.152991,0
46.2898,-35.2033,0.150618,0
46.3457,-35.1465,0.148333,0
46.4003,-35.0884,0.146126,0
46.4536,-35.0293,0.144017,0
46.5056,-34.969,0.141986,0
46.5563,-34.9076,0.140032,0
46.6055,-34.8451,0.138177,0
46.6534,-34.7816,0.136409,0
46.6998,-34.717,0.13473,0
46.7448,-34.6515,0.133138,0
46.7884,-34.585,0.131634,0
46.8305,-34.5176,0.130228,0
46.8711,-34.4493,0.128909,0
46.9102,-34.3801,0.127679,0
46.9477,-34.3101,0.126546,0
46.9837,-34.2393,0.125501,0
47.0182,-34.1677,0.124564,0
47.0511,-34.0954,0.123704,0
47.0823,-34.0224,0.122952,0
47.112,-33.9488,0.122288,0
47.1401,-33.8745,0.121712,0
47.1666,-33.7996,0.121243,0
47.1914,-33.7241,0.120862,0
47.2145,-33.6481,0.120579,0
47.2359,-33.5716,0.120394,0
47.2558,-33.4947,0.120306,0
47.2738,-33.4173,0.120316,0
47.2903,-33.3395,0.120413,0
47.305,-33.2614,0.120609,0
41.6615,-35.4265,0.342747,0
41.7237,-35.4781,0.340648,0
41.7872,-35.5283,0.338529,0
41.8518,-35.577,0.33638,0
41.9176,-35.6244,0.334202,0
41.9843,-35.6702,0.332015,0
42.0521,-35.7146,0.329808,0
42.121,-35.7574,0.327571,0
45.3714,-35.784,0.19265,0
45.4407,-35.7471,0.189388,0
45.5093,-35.7087,0.186195,0
45.5769,-35.6687,0.18305,0
45.6436,-35.6273,0.179993,0
45.7092,-35.5845,0.177005,0
45.7739,-35.5403,0.174095,0
45.8377,-35.4947,0.171253,0
45.9002,-35.4477,0.16847,0
45.9617,-35.3993,0.165775,0
46.0222,-35.3497,0.163157,0
46.0815,-35.2987,0.160609,0
46.1396,-35.2465,0.158148,0
46.1965,-35.193,0.155765,0
46.2523,-35.1383,0.15346,0
46.3066,-35.0825,0.151243,0
46.3599,-35.0254,0.149105,0
46.4119,-34.9673,0.147044,0
46.4624,-34.908,0.145081,0
46.5117,-34.8476,0.143196,0
46.5597,-34.7862,0.14139,0
46.6063,-34.7238,0.139681,0
46.6515,-34.6604,0.13805,0
46.6952,-34.596,0.136507,0
46.7376,-34.5307,0.135062,0
46.7785,-34.4645,0.133695,0
46.8179,-34.3974,0.132425,0
46.8559,-34.3295,0.131243,0
46.8923,-34.2608,0.13015,0
46.9272,-34.1913,0.129154,0
46.9605,-34.121,0.128245,0
46.9924,-34.0501,0.127435,0
47.0227,-33.9785,0.126722,0
47.0514,-33.9062,0.126087,0
47.0785,-33.8333,0.12555,0
47.1041,-33.7598,0.125101,0
47.128,-33.6858,0.124759,0
47.1502,-33.6113,0.124505,0
47.1709,-33.5363,0.124339,0
47.1898,-33.4608,0.12428,0
47.2072,-33.385,0.12431,0
47.2229,-33.3087,0.124417,0
41.7228,-35.3795,0.341302,0
41.784,-35.4296,0.339241,0
41.8464,-35.4784,0.337161,0
41.9099,-35.5258,0.335052,0
41.9745,-35.5718,0.332923,0
42.0401,-35.6163,0.330775,0
42.1067,-35.6593,0.328607,0
42.1744,-35.7009,0.326409,0
42.243,-35.7409,0.324212,0
42.3125,-35.7794,0.321995,0
42.3829,-35.8163,0.319749,0
42.4541,-35.8516,0.317503,0
42.5262,-35.8853,0.315237,0
42.5991,-35.9174,0.312962,0
42.6727,-35.9478,0.310677,0
42.7473,-35.9756,0.307982,0
42.8231,-36,0.304573,0
42.8997,-36.0219,0.300911,0
42.9766,-36.0421,0.297249,0
43.054,-36.0605,0.293597,0
43.1316,-36.0774,0.290062,0
43.2097,-36.0926,0.286507,0
43.288,-36.1059,0.282952,0
43.3665,-36.1174,0.279407,0
43.4453,-36.1271,0.275853,0
43.5242,-36.135,0.272308,0
43.6034,-36.1411,0.268773,0
43.6825,-36.1454,0.265247,0
43.7617,-36.1478,0.261722,0
43.8409,-36.1484,0.258206,0
43.9202,-36.1472,0.25471,0
43.9992,-36.1442,0.251224,0
44.0782,-36.1394,0.247767,0
44.157,-36.1327,0.24431,0
44.2356,-36.1243,0.240892,0
44.314,-36.1141,0.237484,0
44.3921,-36.102,0.234105,0
44.4698,-36.0882,0.230745,0
44.5473,-36.0727,0.227415,0
44.6243,-36.0554,0.224134,0
44.7009,-36.0367,0.22098,0
44.7771,-36.0162,0.217874,0
44.8528,-35.994,0.214798,0
44.9279,-35.9701,0.21178,0
45.0025,-35.9446,0.208792,0
45.0765,-35.9174,0.205862,0
45.1498,-35.8886,0.202982,0
45.222,-35.8571,0.199759,0
45.2931,-35.8233,0.196351,0
45.3634,-35.7881,0.193021,0
45.433,-35.7513,0.189749,0
45.5016,-35.7131,0.186546,0
45.5693,-35.6733,0.183411,0
45.6361,-35.6321,0.180345,0
45.7019,-35.5894,0.177347,0
45.7666,-35.5454,0.174417,0
45.8305,-35.4999,0.171566,0
45.8932,-35.453,0.168782,0
45.9548,-35.4049,0.166077,0
46.0154,-35.3554,0.16345,0
46.0748,-35.3045,0.160892,0
46.133,-35.2525,0.158421,0
46.1901,-35.1991,0.156038,0
46.2459,-35.1446,0.153724,0
46.3005,-35.0889,0.151487,0
46.3539,-35.032,0.149349,0
46.406,-34.9739,0.147279,0
46.4568,-34.9148,0.145296,0
46.5062,-34.8545,0.143392,0
46.5544,-34.7933,0.141595,0
46.6011,-34.7309,0.139866,0
46.6464,-34.6676,0.138226,0
46.6904,-34.6034,0.136683,0
46.7328,-34.5382,0.135208,0
46.7739,-34.472,0.133851,0
46.8135,-34.4051,0.132562,0
46.8516,-34.3373,0.13138,0
46.8882,-34.2686,0.130277,0
46.9234,-34.1992,0.129261,0
46.9569,-34.1291,0.128353,0
46.9889,-34.0582,0.127523,0
47.0194,-33.9866,0.12679,0
47.0483,-33.9144,0.126155,0
47.0755,-33.8416,0.125599,0
47.1012,-33.7682,0.12515,0
47.1253,-33.6942,0.124788,0
47.1478,-33.6197,0.124525,0
47.1686,-33.5448,0.124359,0
47.1878,-33.4694,0.124271,0
47.2053,-33.3936,0.1243,0
47.2212,-33.3174,0.124407,0
41.7159,-35.3737,0.341536,0
41.7771,-35.424,0.339476,0
41.8393,-35.473,0.337396,0
41.9026,-35.5205,0.335286,0
41.9671,-35.5667,0.333167,0
42.0326,-35.6113,0.331019,0
42.0991,-35.6545,0.328851,0
42.1666,-35.6963,0.326663,0
42.2351,-35.7364,0.324466,0
42.3045,-35.7751,0.322239,0
42.3748,-35.8122,0.320013,0
42.446,-35.8477,0.317757,0
42.518,-35.8816,0.315491,0
42.5908,-35.9139,0.313216,0
42.6643,-35.9445,0.310931,0
42.7388,-35.9727,0.308323,0
42.8145,-35.9974,0.304993,0
42.891,-36.0195,0.301331,0
42.9679,-36.0399,0.297659,0
43.0452,-36.0585,0.293997,0
43.1228,-36.0756,0.290452,0
43.2008,-36.091,0.286917,0
43.2791,-36.1045,0.283363,0
43.3576,-36.1162,0.279808,0
43.4364,-36.1261,0.276253,0
43.5153,-36.1342,0.272708,0
43.5944,-36.1405,0.269173,0
43.6735,-36.145,0.265638,0
43.7527,-36.1476,0.262122,0
43.832,-36.1484,0.258607,0
43.9112,-36.1474,0.255111,0
43.9902,-36.1446,0.251624,0
44.0693,-36.14,0.248157,0
44.148,-36.1336,0.24471,0
44.2267,-36.1253,0.241273,0
44.3052,-36.1153,0.237864,0
44.3833,-36.1035,0.234476,0
44.4611,-36.0899,0.231126,0
44.5385,-36.0745,0.227796,0
44.6156,-36.0574,0.224495,0
44.6923,-36.0389,0.221331,0
44.7685,-36.0186,0.218216,0
44.8442,-35.9966,0.21514,0
44.9195,-35.9729,0.212113,0
44.9941,-35.9476,0.209134,0
45.0681,-35.9206,0.206195,0
45.1415,-35.8919,0.203304,0
45.2139,-35.8608,0.20014,0
45.2852,-35.8273,0.196741,0
45.3555,-35.7922,0.193392,0
45.4252,-35.7556,0.19012,0
45.4938,-35.7175,0.186907,0
45.5616,-35.6779,0.183763,0
45.6285,-35.6368,0.180687,0
45.6945,-35.5943,0.177679,0
45.7594,-35.5504,0.174749,0
45.8233,-35.5051,0.171878,0
45.8861,-35.4584,0.169095,0
45.948,-35.4104,0.16638,0
46.0085,-35.361,0.163734,0
46.0681,-35.3104,0.161185,0
46.1265,-35.2584,0.158695,0
46.1837,-35.2052,0.156302,0
46.2397,-35.1508,0.153978,0
46.2945,-35.0952,0.151741,0
46.348,-35.0385,0.149583,0
46.4002,-34.9805,0.147503,0
46.4511,-34.9215,0.145511,0
46.5007,-34.8614,0.143607,0
46.549,-34.8002,0.14179,0
46.5958,-34.738,0.140052,0
46.6413,-34.6748,0.138402,0
46.6855,-34.6107,0.136849,0
46.7281,-34.5456,0.135384,0
46.7693,-34.4796,0.133997,0
46.8091,-34.4127,0.132708,0
46.8473,-34.345,0.131507,0
46.8841,-34.2764,0.130394,0
46.9194,-34.2071,0.129378,0
46.9532,-34.137,0.12845,0
46.9854,-34.0662,0.127611,0
47.016,-33.9948,0.126868,0
47.045,-33.9226,0.126214,0
47.0726,-33.8499,0.125667,0
47.0984,-33.7765,0.125198,0
47.1227,-33.7026,0.124827,0
47.1453,-33.6282,0.124554,0
47.1663,-33.5533,0.124378,0
47.1857,-33.478,0.12429,0
47.2034,-33.4022,0.12429,0
47.2195,-33.326,0.124388,0
47.2339,-33.2495,0.124573,0
41.7091,-35.3679,0.341761,0
41.7701,-35.4184,0.33971,0
41.8322,-35.4675,0.33763,0
41.8954,-35.5152,0.335521,0
41.9598,-35.5615,0.333402,0
42.0252,-35.6063,0.331253,0
42.0916,-35.6497,0.329095,0
42.159,-35.6916,0.326917,0
45.3407,-35.72,0.195111,0
45.4087,-35.6838,0.191907,0
45.4758,-35.6462,0.188773,0
45.542,-35.6072,0.185706,0
45.6073,-35.5667,0.182708,0
45.6716,-35.5248,0.179779,0
45.7351,-35.4815,0.176927,0
45.7974,-35.4369,0.174134,0
45.8588,-35.3909,0.171419,0
45.9191,-35.3435,0.168782,0
45.9782,-35.2949,0.166214,0
46.0364,-35.245,0.163714,0
46.0933,-35.1939,0.161302,0
46.1491,-35.1416,0.158968,0
46.2037,-35.088,0.156712,0
46.257,-35.0333,0.154534,0
46.3091,-34.9775,0.152435,0
46.3601,-34.9205,0.150423,0
46.4097,-34.8625,0.148489,0
46.4579,-34.8034,0.146644,0
46.5049,-34.7433,0.144876,0
46.5505,-34.6821,0.143196,0
46.5948,-34.62,0.141605,0
46.6377,-34.557,0.140091,0
46.6792,-34.493,0.138675,0
46.7192,-34.4282,0.137337,0
46.7579,-34.3625,0.136097,0
46.7951,-34.296,0.134935,0
46.8308,-34.2286,0.13387,0
46.865,-34.1606,0.132894,0
46.8977,-34.0918,0.132005,0
46.9289,-34.0223,0.131204,0
46.9585,-33.9521,0.130501,0
46.9866,-33.8813,0.129886,0
47.0132,-33.8099,0.129359,0
47.0382,-33.7379,0.128919,0
47.0616,-33.6654,0.128577,0
47.0834,-33.5924,0.128333,0
47.1037,-33.519,0.128177,0
47.1223,-33.4451,0.128109,0
47.1393,-33.3708,0.128138,0
47.1546,-33.2961,0.128255,0
41.7684,-35.3229,0.340355,0
41.8284,-35.372,0.338343,0
41.8895,-35.4197,0.336302,0
41.9516,-35.4661,0.334241,0
42.0148,-35.511,0.332161,0
42.0791,-35.5546,0.330052,0
42.1443,-35.5967,0.327933,0
42.2105,-35.6373,0.325784,0
42.2777,-35.6764,0.323626,0
42.3458,-35.7141,0.321448,0
42.4147,-35.7502,0.319261,0
42.4845,-35.7847,0.317064,0
42.555,-35.8177,0.314837,0
42.6263,-35.849,0.312611,0
42.6984,-35.8788,0.310374,0
42.7717,-35.9054,0.307493,0
42.8457,-35.93,0.304466,0
42.9205,-35.9515,0.300882,0
42.9959,-35.9712,0.297288,0
43.0716,-35.9893,0.293714,0
43.1477,-36.0056,0.29013,0
43.2241,-36.0202,0.286566,0
43.3008,-36.0331,0.283021,0
43.3777,-36.0442,0.279466,0
43.4548,-36.0536,0.275941,0
43.532,-36.0613,0.272435,0
43.6095,-36.0672,0.268968,0
43.6869,-36.0714,0.265511,0
43.7644,-36.0738,0.262064,0
43.842,-36.0745,0.258636,0
43.9194,-36.0733,0.255208,0
43.9968,-36.0704,0.2518,0
44.0741,-36.0657,0.248402,0
44.1512,-36.0592,0.245042,0
44.2282,-36.0511,0.241732,0
44.305,-36.0413,0.23846,0
44.3814,-36.0297,0.235218,0
44.4576,-36.0165,0.232005,0
44.5334,-36.0015,0.228841,0
44.6089,-35.9849,0.225716,0
44.6839,-35.9665,0.22262,0
44.7585,-35.9465,0.219573,0
44.8326,-35.9248,0.216566,0
44.9062,-35.9015,0.213607,0
44.9791,-35.8765,0.210687,0
45.0516,-35.8499,0.207825,0
45.1234,-35.8216,0.205003,0
45.1944,-35.7914,0.202073,0
45.264,-35.7585,0.198743,0
45.3329,-35.724,0.195472,0
45.401,-35.688,0.192269,0
45.4683,-35.6506,0.189134,0
45.5345,-35.6117,0.186058,0
45.6,-35.5714,0.18305,0
45.6645,-35.5296,0.180111,0
45.7279,-35.4865,0.177239,0
45.7904,-35.442,0.174446,0
45.8519,-35.3961,0.171722,0
45.9123,-35.349,0.169075,0
45.9716,-35.3005,0.166497,0
46.0298,-35.2508,0.163997,0
46.0869,-35.1998,0.161575,0
46.1428,-35.1476,0.159232,0
46.1975,-35.0942,0.156966,0
46.251,-35.0396,0.154779,0
46.3034,-34.9839,0.152669,0
46.3543,-34.9271,0.150648,0
46.4041,-34.8691,0.148704,0
46.4526,-34.8101,0.146849,0
46.4997,-34.7501,0.145071,0
46.5455,-34.6891,0.143382,0
46.5898,-34.6271,0.141771,0
46.6329,-34.5642,0.140257,0
46.6746,-34.5003,0.138831,0
46.7148,-34.4356,0.137493,0
46.7536,-34.37,0.136234,0
46.7909,-34.3035,0.135062,0
46.8268,-34.2363,0.133978,0
46.8612,-34.1683,0.133001,0
46.8941,-34.0996,0.132093,0
46.9255,-34.0302,0.131292,0
46.9553,-33.9601,0.13057,0
46.9836,-33.8894,0.129945,0
47.0103,-33.818,0.129407,0
47.0355,-33.7461,0.128968,0
47.0591,-33.6737,0.128607,0
47.0811,-33.6007,0.128353,0
47.1014,-33.5273,0.128187,0
47.1202,-33.4534,0.128109,0
47.1374,-33.3792,0.128128,0
47.1529,-33.3046,0.128236,0
41.7617,-35.3172,0.340579,0
41.8215,-35.3665,0.338568,0
41.8825,-35.4143,0.336527,0
41.9445,-35.4609,0.334476,0
42.0076,-35.506,0.332396,0
42.0717,-35.5497,0.330286,0
42.1369,-35.592,0.328167,0
42.203,-35.6328,0.326029,0
42.27,-35.6721,0.32388,0
42.338,-35.7099,0.321702,0
42.4069,-35.7462,0.319515,0
42.4766,-35.7809,0.317308,0
42.547,-35.814,0.315091,0
42.6183,-35.8456,0.312874,0
42.6902,-35.8755,0.310628,0
42.7634,-35.9025,0.307835,0
42.8373,-35.9274,0.304866,0
42.9121,-35.9491,0.301282,0
42.9873,-35.9691,0.297698,0
43.063,-35.9873,0.294124,0
43.1391,-36.0039,0.29054,0
43.2154,-36.0187,0.286976,0
43.2921,-36.0317,0.283421,0
43.3689,-36.043,0.279866,0
43.446,-36.0526,0.276341,0
43.5233,-36.0605,0.272825,0
43.6006,-36.0666,0.269359,0
43.6781,-36.071,0.265902,0
43.7556,-36.0736,0.262454,0
43.8331,-36.0745,0.259027,0
43.9106,-36.0735,0.255589,0
43.988,-36.0708,0.252181,0
44.0654,-36.0663,0.248792,0
44.1426,-36.06,0.245413,0
44.2195,-36.0521,0.242103,0
44.2963,-36.0425,0.238821,0
44.3727,-36.0311,0.235579,0
44.449,-36.0181,0.232376,0
44.5248,-36.0033,0.229193,0
44.6003,-35.9868,0.226068,0
44.6754,-35.9687,0.222972,0
44.75,-35.9488,0.219915,0
44.8242,-35.9273,0.216907,0
44.8978,-35.9042,0.213939,0
44.9709,-35.8794,0.211019,0
45.0434,-35.8529,0.208148,0
45.1152,-35.8249,0.205316,0
45.1863,-35.795,0.202454,0
45.2562,-35.7623,0.199114,0
45.3252,-35.728,0.195843,0
45.3933,-35.6922,0.19263,0
45.4606,-35.6549,0.189486,0
45.527,-35.6162,0.1864,0
45.5926,-35.576,0.183382,0
45.6572,-35.5344,0.180443,0
45.7208,-35.4914,0.177562,0
45.7834,-35.4471,0.174759,0
45.8449,-35.4014,0.172025,0
45.9055,-35.3544,0.169368,0
45.965,-35.3061,0.16679,0
46.0233,-35.2565,0.16428,0
46.0805,-35.2056,0.161849,0
46.1365,-35.1535,0.159486,0
46.1914,-35.1003,0.15722,0
46.2451,-35.0458,0.155023,0
46.2975,-34.9903,0.152904,0
46.3487,-34.9335,0.150872,0
46.3985,-34.8757,0.148919,0
46.4471,-34.8169,0.147054,0
46.4944,-34.757,0.145267,0
46.5403,-34.6961,0.143568,0
46.5849,-34.6342,0.141956,0
46.6281,-34.5713,0.140433,0
46.6699,-34.5076,0.138978,0
46.7103,-34.4429,0.13763,0
46.7492,-34.3774,0.13637,0
46.7868,-34.3111,0.135189,0
46.8228,-34.244,0.134105,0
46.8573,-34.1761,0.133099,0
46.8904,-34.1074,0.132191,0
46.922,-34.0381,0.13137,0
46.952,-33.9681,0.130648,0
46.9804,-33.8974,0.130023,0
47.0073,-33.8262,0.129466,0
47.0327,-33.7543,0.129017,0
47.0565,-33.6819,0.128646,0
47.0787,-33.609,0.128372,0
47.0992,-33.5356,0.128196,0
47.1181,-33.4618,0.128118,0
47.1355,-33.3876,0.128128,0
47.1512,-33.313,0.128226,0
47.1654,-33.2381,0.128411,0
41.755,-35.3116,0.340814,0
41.8147,-35.361,0.338812,0
41.8755,-35.409,0.336771,0
41.9374,-35.4557,0.33471,0
42.0004,-35.501,0.33263,0
42.0645,-35.5448,0.33053,0
42.1295,-35.5872,0.328411,0
42.1955,-35.6282,0.326273,0
45.3111,-35.6582,0.197484,0
45.3777,-35.6229,0.194349,0
45.4434,-35.5861,0.191282,0
45.5084,-35.5478,0.188265,0
45.5723,-35.5082,0.185335,0
45.6354,-35.4672,0.182464,0
45.6976,-35.4248,0.179661,0
45.7587,-35.3811,0.176917,0
45.8187,-35.3361,0.174261,0
45.8779,-35.2897,0.171673,0
45.9359,-35.2421,0.169154,0
45.9928,-35.1933,0.166702,0
46.0486,-35.1432,0.164349,0
46.1033,-35.092,0.162054,0
46.1568,-35.0395,0.159847,0
46.2091,-34.9859,0.157698,0
46.2602,-34.9312,0.155657,0
46.3101,-34.8754,0.153675,0
46.3587,-34.8186,0.15178,0
46.406,-34.7607,0.149964,0
46.4521,-34.7018,0.148236,0
46.4968,-34.6419,0.146595,0
46.5402,-34.5811,0.145032,0
46.5823,-34.5193,0.143548,0
46.6229,-34.4566,0.142161,0
46.6622,-34.3931,0.140853,0
46.7,-34.3288,0.139642,0
46.7364,-34.2636,0.138489,0
46.7714,-34.1976,0.137454,0
46.805,-34.1309,0.136487,0
46.837,-34.0635,0.135618,0
46.8676,-33.9954,0.134847,0
46.8966,-33.9267,0.134144,0
46.9241,-33.8573,0.133548,0
46.9502,-33.7873,0.13303,0
46.9747,-33.7168,0.132601,0
46.9976,-33.6458,0.132279,0
47.019,-33.5742,0.132025,0
47.0388,-33.5023,0.131878,0
47.057,-33.4298,0.13181,0
47.0737,-33.357,0.131839,0
47.0887,-33.2838,0.131956,0
41.8123,-35.2683,0.339456,0
41.8711,-35.3164,0.337484,0
41.9309,-35.3631,0.335482,0
41.9918,-35.4084,0.33346,0
42.0537,-35.4524,0.331419,0
42.1166,-35.4951,0.329359,0
42.1806,-35.5363,0.327279,0
42.2455,-35.576,0.325179,0
42.3112,-35.6143,0.32307,0
42.3778,-35.6511,0.320941,0
42.4454,-35.6865,0.318792,0
42.5137,-35.7202,0.316624,0
42.5828,-35.7525,0.314466,0
42.6527,-35.7832,0.312279,0
42.7234,-35.8119,0.309925,0
42.7952,-35.8378,0.307034,0
42.8675,-35.862,0.304134,0
42.9408,-35.8836,0.300843,0
43.0145,-35.903,0.297337,0
43.0886,-35.9207,0.293831,0
43.1631,-35.9367,0.290325,0
43.2379,-35.9511,0.286839,0
43.313,-35.9637,0.283353,0
43.3883,-35.9746,0.279886,0
43.4637,-35.9838,0.276429,0
43.5394,-35.9913,0.272972,0
43.6152,-35.9971,0.269554,0
43.6911,-36.0011,0.266136,0
43.767,-36.0035,0.262747,0
43.8429,-36.0041,0.259378,0
43.9188,-36.003,0.256038,0
43.9945,-36.0002,0.252718,0
44.0702,-35.9957,0.249427,0
44.1458,-35.9895,0.246155,0
44.2212,-35.9816,0.242923,0
44.2963,-35.972,0.23972,0
44.3713,-35.9607,0.236536,0
44.4458,-35.9478,0.233402,0
44.5201,-35.9331,0.230296,0
44.594,-35.9168,0.22723,0
44.6675,-35.8989,0.224202,0
44.7405,-35.8793,0.221224,0
44.813,-35.8581,0.218275,0
44.8852,-35.8352,0.215374,0
44.9567,-35.8108,0.212523,0
45.0276,-35.7847,0.20971,0
45.0979,-35.7571,0.206946,0
45.1676,-35.7279,0.204222,0
45.2359,-35.6958,0.201038,0
45.3034,-35.6621,0.197845,0
45.3702,-35.6269,0.1947,0
45.4361,-35.5903,0.191624,0
45.5011,-35.5522,0.188607,0
45.5652,-35.5128,0.185667,0
45.6284,-35.4719,0.182786,0
45.6905,-35.4297,0.179964,0
45.7518,-35.3861,0.17723,0
45.812,-35.3412,0.174554,0
45.8713,-35.295,0.171966,0
45.9294,-35.2476,0.169437,0
45.9864,-35.1989,0.166986,0
46.0423,-35.1489,0.164613,0
46.0971,-35.0978,0.162318,0
46.1508,-35.0455,0.160091,0
46.2032,-34.9921,0.157943,0
46.2545,-34.9375,0.155882,0
46.3045,-34.8818,0.1539,0
46.3533,-34.8251,0.151995,0
46.4008,-34.7673,0.150169,0
46.4469,-34.7085,0.148431,0
46.4918,-34.6487,0.146771,0
46.5353,-34.588,0.145208,0
46.5776,-34.5263,0.143714,0
46.6184,-34.4638,0.142318,0
46.6578,-34.4004,0.140989,0
46.6958,-34.3361,0.139769,0
46.7323,-34.271,0.138616,0
46.7676,-34.2051,0.137562,0
46.8012,-34.1385,0.136595,0
46.8334,-34.0712,0.135716,0
46.8642,-34.0032,0.134925,0
46.8934,-33.9345,0.134222,0
46.9212,-33.8652,0.133607,0
46.9473,-33.7953,0.133079,0
46.972,-33.7248,0.13265,0
46.9951,-33.6538,0.132298,0
47.0166,-33.5824,0.132044,0
47.0366,-33.5104,0.131888,0
47.0551,-33.4381,0.13181,0
47.0719,-33.3653,0.131829,0
47.087,-33.2922,0.131937,0
41.8057,-35.2628,0.339671,0
41.8644,-35.311,0.337698,0
41.9241,-35.3578,0.335706,0
41.9848,-35.4034,0.333685,0
42.0466,-35.4475,0.331654,0
42.1095,-35.4903,0.329593,0
42.1733,-35.5317,0.327513,0
42.238,-35.5716,0.325423,0
42.3037,-35.61,0.323304,0
42.3703,-35.647,0.321185,0
42.4377,-35.6825,0.319036,0
42.5059,-35.7165,0.316878,0
42.5749,-35.7489,0.31472,0
42.6448,-35.7798,0.312532,0
42.7153,-35.8088,0.310247,0
42.787,-35.8349,0.307366,0
42.8593,-35.8593,0.304466,0
42.9323,-35.8813,0.301234,0
43.0061,-35.9009,0.297728,0
43.0802,-35.9188,0.294222,0
43.1546,-35.935,0.290716,0
43.2294,-35.9495,0.28723,0
43.3045,-35.9623,0.283743,0
43.3797,-35.9734,0.280277,0
43.4552,-35.9828,0.27682,0
43.5309,-35.9905,0.273372,0
43.6066,-35.9965,0.269935,0
43.6825,-36.0008,0.266527,0
43.7584,-36.0033,0.263128,0
43.8343,-36.0041,0.259759,0
43.9102,-36.0032,0.256409,0
43.9859,-36.0006,0.253089,0
44.0616,-35.9963,0.249798,0
44.1373,-35.9903,0.246527,0
44.2127,-35.9826,0.243284,0
44.2879,-35.9732,0.240071,0
44.3627,-35.9621,0.236898,0
44.4373,-35.9493,0.233753,0
44.5117,-35.9349,0.230648,0
44.5856,-35.9188,0.227581,0
44.6592,-35.901,0.224544,0
44.7323,-35.8816,0.221556,0
44.8049,-35.8606,0.218607,0
44.877,-35.8379,0.215706,0
44.9486,-35.8136,0.212845,0
45.0196,-35.7878,0.210023,0
45.09,-35.7603,0.207249,0
45.1598,-35.7313,0.204534,0
45.2283,-35.6996,0.201409,0
45.2959,-35.666,0.198196,0
45.3627,-35.631,0.195052,0
45.4286,-35.5945,0.191966,0
45.4937,-35.5566,0.188948,0
45.5579,-35.5173,0.185989,0
45.6213,-35.4766,0.183099,0
45.6836,-35.4345,0.180286,0
45.7449,-35.3911,0.177542,0
45.8053,-35.3464,0.174857,0
45.8645,-35.3003,0.172259,0
45.9228,-35.253,0.16972,0
45.98,-35.2045,0.167269,0
46.0361,-35.1547,0.164876,0
46.091,-35.1037,0.162571,0
46.1448,-35.0515,0.160335,0
46.1973,-34.9982,0.158187,0
46.2487,-34.9437,0.156107,0
46.2989,-34.8882,0.154124,0
46.3477,-34.8316,0.15221,0
46.3954,-34.7739,0.150364,0
46.4418,-34.7152,0.148626,0
46.4868,-34.6556,0.146956,0
46.5305,-34.5949,0.145384,0
46.5728,-34.5334,0.14388,0
46.6138,-34.4709,0.142464,0
46.6534,-34.4076,0.141136,0
46.6916,-34.3434,0.139905,0
46.7283,-34.2784,0.138743,0
46.7637,-34.2126,0.137679,0
46.7975,-34.1461,0.136702,0
46.8298,-34.0788,0.135804,0
46.8608,-34.0109,0.135013,0
46.8902,-33.9423,0.1343,0
46.918,-33.8731,0.133675,0
46.9445,-33.8032,0.133138,0
46.9692,-33.7328,0.132698,0
46.9926,-33.6619,0.132337,0
47.0143,-33.5905,0.132073,0
47.0345,-33.5186,0.131898,0
47.053,-33.4463,0.13182,0
47.07,-33.3736,0.13182,0
47.0855,-33.3005,0.131917,0
47.0991,-33.227,0.132103,0
41.7991,-35.2573,0.339896,0
41.8577,-35.3056,0.337933,0
41.9173,-35.3526,0.335931,0
41.9779,-35.3983,0.333929,0
42.0396,-35.4426,0.331888,0
42.1023,-35.4855,0.329827,0
42.1659,-35.527,0.327747,0
42.2306,-35.5671,0.325657,0
45.2825,-35.5986,0.199779,0
45.3478,-35.564,0.196702,0
45.4123,-35.528,0.193695,0
45.4759,-35.4905,0.190736,0
45.5386,-35.4517,0.187855,0
45.6004,-35.4115,0.185042,0
45.6613,-35.3701,0.182298,0
45.7213,-35.3272,0.179622,0
45.7802,-35.2831,0.177005,0
45.838,-35.2378,0.174466,0
45.895,-35.1911,0.172005,0
45.9508,-35.1433,0.169603,0
46.0055,-35.0942,0.167288,0
46.0591,-35.044,0.165042,0
46.1116,-34.9927,0.162864,0
46.1628,-34.9402,0.160775,0
46.213,-34.8866,0.158763,0
46.2618,-34.8319,0.15682,0
46.3095,-34.7762,0.154964,0
46.3559,-34.7195,0.153187,0
46.4011,-34.6618,0.151497,0
46.4448,-34.6031,0.149876,0
46.4874,-34.5434,0.148343,0
46.5287,-34.4829,0.146898,0
46.5685,-34.4215,0.14553,0
46.607,-34.3592,0.144251,0
46.6441,-34.2962,0.14305,0
46.6798,-34.2323,0.141946,0
46.7141,-34.1677,0.140911,0
46.747,-34.1023,0.139974,0
46.7784,-34.0362,0.139114,0
46.8084,-33.9695,0.138343,0
46.8369,-33.9021,0.137669,0
46.8638,-33.8341,0.137083,0
46.8893,-33.7655,0.136575,0
46.9134,-33.6964,0.136165,0
46.9359,-33.6268,0.135833,0
46.9567,-33.5567,0.135589,0
46.9762,-33.4861,0.135443,0
46.994,-33.4151,0.135384,0
47.0102,-33.3438,0.135413,0
47.0251,-33.272,0.13553,0
41.8548,-35.2157,0.338587,0
41.9123,-35.2627,0.336644,0
41.9709,-35.3084,0.334691,0
42.0305,-35.3529,0.332708,0
42.0912,-35.396,0.330716,0
42.153,-35.4377,0.328685,0
42.2155,-35.478,0.326654,0
42.2791,-35.5169,0.324603,0
42.3435,-35.5544,0.322532,0
42.4088,-35.5904,0.320443,0
42.4749,-35.625,0.318343,0
42.5419,-35.6581,0.316224,0
42.6096,-35.6896,0.314095,0
42.678,-35.7196,0.311966,0
42.7475,-35.7472,0.309417,0
42.8178,-35.7725,0.306585,0
42.8887,-35.7962,0.303743,0
42.9602,-35.8181,0.300814,0
43.0323,-35.8371,0.297376,0
43.1049,-35.8545,0.293939,0
43.178,-35.8702,0.290511,0
43.2512,-35.8843,0.287093,0
43.3248,-35.8967,0.283675,0
43.3985,-35.9074,0.280277,0
43.4724,-35.9165,0.276898,0
43.5466,-35.9238,0.273509,0
43.6208,-35.9295,0.270159,0
43.6951,-35.9335,0.26682,0
43.7695,-35.9358,0.263499,0
43.8438,-35.9365,0.260189,0
43.9181,-35.9355,0.256917,0
43.9923,-35.9328,0.253665,0
44.0666,-35.9283,0.250433,0
44.1405,-35.9223,0.24723,0
44.2145,-35.9146,0.244066,0
44.288,-35.9052,0.240921,0
44.3613,-35.8942,0.237816,0
44.4345,-35.8815,0.234739,0
44.5073,-35.8672,0.231702,0
44.5796,-35.8512,0.228704,0
44.6516,-35.8337,0.225736,0
44.7232,-35.8145,0.222806,0
44.7943,-35.7937,0.219925,0
44.8648,-35.7713,0.217083,0
44.935,-35.7474,0.21428,0
45.0045,-35.7219,0.211527,0
45.0734,-35.6948,0.208821,0
45.1416,-35.6662,0.206155,0
45.2089,-35.6354,0.203265,0
45.275,-35.6024,0.20012,0
45.3405,-35.568,0.197044,0
45.405,-35.5321,0.194027,0
45.4688,-35.4948,0.191068,0
45.5315,-35.4562,0.188187,0
45.5935,-35.4162,0.185364,0
45.6545,-35.3748,0.182611,0
45.7145,-35.3322,0.179915,0
45.7735,-35.2882,0.177298,0
45.8316,-35.243,0.174759,0
45.8886,-35.1965,0.172269,0
45.9445,-35.1488,0.169876,0
45.9994,-35.0999,0.167542,0
46.053,-35.0498,0.165286,0
46.1056,-34.9986,0.163118,0
46.1571,-34.9462,0.161009,0
46.2073,-34.8927,0.158978,0
46.2564,-34.8382,0.157034,0
46.3041,-34.7826,0.155169,0
46.3507,-34.7259,0.153382,0
46.396,-34.6683,0.151673,0
46.44,-34.6098,0.150052,0
46.4827,-34.5502,0.148509,0
46.5241,-34.4898,0.147054,0
46.5641,-34.4285,0.145677,0
46.6027,-34.3663,0.144388,0
46.64,-34.3034,0.143187,0
46.6758,-34.2396,0.142054,0
46.7102,-34.175,0.141019,0
46.7433,-34.1097,0.140071,0
46.7748,-34.0437,0.139212,0
46.805,-33.9771,0.138431,0
46.8337,-33.9098,0.137747,0
46.8609,-33.8418,0.137142,0
46.8866,-33.7733,0.136634,0
46.9108,-33.7043,0.136204,0
46.9334,-33.6347,0.135862,0
46.9545,-33.5646,0.135609,0
46.9741,-33.4941,0.135462,0
46.9921,-33.4232,0.135384,0
47.0085,-33.3519,0.135394,0
47.0234,-33.2802,0.135511,0
41.8483,-35.2103,0.338792,0
41.9057,-35.2574,0.336859,0
41.9642,-35.3033,0.334915,0
42.0238,-35.3479,0.332933,0
