74.3149,-54.6573,-2.92545,0
73.8748,-54.0485,-2.91106,0
73.5971,-53.4903,-2.90513,0
73.1884,-52.9301,-2.89072,0
72.7487,-52.3879,-2.87363,0
72.3103,-51.868,-2.85576,0
71.7465,-51.3607,-2.82959,0
71.3955,-50.8905,-2.81536,0
71.2635,-50.4427,-2.81369,0
45.1305,-61.0982,-0.163422,174
45.3602,-61.2739,-0.183105,174
45.4292,-61.7717,-0.163288,174
45.2397,-62.8522,-0.0764071,174
45.4529,-63.1541,-0.0856609,0
45.6836,-63.4361,-0.0978973,0
45.9209,-63.7216,-0.110373,0
46.4053,-63.3672,-0.19123,174
46.4163,-64.3042,-0.136081,0
46.6716,-64.6126,-0.148268,0
46.934,-64.9309,-0.160285,0
47.5415,-64.0331,-0.287545,174
47.4855,-65.5856,-0.185241,0
47.7681,-65.9559,-0.195285,0
48.0564,-66.3643,-0.203185,0
48.3577,-66.7853,-0.211369,0
48.672,-67.225,-0.219445,0
48.9941,-67.7331,-0.223679,0
49.3337,-68.2661,-0.227839,0
49.6912,-68.8421,-0.230793,0
50.4115,-64.544,-0.580695,174
50.7437,-64.3842,-0.626567,174
50.9597,-68.5167,-0.38794,174
51.3653,-70.3447,-0.314893,174
51.8159,-70.2969,-0.364904,174
52.3216,-71.6323,-0.332484,174
52.9625,-74.1613,-0.237848,0
53.5861,-75.1564,-0.237848,0
54.2642,-76.2281,-0.237844,0
55.0043,-77.3866,-0.237844,0
55.815,-78.6441,-0.237844,0
55.0187,-66.1387,-0.943584,174
55.2781,-65.6555,-0.99768,174
55.5741,-65.3783,-1.04201,174
55.953,-65.4155,-1.07414,174
64.8421,-65.7307,-1.76538,174
65.0576,-59.2798,-2.08155,174
65.2021,-58.937,-2.10449,174
65.6049,-58.7588,-2.13638,174
73.0059,-62.7234,-2.43351,174
73.4288,-62.3242,-2.47417,174
68.4782,-57.1786,-2.36321,174
68.4325,-56.718,-2.37526,174
68.739,-56.3994,-2.40253,174
76.8551,-58.1761,-2.80832,0
69.4931,-55.3432,-2.4752,174
70.0808,-55.0717,-2.51505,174
73.0512,-55.3804,-2.67133,0
72.7617,-54.8064,-2.6694,0
72.5229,-54.2614,-2.66902,0
72.2649,-53.7283,-2.66678,0
71.8504,-53.1858,-2.65569,0
71.2937,-52.6459,-2.63635,0
70.8312,-52.1447,-2.62084,0
70.5207,-51.6806,-2.61237,0
70.2164,-51.2326,-2.60346,0
69.9549,-50.8015,-2.59611,0
69.8746,-50.3875,-2.59776,0
45.1257,-61.0953,-0.162972,174
45.3568,-61.2684,-0.182983,174
45.4408,-61.736,-0.166844,174
45.236,-62.8457,-0.0763164,174
45.4485,-63.1487,-0.0854314,0
45.6791,-63.4305,-0.0976629,0
45.9162,-63.716,-0.110129,0
46.4002,-63.3632,-0.190836,174
46.4113,-64.2985,-0.135827,0
46.6666,-64.6065,-0.148034,0
46.9287,-64.9247,-0.160055,0
47.5353,-64.032,-0.286872,174
47.4799,-65.5791,-0.184997,0
47.7627,-65.948,-0.195134,0
48.0506,-66.3562,-0.203029,0
48.3517,-66.7771,-0.211208,0
48.6659,-67.2154,-0.219362,0
48.9877,-67.723,-0.223591,0
49.327,-68.2551,-0.227785,0
49.684,-68.8307,-0.230734,0
50.4049,-64.5479,-0.579733,174
50.7374,-64.3842,-0.625902,174
50.9517,-68.5194,-0.38691,174
51.3565,-70.3464,-0.313866,174
51.8073,-70.3029,-0.363629,174
52.3123,-71.6341,-0.331417,174
52.9509,-74.1427,-0.237844,0
53.5735,-75.1364,-0.237844,0
54.2505,-76.2065,-0.237844,0
54.9893,-77.3632,-0.237844,0
55.7984,-78.6187,-0.237844,0
55.0163,-66.1609,-0.941978,174
55.2722,-65.6603,-0.996831,174
55.5686,-65.3842,-1.04114,174
55.9437,-65.4083,-1.07374,174
64.8284,-65.7282,-1.76452,174
69.2093,-69.1116,-1.90336,174
65.0553,-59.2869,-2.08111,174
65.1976,-58.9425,-2.104,174
65.5834,-58.7538,-2.13526,174
73.0023,-62.7339,-2.4329,174
73.4122,-62.3273,-2.47306,174
68.4821,-57.189,-2.36311,174
68.4303,-56.7256,-2.37489,174
68.7249,-56.4026,-2.40163,174
76.9061,-58.2048,-2.81037,0
69.3779,-55.317,-2.46949,174
70.0788,-55.0798,-2.51473,174
73.0598,-55.3925,-2.6715,0
72.7664,-54.8171,-2.6694,0
72.5276,-54.2718,-2.66903,0
72.271,-53.7387,-2.66688,0
71.8614,-53.1966,-2.65607,0
71.3042,-52.6561,-2.63673,0
70.8373,-52.1539,-2.621,0
70.5268,-51.6895,-2.61253,0
70.2223,-51.2411,-2.60363,0
69.9565,-50.8096,-2.59607,0
69.8766,-50.3955,-2.59776,0
45.1205,-61.0933,-0.162413,174
45.3534,-61.2629,-0.182862,174
45.4524,-61.7005,-0.170374,174
45.2321,-62.8393,-0.0762004,174
45.4441,-63.1432,-0.0851922,0
45.6745,-63.425,-0.0974236,0
45.9114,-63.7104,-0.109885,0
46.3924,-63.3662,-0.189706,174
46.4063,-64.2927,-0.135573,0
46.6616,-64.6003,-0.1478,0
46.9236,-64.9184,-0.159821,0
47.529,-64.0309,-0.2862,174
47.4744,-65.5726,-0.184748,0
47.7572,-65.9402,-0.194977,0
48.045,-66.3482,-0.202873,0
48.3457,-66.7687,-0.211042,0
48.6598,-67.2057,-0.219284,0
48.9813,-67.7129,-0.223508,0
49.3202,-68.2442,-0.227726,0
49.6769,-68.8192,-0.230671,0
50.3983,-64.5518,-0.578772,174
50.7312,-64.3841,-0.625238,174
50.9436,-68.5222,-0.385878,174
51.3477,-70.348,-0.31284,174
51.7986,-70.3089,-0.362348,174
52.303,-71.6362,-0.330338,174
52.9393,-74.1241,-0.237848,0
53.5609,-75.1163,-0.237844,0
54.2368,-76.1848,-0.237844,0
54.9742,-77.3398,-0.237844,0
55.782,-78.5933,-0.237844,0
55.2662,-65.6652,-0.995978,174
55.5631,-65.3902,-1.04026,174
55.9343,-65.401,-1.07335,174
64.8159,-65.7273,-1.76367,174
69.1763,-69.0925,-1.90201,174
65.053,-59.2939,-2.08068,174
65.1932,-58.9481,-2.1035,174
65.5619,-58.7488,-2.13414,174
72.9988,-62.7443,-2.43228,174
73.3957,-62.3304,-2.47195,174
68.4861,-57.1994,-2.363,174
68.4281,-56.7332,-2.37453,174
68.7108,-56.4058,-2.40073,174
76.9571,-58.2335,-2.81242,0
69.3551,-55.3185,-2.46818,174
70.0768,-55.088,-2.51441,174
73.0685,-55.4046,-2.67168,0
72.7711,-54.8279,-2.6694,0
72.5322,-54.2823,-2.66904,0
72.2771,-53.7492,-2.66698,0
71.8725,-53.2075,-2.65645,0
71.3149,-52.6663,-2.6371,0
70.8434,-52.1631,-2.62116,0
70.5327,-51.6983,-2.6127,0
70.2281,-51.2497,-2.60381,0
69.9585,-50.8177,-2.59606,0
69.8787,-50.4036,-2.59776,0
45.1556,-61.0695,-0.0752544,174
45.3398,-61.329,-0.0832752,174
45.3645,-61.918,-0.0488689,0
45.5796,-62.1613,-0.0612322,0
45.8,-62.4064,-0.0737811,0
46.0233,-62.6595,-0.0857781,0
46.2505,-62.92,-0.0973943,0
46.484,-63.1833,-0.109221,0
46.7242,-63.4495,-0.121276,0
46.9712,-63.719,-0.133556,0
47.223,-64.0005,-0.145168,0
47.5554,-64.0209,-0.183949,174
47.8758,-64.0762,-0.218476,174
48.0255,-64.8769,-0.180998,0
48.6949,-63.2982,-0.368697,174
48.5903,-65.5708,-0.198639,0
48.8863,-65.9536,-0.205866,0
49.1962,-66.343,-0.213727,0
49.5163,-66.7754,-0.219274,0
49.8506,-67.2447,-0.223303,0
50.4247,-64.5097,-0.478581,174
50.7556,-64.359,-0.524984,174
50.9777,-68.3487,-0.267321,174
51.3827,-69.3731,-0.237814,0
51.8258,-70.0272,-0.237844,0
52.2995,-70.7187,-0.237844,0
52.8073,-71.4511,-0.237844,0
53.3528,-72.2288,-0.237844,0
53.9402,-73.0567,-0.237844,0
54.5742,-73.9407,-0.237844,0
54.9441,-72.8235,-0.351705,174
56.006,-75.9044,-0.237844,0
56.8182,-77.0014,-0.237844,0
54.9987,-65.9915,-0.832272,174
55.2821,-65.6212,-0.883743,174
55.5361,-65.1912,-0.936196,174
55.9297,-65.2934,-0.964211,174
62.1074,-66.5177,-1.379,174
64.4315,-65.9308,-1.57749,174
64.7998,-65.6608,-1.61771,174
68.8582,-69.5458,-1.66863,174
69.1175,-68.9729,-1.71733,174
64.9863,-59.2209,-1.96164,174
65.2009,-58.9267,-1.98686,174
65.5532,-58.7173,-2.01555,174
72.9409,-62.6716,-2.25231,174
73.3264,-62.2536,-2.29051,174
69.3356,-58.0092,-2.24469,174
68.4162,-57.1447,-2.22844,174
68.369,-56.6855,-2.24191,174
68.6954,-56.3762,-2.26865,174
74.1085,-57.8349,-2.49157,0
70.1161,-55.9789,-2.35168,174
69.3105,-55.2824,-2.3329,174
69.9273,-55.0236,-2.37029,174
71.2661,-54.9232,-2.43774,0
70.981,-54.3925,-2.43787,0
66.3064,-52.9755,-2.24991,174
70.3478,-53.3727,-2.43238,0
69.9794,-52.8818,-2.42592,0
69.6352,-52.414,-2.41956,0
69.2616,-51.9608,-2.411,0
68.9364,-51.531,-2.40375,0
68.6673,-51.1212,-2.39826,0
68.4748,-50.7282,-2.39556,0
68.3891,-50.3473,-2.39716,0
45.1509,-61.0666,-0.0748074,174
45.3364,-61.3235,-0.0831783,174
45.3604,-61.9133,-0.0486297,0
45.5754,-62.1566,-0.0609881,0
45.7957,-62.4016,-0.0735369,0
46.019,-62.6545,-0.0855535,0
46.2459,-62.9149,-0.0971697,0
46.4794,-63.1781,-0.108996,0
46.7195,-63.4443,-0.121042,0
46.9664,-63.7137,-0.133322,0
47.218,-63.9949,-0.144958,0
47.5485,-64.0221,-0.183035,174
47.743,-64.5785,-0.168137,0
48.02,-64.8712,-0.180749,0
48.6883,-63.3013,-0.367705,174
48.5848,-65.5634,-0.198517,0
48.8805,-65.9461,-0.205715,0
49.1901,-66.3353,-0.213571,0
49.51,-66.7664,-0.219196,0
49.844,-67.2354,-0.22322,0
50.4181,-64.5136,-0.477591,174
50.7493,-64.3589,-0.524317,174
50.9697,-68.3477,-0.266552,174
51.3745,-69.3616,-0.237756,0
51.8169,-70.0142,-0.237844,0
52.2901,-70.7049,-0.237844,0
52.7972,-71.4365,-0.237848,0
53.3418,-72.2132,-0.237844,0
53.9284,-73.0401,-0.237844,0
54.5614,-73.9229,-0.237848,0
54.9352,-72.831,-0.350328,174
55.9909,-75.884,-0.237844,0
56.8017,-76.9792,-0.237844,0
54.9963,-66.0133,-0.83054,174
55.2747,-65.6202,-0.883146,174
55.5308,-65.1974,-0.935293,174
55.9202,-65.2854,-0.963919,174
62.1034,-66.5271,-1.37813,174
64.4289,-65.9416,-1.57669,174
64.7899,-65.6629,-1.61694,174
69.1001,-68.9706,-1.71632,174
64.984,-59.2279,-1.96119,174
65.1965,-58.9323,-1.98636,174
65.5453,-58.7208,-2.01496,174
72.9363,-62.6813,-2.25164,174
73.31,-62.2568,-2.2895,174
69.3107,-58.0072,-2.24348,174
68.4201,-57.155,-2.22828,174
68.3663,-56.6928,-2.24152,174
68.6813,-56.3794,-2.26784,174
74.1383,-57.8563,-2.49237,0
70.1103,-55.9859,-2.35118,174
69.3018,-55.2882,-2.3323,174
69.926,-55.0318,-2.36999,174
71.2712,-54.9335,-2.43771,0
70.9873,-54.4028,-2.4379,0
66.3058,-52.9821,-2.24972,174
70.3538,-53.3823,-2.43245,0
69.9848,-52.8909,-2.42598,0
69.6425,-52.423,-2.41972,0
69.2687,-51.9695,-2.41118,0
68.9417,-51.5391,-2.40385,0
68.6726,-51.129,-2.39838,0
68.4763,-50.7356,-2.39553,0
68.3908,-50.3546,-2.39714,0
45.1461,-61.0637,-0.0743582,174
45.333,-61.318,-0.0830811,174
45.4809,-61.6626,-0.0805126,174
45.5712,-62.1519,-0.0607488,0
45.7913,-62.3969,-0.0732879,0
46.0146,-62.6495,-0.0853338,0
46.2416,-62.9098,-0.0969353,0
46.4748,-63.173,-0.108762,0
46.7147,-63.4391,-0.120803,0
46.9615,-63.7084,-0.133083,0
47.213,-63.9893,-0.144738,0
47.5417,-64.0234,-0.182123,174
47.7377,-64.5729,-0.167897,0
48.0145,-64.8654,-0.1805,0
48.6814,-63.3054,-0.366627,174
48.5791,-65.5559,-0.198395,0
48.8746,-65.9387,-0.205563,0
49.1839,-66.3276,-0.213415,0
49.5037,-66.7575,-0.219123,0
49.8373,-67.2262,-0.223137,0
50.4115,-64.5175,-0.476601,174
50.7431,-64.3589,-0.523652,174
50.9619,-68.3467,-0.265786,174
51.3662,-69.3501,-0.237692,0
51.808,-70.0011,-0.237848,0
52.2805,-70.6911,-0.237844,0
52.7869,-71.4218,-0.237844,0
53.3308,-72.1976,-0.237844,0
53.9165,-73.0235,-0.237844,0
54.5486,-73.9051,-0.237844,0
54.9268,-72.8415,-0.348785,174
55.9759,-75.8635,-0.237844,0
56.7852,-76.9572,-0.237844,0
54.9939,-66.0352,-0.828805,174
55.2673,-65.6191,-0.882547,174
55.5254,-65.2036,-0.934387,174
55.9107,-65.2774,-0.963626,174
62.0994,-66.5367,-1.37726,174
64.4267,-65.9531,-1.57589,174
64.7801,-65.665,-1.61616,174
69.0828,-68.9682,-1.71533,174
64.9817,-59.2349,-1.96074,174
65.1921,-58.9379,-1.98587,174
65.5374,-58.7243,-2.01438,174
72.9327,-62.6917,-2.25101,174
73.2936,-62.2599,-2.28849,174
69.2889,-58.0067,-2.24238,174
68.424,-57.1654,-2.22811,174
68.3638,-56.7003,-2.24115,174
68.6673,-56.3826,-2.26703,174
74.168,-57.8777,-2.49318,0
70.1045,-55.9929,-2.35068,174
69.2932,-55.294,-2.33171,174
69.9246,-55.04,-2.3697,174
71.2762,-54.9439,-2.43768,0
70.9936,-54.4132,-2.43795,0
66.306,-52.9888,-2.24957,174
70.3599,-53.3918,-2.43252,0
69.9901,-52.9,-2.42603,0
69.6499,-52.4321,-2.41988,0
69.2759,-51.9781,-2.41134,0
68.947,-51.5472,-2.40396,0
68.6777,-51.1368,-2.39849,0
68.478,-50.7431,-2.39549,0
68.3925,-50.362,-2.39711,0
45.2917,-60.8429,-0.0164227,0
45.4888,-61.066,-0.0277605,0
45.6906,-61.2902,-0.0392449,0
45.8972,-61.5153,-0.0508807,0
46.1087,-61.7417,-0.0626678,0
46.3253,-61.9693,-0.0746258,0
46.5442,-62.2057,-0.0858269,0
46.768,-62.4468,-0.0968719,0
46.9978,-62.69,-0.108122,0
47.5188,-62.0514,-0.221101,174
47.4769,-63.1833,-0.131203,0
47.7253,-63.4387,-0.142521,0
47.9809,-63.6985,-0.153928,0
48.3631,-63.4369,-0.219696,174
48.7206,-63.2206,-0.278653,174
48.7957,-64.4976,-0.18965,0
49.0751,-64.8328,-0.196237,0
49.365,-65.1842,-0.202326,0
49.6675,-65.5449,-0.208615,0
49.9837,-65.9137,-0.2153,0
50.4359,-64.5032,-0.374488,174
50.7674,-64.3338,-0.423653,174
51.0809,-64.578,-0.438255,174
51.4001,-67.6578,-0.232448,0
51.8026,-68.1604,-0.235309,0
52.2288,-68.6912,-0.237844,0
52.5622,-67.4141,-0.370835,174
53.1678,-69.9075,-0.237844,0
53.6855,-70.5652,-0.237848,0
54.2397,-71.2603,-0.237844,0
54.8341,-71.9967,-0.237844,0
55.4734,-72.7788,-0.237844,0
56.1623,-73.6116,-0.237844,0
54.9809,-65.8551,-0.722389,174
55.261,-65.485,-0.775691,174
55.5127,-65.0593,-0.830175,174
55.9092,-65.1814,-0.855475,174
62.0326,-66.377,-1.24154,174
64.4148,-65.8895,-1.431,174
64.7696,-65.6054,-1.47107,174
65.5118,-65.7563,-1.50755,174
69.0661,-68.8944,-1.53246,174
64.8,-59.5246,-1.81912,174
64.9729,-59.2019,-1.84405,174
65.2007,-58.9171,-1.86937,174
65.5604,-58.7127,-1.89687,174
72.8825,-62.6237,-2.07248,174
67.0889,-58.2779,-1.98972,174
77.7811,-63.2502,-2.27641,0
66.7899,-57.2642,-2.01833,174
69.2878,-57.9793,-2.10295,174
66.5902,-56.3604,-2.04483,174
68.3989,-56.6904,-2.11238,174
68.659,-56.3559,-2.13575,174
69.2866,-56.1435,-2.17014,174
70.3923,-56.062,-2.22001,0
69.2863,-55.2693,-2.19858,174
69.7205,-54.9608,-2.22615,0
69.3159,-54.4253,-2.22499,0
69.019,-53.9381,-2.2263,0
66.2534,-52.9609,-2.13936,174
68.5687,-53.0432,-2.23094,0
68.252,-52.6016,-2.22859,0
68.011,-52.1875,-2.22809,0
67.7815,-51.7878,-2.22722,0
66.3635,-51.2905,-2.18061,174
67.3101,-51.0236,-2.22272,0
67.2364,-50.6668,-2.22565,0
67.2452,-50.3161,-2.23121,0
45.2878,-60.8386,-0.0162078,0
45.485,-61.0617,-0.0275408,0
45.6867,-61.2858,-0.0390203,0
45.8931,-61.5109,-0.0506561,0
46.1045,-61.7373,-0.0624383,0
46.321,-61.9649,-0.0743914,0
46.5399,-62.2011,-0.0856121,0
46.7636,-62.4421,-0.0966619,0
46.9933,-62.6852,-0.107897,0
47.5139,-62.0486,-0.2207,174
47.4721,-63.1784,-0.130973,0
47.7204,-63.4337,-0.142297,0
47.9758,-63.6934,-0.153698,0
48.3573,-63.4353,-0.219136,174
48.7156,-63.2161,-0.278402,174
48.7902,-64.4923,-0.189421,0
49.0695,-64.8261,-0.196125,0
49.3592,-65.1772,-0.202199,0
49.6615,-65.5378,-0.208488,0
49.9775,-65.9058,-0.215226,0
50.429,-64.5119,-0.373061,174
50.7612,-64.3338,-0.422985,174
51.0749,-64.5649,-0.438635,174
51.3924,-67.6482,-0.232394,0
51.7945,-68.1504,-0.235256,0
52.2203,-68.6799,-0.237844,0
52.5548,-67.415,-0.370016,174
53.158,-69.8951,-0.237848,0
53.6752,-70.5521,-0.237844,0
54.2286,-71.2465,-0.237844,0
54.8223,-71.982,-0.237848,0
55.4605,-72.7631,-0.237844,0
56.1484,-73.5949,-0.237844,0
54.9772,-65.8706,-0.720867,174
55.2568,-65.4969,-0.774419,174
55.5062,-65.0611,-0.829473,174
55.8998,-65.1735,-0.855255,174
62.0305,-66.3892,-1.24057,174
64.4102,-65.8978,-1.43019,174
64.7598,-65.6075,-1.47033,174
65.4968,-65.753,-1.50683,174
69.0506,-68.8941,-1.53155,174
64.8061,-59.5378,-1.81877,174
64.9685,-59.2074,-1.84355,174
65.1962,-58.9226,-1.86888,174
65.5508,-58.715,-1.89628,174
72.8777,-62.6333,-2.0718,174
67.0839,-58.2839,-1.98922,174
77.7884,-63.2681,-2.27599,0
66.7868,-57.2708,-2.01792,174
69.2756,-57.983,-2.10226,174
66.5827,-56.365,-2.04433,174
68.3951,-56.6973,-2.11196,174
68.6456,-56.3593,-2.13504,174
69.2949,-56.1551,-2.17011,174
70.4029,-56.0744,-2.22006,0
69.2787,-55.2754,-2.19807,174
69.7285,-54.9715,-2.22616,0
69.3237,-54.4354,-2.22502,0
69.0224,-53.9468,-2.22619,0
66.2541,-52.9677,-2.13922,174
68.5749,-53.052,-2.23098,0
68.2581,-52.61,-2.22863,0
68.0155,-52.1954,-2.2281,0
67.7859,-51.7955,-2.22724,0
66.3668,-51.2973,-2.18062,174
67.3153,-51.0309,-2.2228,0
67.2362,-50.6736,-2.22553,0
67.245,-50.3229,-2.23112,0
45.2841,-60.8343,-0.015993,0
45.4811,-61.0574,-0.0273162,0
45.6827,-61.2814,-0.0387957,0
45.8891,-61.5066,-0.0504217,0
46.1003,-61.7328,-0.0622088,0
46.3168,-61.9604,-0.074157,0
46.5356,-62.1964,-0.0853973,0
46.7592,-62.4373,-0.0964471,0
46.9888,-62.6805,-0.107673,0
47.5067,-62.053,-0.21947,174
47.4673,-63.1736,-0.130749,0
47.7155,-63.4287,-0.142082,0
47.9707,-63.6883,-0.153483,0
48.3512,-63.4352,-0.218413,174
48.7105,-63.2116,-0.278153,174
48.7846,-64.487,-0.189177,0
49.064,-64.8194,-0.196003,0
49.3534,-65.1703,-0.202082,0
49.6555,-65.5307,-0.208361,0
49.9712,-65.8978,-0.215158,0
50.4221,-64.5206,-0.371633,174
50.755,-64.3337,-0.422319,174
51.0687,-64.5632,-0.438107,174
51.3848,-67.6387,-0.232341,0
51.7866,-68.1404,-0.235197,0
52.2117,-68.6687,-0.237844,0
52.5472,-67.4158,-0.369194,174
53.1484,-69.8826,-0.237844,0
53.6648,-70.539,-0.237844,0
54.2174,-71.2325,-0.237844,0
54.8103,-71.9673,-0.237848,0
55.4477,-72.7474,-0.237844,0
56.1345,-73.5782,-0.237844,0
54.9742,-65.8898,-0.719142,174
55.2527,-65.5089,-0.77314,174
55.4997,-65.0628,-0.828769,174
55.8904,-65.1657,-0.855033,174
62.0293,-66.403,-1.23956,174
64.4056,-65.9062,-1.42937,174
64.75,-65.6096,-1.46959,174
65.4817,-65.7497,-1.50611,174
69.0352,-68.8938,-1.53064,174
64.8123,-59.551,-1.81842,174
64.9641,-59.213,-1.84306,174
65.1917,-58.9281,-1.86839,174
65.5417,-58.7178,-1.89571,174
72.8729,-62.6429,-2.07113,174
67.0789,-58.2899,-1.98873,174
77.7956,-63.2861,-2.27558,0
66.7846,-57.2779,-2.01753,174
69.264,-57.987,-2.10158,174
66.5752,-56.3695,-2.04382,174
68.3914,-56.7043,-2.11154,174
68.6322,-56.3627,-2.13434,174
69.2984,-56.1649,-2.16992,174
70.4134,-56.0869,-2.2201,0
69.2713,-55.2815,-2.19757,174
69.7366,-54.9822,-2.22618,0
69.3314,-54.4456,-2.22505,0
69.0257,-53.9556,-2.2261,0
66.2548,-52.9745,-2.13907,174
68.5812,-53.0608,-2.23102,0
68.2642,-52.6185,-2.22869,0
68.02,-52.2033,-2.22811,0
67.7903,-51.8031,-2.22726,0
66.3702,-51.3041,-2.18062,174
67.3206,-51.0381,-2.22289,0
67.2359,-50.6804,-2.22542,0
67.2449,-50.3298,-2.23102,0
45.6155,-60.2809,-0.0130682,0
45.7986,-60.5002,-0.0220037,0
45.9859,-60.7216,-0.0309441,0
46.1832,-60.9334,-0.0415545,0
46.3863,-61.1435,-0.0526678,0
46.5944,-61.3543,-0.0639324,0
46.8073,-61.5659,-0.0753484,0
47.0223,-61.787,-0.0858172,0
47.2427,-62.0104,-0.0963445,0
47.5421,-62.0076,-0.134895,174
47.7027,-62.4568,-0.118527,0
47.9475,-62.6622,-0.132243,0
48.1934,-62.8874,-0.143981,0
48.4393,-63.1438,-0.152663,0
48.9161,-62.3054,-0.27992,174
48.9619,-63.6334,-0.174201,0
49.2359,-63.8786,-0.185695,0
49.5138,-64.1608,-0.19402,0
49.7987,-64.4773,-0.199723,0
50.0952,-64.8012,-0.205612,0
50.4447,-64.5333,-0.266998,174
50.7791,-64.3133,-0.322153,174
51.0935,-64.5045,-0.339691,174
51.4145,-66.2417,-0.225998,0
51.7841,-66.6423,-0.230451,0
52.1732,-67.0813,-0.233073,0
52.5718,-67.359,-0.249733,174
53.0148,-67.9909,-0.240192,0
53.4802,-68.556,-0.237848,0
53.972,-69.1158,-0.237844,0
54.3708,-68.8963,-0.294029,174
55.0546,-70.3217,-0.237844,0
55.6517,-70.9732,-0.237844,0
54.9775,-65.7841,-0.610222,174
55.2486,-65.3851,-0.667293,174
55.5068,-64.9929,-0.722092,174
55.8957,-65.0938,-0.746883,174
59.3724,-74.8658,-0.237844,0
60.3055,-75.8066,-0.237844,0
61.3202,-76.8172,-0.237844,0
62.0225,-67.1606,-1.04238,174
62.026,-66.3425,-1.10299,174
62.3851,-66.1038,-1.1436,174
64.4025,-65.8538,-1.28499,174
64.7457,-65.5574,-1.32515,174
65.3945,-65.6048,-1.35895,174
69.0286,-68.8311,-1.34868,174
64.746,-59.4756,-1.70134,174
64.976,-59.1942,-1.72694,174
65.2076,-58.9122,-1.75205,174
65.637,-58.7511,-1.77896,174
67.9061,-59.6647,-1.8299,174
67.8867,-59.1683,-1.85322,174
67.0749,-58.2619,-1.86275,174
73.7203,-61.183,-1.99626,0
65.4754,-56.628,-1.8727,174
69.407,-58.0247,-1.96531,174
66.5478,-56.3358,-1.92627,174
68.3963,-56.6823,-1.98177,174
68.6456,-56.3441,-2.004,174
67.4415,-55.4937,-1.99169,174
68.059,-55.2993,-2.02074,0
67.9044,-54.8492,-2.03058,0
67.7746,-54.4186,-2.04003,0
67.6412,-53.9979,-2.04843,0
67.5047,-53.5871,-2.05584,0
67.3266,-53.1778,-2.06122,0
67.0933,-52.77,-2.06413,0
66.8615,-52.376,-2.06618,0
66.6311,-51.9951,-2.06741,0
66.4298,-51.63,-2.06868,0
66.2617,-51.2787,-2.07024,0
66.0926,-50.9362,-2.07105,0
66.0766,-50.6095,-2.07601,0
66.0849,-50.2848,-2.0812,0
45.612,-60.2768,-0.0128728,0
45.7949,-60.4959,-0.0218328,0
45.9822,-60.7172,-0.0307684,0
46.1793,-60.9293,-0.0413396,0
46.3823,-61.1394,-0.0524529,0
46.5903,-61.3502,-0.0637176,0
46.8032,-61.5618,-0.0751238,0
47.0181,-61.7827,-0.0856121,0
47.2384,-62.006,-0.0961394,0
47.5377,-62.0032,-0.134697,174
47.698,-62.4528,-0.118263,0
47.9427,-62.6582,-0.13197,0
48.1887,-62.8825,-0.14381,0
48.4345,-63.1388,-0.152497,0
48.91,-62.3079,-0.27898,174
48.9567,-63.6287,-0.173981,0
49.2305,-63.8738,-0.185471,0
49.5084,-64.1547,-0.193918,0
49.793,-64.471,-0.199616,0
50.0893,-64.7948,-0.2055,0
50.4377,-64.5439,-0.26533,174
50.7729,-64.3122,-0.321582,174
51.0871,-64.5111,-0.338441,174
51.4075,-66.2341,-0.225915,0
51.7766,-66.6339,-0.230407,0
52.1654,-67.0726,-0.233024,0
52.5643,-67.3587,-0.249002,174
52.9946,-67.8483,-0.250266,174
53.4709,-68.5454,-0.237848,0
53.9622,-69.1047,-0.237844,0
54.3624,-68.8959,-0.293276,174
55.0434,-70.3093,-0.237844,0
55.6398,-70.9602,-0.237844,0
54.9718,-65.7907,-0.609169,174
55.2445,-65.3968,-0.665959,174
55.5005,-64.9951,-0.721368,174
55.8873,-65.0894,-0.746543,174
59.3551,-74.8482,-0.237844,0
60.2866,-75.7877,-0.237844,0
61.2996,-76.7969,-0.237844,0
62.0211,-66.3503,-1.10209,174
62.3451,-66.0596,-1.14425,174
64.3979,-65.8621,-1.28415,174
64.7367,-65.5605,-1.32443,174
65.3836,-65.6061,-1.35825,174
69.0176,-68.8355,-1.34778,174
64.7416,-59.4811,-1.70084,174
64.9715,-59.1996,-1.72644,174
65.2031,-58.9177,-1.75157,174
65.6042,-58.7391,-1.77816,174
67.8947,-59.6674,-1.82928,174
67.8851,-59.1766,-1.85275,174
67.0704,-58.2681,-1.86228,174
73.728,-61.1989,-1.99584,0
65.4745,-56.635,-1.87236,174
69.3956,-58.0289,-1.96469,174
66.5482,-56.3436,-1.92597,174
68.3923,-56.6891,-1.98135,174
68.6388,-56.3499,-2.00353,174
67.4424,-55.5017,-1.99143,174
68.065,-55.3092,-2.02062,0
67.907,-54.8577,-2.03039,0
67.7771,-54.4268,-2.03985,0
67.6438,-54.006,-2.04828,0
67.5073,-53.595,-2.05571,0
67.3312,-53.1859,-2.06116,0
67.0978,-52.7778,-2.06408,0
66.8659,-52.3835,-2.06614,0
66.6355,-52.0024,-2.06739,0
66.433,-51.6369,-2.06865,0
66.265,-51.2855,-2.07021,0
66.0959,-50.9428,-2.07104,0
66.0764,-50.6158,-2.0759,0
66.0848,-50.2911,-2.08111,0
45.6084,-60.2726,-0.0126775,0
45.7914,-60.4916,-0.021657,0
45.9785,-60.7129,-0.0305926,0
46.1754,-60.9253,-0.0411199,0
46.3784,-61.1353,-0.0522332,0
46.5863,-61.3461,-0.0634978,0
46.799,-61.5577,-0.0748992,0
47.0139,-61.7783,-0.0854119,0
47.7519,-60.509,-0.283574,174
47.5319,-62.0033,-0.133961,174
47.6933,-62.4488,-0.118,0
47.9379,-62.6542,-0.131701,0
48.184,-62.8775,-0.143644,0
48.4296,-63.1338,-0.152321,0
48.9039,-62.3105,-0.278042,174
48.9514,-63.6239,-0.173762,0
49.2251,-63.869,-0.185246,0
49.503,-64.1486,-0.193805,0
49.7873,-64.4648,-0.199504,0
50.0834,-64.7885,-0.205378,0
50.4307,-64.5544,-0.263661,174
50.7668,-64.311,-0.321011,174
51.0822,-64.4516,-0.342987,174
51.4006,-66.2266,-0.225812,0
51.7693,-66.6256,-0.230353,0
52.1577,-67.0639,-0.232966,0
52.5567,-67.3585,-0.248268,174
52.9826,-67.7991,-0.253245,174
53.4617,-68.5347,-0.237848,0
53.9523,-69.0935,-0.237844,0
54.3546,-68.8991,-0.292273,174
55.0322,-70.297,-0.237848,0
55.6277,-70.9472,-0.237844,0
54.9668,-65.8001,-0.607936,174
55.2403,-65.4086,-0.664615,174
55.4941,-64.9973,-0.720641,174
55.8789,-65.0849,-0.746202,174
59.3377,-74.8306,-0.237844,0
60.2677,-75.7688,-0.237844,0
61.279,-76.7765,-0.237844,0
62.0162,-66.3582,-1.10119,174
62.3157,-66.0309,-1.14445,174
64.3933,-65.8705,-1.28331,174
64.7277,-65.5636,-1.3237,174
65.3727,-65.6074,-1.35755,174
69.0066,-68.8399,-1.34689,174
70.1148,-69.1635,-1.38644,174
64.7372,-59.4866,-1.70034,174
64.967,-59.2051,-1.72595,174
65.1986,-58.9232,-1.75108,174
65.583,-58.7343,-1.77749,174
67.8833,-59.6702,-1.82866,174
67.8836,-59.1851,-1.85229,174
67.0675,-58.2752,-1.86183,174
73.7356,-61.2148,-1.99544,0
65.4736,-56.642,-1.87201,174
69.3842,-58.0331,-1.96408,174
66.5509,-56.3525,-1.92571,174
68.3883,-56.696,-1.98093,174
68.6319,-56.3558,-2.00306,174
67.4432,-55.5097,-1.99117,174
68.0711,-55.3191,-2.02049,0
67.9094,-54.8661,-2.03019,0
67.7797,-54.4351,-2.03968,0
67.6465,-54.0141,-2.04813,0
67.51,-53.6029,-2.05557,0
67.3358,-53.194,-2.06109,0
67.1023,-52.7856,-2.06404,0
66.8704,-52.391,-2.06612,0
66.6401,-52.0097,-2.06737,0
66.4362,-51.6438,-2.06861,0
66.2682,-51.2922,-2.07019,0
66.0992,-50.9493,-2.07103,0
66.0762,-50.6221,-2.0758,0
66.0847,-50.2974,-2.08101,0
45.9084,-59.7725,-0.0101531,0
46.0871,-59.9726,-0.0192986,0
46.2674,-60.1784,-0.0277605,0
46.4524,-60.3849,-0.0363592,0
46.6422,-60.5922,-0.0450945,0
46.8377,-60.7983,-0.0542644,0
47.0423,-60.9949,-0.0650359,0
47.521,-60.465,-0.175155,174
47.7817,-60.4757,-0.208681,174
47.6809,-61.603,-0.0961639,0
47.9093,-61.7913,-0.108884,0
48.1429,-61.9797,-0.121774,0
48.382,-62.168,-0.13485,0
48.6243,-62.3664,-0.146926,0
48.9332,-62.2663,-0.193626,174
49.1148,-62.836,-0.163727,0
49.4217,-62.7568,-0.207242,174
49.6382,-63.3094,-0.181999,0
49.9131,-63.5451,-0.191974,0
50.1934,-63.8199,-0.198429,0
50.4865,-64.0682,-0.208205,0
50.7904,-64.2996,-0.220161,174
51.1061,-64.4259,-0.242535,174
51.427,-64.9301,-0.230046,0
51.7678,-65.3332,-0.228381,0
52.127,-65.7434,-0.227355,0
52.5024,-66.1133,-0.231052,0
52.8937,-66.4662,-0.237267,0
53.3016,-66.8152,-0.244826,0
53.7323,-67.2053,-0.250134,0
54.2105,-67.7733,-0.242951,0
54.7166,-68.3392,-0.237848,0
55.2384,-68.8377,-0.239553,0
54.982,-65.7485,-0.496458,174
55.2364,-65.2862,-0.560148,174
55.5105,-64.9623,-0.612477,174
55.8925,-65.0415,-0.637175,174
58.3605,-71.6312,-0.253615,0
59.1385,-72.3485,-0.252443,0
55.9339,-62.1372,-0.896689,174
60.905,-73.9804,-0.246432,0
61.8882,-74.8504,-0.244845,0
62.9498,-75.7679,-0.243908,0
63.9756,-76.4792,-0.256882,0
61.9777,-67.0614,-0.902063,174
62.0195,-66.308,-0.964841,174
62.3233,-65.9894,-1.00844,174
64.3904,-65.8183,-1.13944,174
64.7243,-65.5125,-1.17986,174
65.3586,-65.5451,-1.21067,174
69.0068,-68.7847,-1.1655,174
70.0339,-69.0244,-1.19971,174
73.5594,-67.3181,-1.4715,0
64.5508,-59.7712,-1.55839,174
64.7545,-59.4715,-1.58446,174
64.9829,-59.1891,-1.60986,174
65.2145,-58.9072,-1.63471,174
65.8076,-58.8479,-1.66015,174
65.4157,-58.1818,-1.68163,174
67.8055,-59.113,-1.718,174
66.7117,-58.0596,-1.7334,174
66.5243,-57.5363,-1.75275,174
65.3463,-56.5594,-1.76022,174
68.2905,-57.513,-1.81157,0
67.619,-56.7838,-1.82268,0
67.0721,-56.1473,-1.83297,0
66.8266,-55.6583,-1.84564,0
66.738,-55.2427,-1.85941,0
66.6449,-54.8359,-1.87207,0
66.5474,-54.4375,-1.88367,0
66.4253,-54.0419,-1.89387,0
66.2833,-53.6514,-1.90275,0
66.1292,-53.2686,-1.91045,0
65.9401,-52.8893,-1.9165,0
65.753,-52.5221,-1.92171,0
65.6168,-52.1741,-1.92716,0
65.4786,-51.8344,-1.9318,0
65.3383,-51.5025,-1.93565,0
65.1961,-51.1783,-1.93875,0
65.0628,-50.8623,-1.94137,0
65.0638,-50.5595,-1.94659,0
65.0527,-50.257,-1.95098,0
45.9049,-59.7687,-0.00997734,0
46.0837,-59.9687,-0.0191326,0
46.2639,-60.1744,-0.0275945,0
46.4487,-60.3809,-0.0361932,0
46.6384,-60.5882,-0.0449187,0
46.8337,-60.7945,-0.0540594,0
47.0383,-60.991,-0.064826,0
47.5156,-60.4655,-0.174396,174
47.7789,-60.469,-0.208904,174
47.6765,-61.5993,-0.0959246,0
47.9048,-61.7877,-0.10863,0
48.1384,-61.976,-0.121515,0
48.3772,-62.1643,-0.134582,0
48.6197,-62.3619,-0.146764,0
48.9276,-62.2667,-0.192903,174
49.11,-62.8314,-0.163556,0
49.4169,-62.7511,-0.207203,174
49.6329,-63.305,-0.181784,0
49.9077,-63.5396,-0.191867,0
50.1878,-63.815,-0.198244,0
50.4807,-64.0634,-0.20801,0
50.7843,-64.2984,-0.219596,174
51.1002,-64.414,-0.242994,174
51.4205,-64.9224,-0.230085,0
51.7611,-65.3252,-0.22842,0
52.1199,-65.7365,-0.227262,0
52.4949,-66.1058,-0.231008,0
52.8859,-66.4595,-0.237121,0
53.2934,-66.8083,-0.244675,0
53.7234,-67.1946,-0.250265,0
54.2009,-67.762,-0.243093,0
54.7068,-68.3292,-0.237848,0
55.2281,-68.8286,-0.23945,0
54.9769,-65.7579,-0.495168,174
55.2323,-65.2979,-0.558752,174
55.5034,-64.9615,-0.611946,174
55.8846,-65.0387,-0.636774,174
58.3473,-71.6221,-0.253366,0
59.1208,-72.3282,-0.252824,0
55.928,-62.1375,-0.896213,174
60.888,-73.9674,-0.246271,0
61.8671,-74.83,-0.245041,0
62.9304,-75.7543,-0.243664,0
63.9551,-76.465,-0.256623,0
61.9886,-67.0957,-0.899996,174
62.0146,-66.3159,-0.96392,174
62.315,-65.992,-1.00774,174
64.3858,-65.8265,-1.13858,174
64.7153,-65.5156,-1.17917,174
65.3477,-65.5463,-1.21001,174
68.9958,-68.7891,-1.16464,174
70.0134,-69.0198,-1.19903,174
73.5798,-67.3495,-1.47042,0
64.5481,-59.778,-1.55787,174
64.7503,-59.4771,-1.58396,174
64.9785,-59.1946,-1.60937,174
65.21,-58.9127,-1.63423,174
65.7548,-58.8236,-1.65952,174
65.3974,-58.1791,-1.68112,174
67.801,-59.1198,-1.71749,174
66.7143,-58.0694,-1.733,174
66.5184,-57.5414,-1.75231,174
65.3435,-56.5654,-1.75985,174
68.3062,-57.5288,-1.81136,0
67.6314,-56.7973,-1.82248,0
67.0792,-56.1579,-1.83275,0
66.8283,-55.6665,-1.84536,0
66.7398,-55.2507,-1.85914,0
66.6468,-54.8437,-1.87183,0
66.5494,-54.4452,-1.88346,0
66.428,-54.0496,-1.89369,0
66.2861,-53.6589,-1.90258,0
66.1328,-53.2761,-1.91031,0
65.9438,-52.8966,-1.9164,0
65.7556,-52.5289,-1.92159,0
65.6195,-52.1808,-1.92707,0
65.4812,-51.8409,-1.93172,0
65.341,-51.5088,-1.93558,0
65.1989,-51.1845,-1.9387,0
65.0625,-50.8681,-1.94125,0
65.0639,-50.5654,-1.9465,0
65.053,-50.2629,-1.9509,0
45.9015,-59.7648,-0.00979179,0
46.0802,-59.9647,-0.0189666,0
46.2604,-60.1704,-0.0274285,0
46.4452,-60.3769,-0.0360174,0
46.6347,-60.5842,-0.0447478,0
46.8298,-60.7907,-0.0538494,0
47.0343,-60.9872,-0.0646209,0
47.5102,-60.466,-0.173635,174
47.7761,-60.4623,-0.209125,174
47.6721,-61.5957,-0.0956756,0
47.9003,-61.784,-0.108376,0
48.1337,-61.9723,-0.121266,0
48.3725,-62.1607,-0.134333,0
48.615,-62.3574,-0.146613,0
48.922,-62.2672,-0.19218,174
49.1051,-62.8268,-0.163386,0
49.4119,-62.7471,-0.206973,174
49.6277,-63.3007,-0.181569,0
49.9025,-63.5341,-0.191764,0
50.1823,-63.8102,-0.198063,0
50.4749,-64.0585,-0.207819,0
50.7781,-64.2973,-0.219031,174
51.0942,-64.4031,-0.243365,174
51.4141,-64.9147,-0.230119,0
51.7542,-65.3173,-0.228444,0
52.1129,-65.7296,-0.227184,0
52.4874,-66.0982,-0.230959,0
52.8781,-66.4528,-0.236984,0
53.2849,-66.7967,-0.244894,174
53.7144,-67.1838,-0.250397,0
54.1913,-67.7507,-0.243234,0
54.6969,-68.3193,-0.237844,0
55.2178,-68.8196,-0.239352,0
54.9719,-65.7673,-0.493877,174
55.2281,-65.3095,-0.557348,174
55.4962,-64.9607,-0.611414,174
55.8767,-65.036,-0.636372,174
58.3341,-71.6129,-0.253117,0
59.1031,-72.3079,-0.25321,0
55.9223,-62.1382,-0.895711,174
60.8711,-73.9544,-0.24611,0
61.8461,-74.8096,-0.245231,0
62.9112,-75.7409,-0.243415,0
63.9345,-76.4509,-0.256359,0
61.9997,-67.1302,-0.89792,174
62.0097,-66.3237,-0.962994,174
62.3077,-65.9959,-1.00699,174
64.3812,-65.8349,-1.13771,174
64.7064,-65.5187,-1.17847,174
65.3368,-65.5476,-1.20936,174
68.9848,-68.7935,-1.16377,174
69.993,-69.0151,-1.19835,174
73.6003,-67.3811,-1.46933,0
64.5455,-59.7849,-1.55735,174
64.746,-59.4827,-1.58346,174
64.974,-59.2,-1.60888,174
65.2055,-58.9182,-1.63375,174
65.7024,-58.7995,-1.6589,174
65.3849,-58.1797,-1.68063,174
67.7966,-59.1265,-1.71699,174
66.7272,-58.0848,-1.73268,174
66.5125,-57.5465,-1.75186,174
65.3407,-56.5714,-1.75948,174
68.322,-57.5446,-1.81114,0
67.6439,-56.8109,-1.82228,0
67.0889,-56.1696,-1.83255,0
66.83,-55.6747,-1.84508,0
66.7416,-55.2587,-1.85889,0
66.6486,-54.8515,-1.87159,0
66.5513,-54.4528,-1.88324,0
66.4307,-54.0573,-1.8935,0
66.2889,-53.6663,-1.90242,0
66.1365,-53.2836,-1.91018,0
65.9475,-52.9038,-1.91629,0
65.7582,-52.5358,-1.92147,0
65.6222,-52.1875,-1.92696,0
65.484,-51.8474,-1.93163,0
65.3438,-51.5152,-1.93552,0
65.2016,-51.1907,-1.93864,0
65.0622,-50.874,-1.94114,0
65.0641,-50.5713,-1.9464,0
65.0533,-50.2687,-1.95082,0
46.1744,-59.311,-0.00750664,0
46.3476,-59.4963,-0.0165447,0
46.5224,-59.6866,-0.0248846,0
46.7006,-59.879,-0.0330389,0
46.8833,-60.0719,-0.0413201,0
47.0705,-60.2652,-0.0497234,0
47.2626,-60.459,-0.0582537,0
47.6007,-60.271,-0.122042,174
47.7823,-60.4975,-0.125112,174
47.8767,-61.0182,-0.0881902,0
48.0953,-61.1922,-0.100192,0
48.3187,-61.3657,-0.11235,0
48.547,-61.5388,-0.12467,0
48.7805,-61.7116,-0.13717,0
49.0189,-61.886,-0.149587,0
49.2559,-62.0991,-0.157531,0
49.5001,-62.3137,-0.165646,0
49.7517,-62.53,-0.173957,0
50.0112,-62.748,-0.182453,0
50.2827,-62.9242,-0.195905,0
50.5569,-63.1592,-0.203293,0
50.8405,-63.3976,-0.210793,0
51.1342,-63.6208,-0.220348,0
51.4376,-63.8458,-0.230153,0
51.7507,-64.0726,-0.240231,0
52.0798,-64.4233,-0.238991,0
52.4257,-64.785,-0.237736,0
52.7841,-65.0975,-0.242004,0
53.1587,-65.4185,-0.24632,0
53.5583,-65.807,-0.245695,0
53.9645,-66.1136,-0.253083,0
53.8916,-63.654,-0.488248,174
54.2558,-63.9013,-0.496357,174
54.9871,-65.7159,-0.382828,174
55.2243,-65.1886,-0.454225,174
55.5236,-64.9662,-0.500605,174
55.9008,-65.0285,-0.525263,174
57.6341,-69.3055,-0.253884,0
55.7197,-62.3682,-0.764726,174
55.9346,-62.1116,-0.80522,174
59.6058,-70.636,-0.277487,0
60.3342,-71.1021,-0.286657,0
59.5696,-68.1462,-0.50564,174
62.0866,-72.4376,-0.285597,0
63.0916,-73.2186,-0.281926,0
63.9028,-73.5246,-0.307238,0
64.9556,-74.2059,-0.3134,0
65.8594,-74.536,-0.340114,0
62.0501,-67.1528,-0.753677,174
62.0129,-66.2737,-0.827089,174
62.3152,-65.9543,-0.871371,174
62.8866,-66.0207,-0.897333,174
64.3782,-65.7828,-0.994345,174
64.7029,-65.4678,-1.03521,174
65.3229,-65.4857,-1.06331,174
66.2905,-65.8487,-1.08013,174
69.9602,-68.926,-1.01246,174
71.042,-69.1678,-1.04148,0
64.9113,-62.5768,-1.26255,174
64.6824,-61.8226,-1.30694,174
70.0084,-65.8831,-1.23346,0
69.633,-64.875,-1.28801,0
64.0547,-59.831,-1.41913,174
64.5612,-59.7684,-1.44133,174
64.7718,-59.4737,-1.46741,174
64.9906,-59.1845,-1.49273,174
62.8886,-57.3814,-1.53401,174
65.9821,-58.9469,-1.53852,174
65.381,-58.1527,-1.56588,174
67.7834,-59.0911,-1.58409,0
67.3037,-58.3664,-1.60965,0
66.8716,-57.7036,-1.63248,0
66.4277,-57.0686,-1.65284,0
66.1004,-56.5187,-1.67131,0
65.8147,-56.0115,-1.6881,0
65.672,-55.5831,-1.7041,0
65.6105,-55.1988,-1.71943,0
65.5158,-54.8118,-1.73346,0
65.4137,-54.4325,-1.74638,0
65.3076,-54.0618,-1.75824,0
65.1978,-53.6995,-1.76911,0
65.0838,-53.3454,-1.779,0
64.9655,-52.9992,-1.78793,0
64.8514,-52.6625,-1.79606,0
64.7327,-52.333,-1.80331,0
64.6113,-52.011,-1.80971,0
64.4872,-51.6961,-1.81533,0
64.3689,-51.3893,-1.82029,0
64.2874,-51.0926,-1.82515,0
64.2266,-50.8021,-1.82971,0
64.2234,-50.5179,-1.83465,0
64.2154,-50.2343,-1.83896,0
46.1709,-59.3075,-0.00733086,0
46.3442,-59.4927,-0.0163592,0
46.519,-59.6829,-0.0247234,0
46.6971,-59.8753,-0.0328777,0
46.8797,-60.0681,-0.041159,0
47.0668,-60.2614,-0.0495623,0
47.2587,-60.4552,-0.0580877,0
47.5948,-60.2733,-0.121014,174
47.7818,-60.4838,-0.126347,174
47.8726,-61.0149,-0.087951,0
48.091,-61.1888,-0.0999578,0
48.3143,-61.3623,-0.112106,0
48.5426,-61.5355,-0.12444,0
48.7759,-61.7082,-0.136921,0
49.0144,-61.8819,-0.149435,0
49.2512,-62.0949,-0.15737,0
49.4952,-62.3095,-0.165485,0
49.7468,-62.5258,-0.173786,0
50.0062,-62.7437,-0.182292,0
50.2773,-62.9214,-0.195583,0
50.5516,-63.1537,-0.203239,0
50.8348,-63.3932,-0.210617,0
51.1284,-63.6165,-0.220158,0
51.4315,-63.8414,-0.229963,0
51.7445,-64.0681,-0.240036,0
52.0733,-64.4164,-0.239011,0
52.4187,-64.7779,-0.237765,0
52.777,-65.0923,-0.241828,0
53.151,-65.4103,-0.246413,0
53.5505,-65.8011,-0.245549,0
53.9565,-66.1076,-0.252936,0
53.8862,-63.658,-0.487371,174
54.2457,-63.8823,-0.497335,174
54.982,-65.7253,-0.381484,174
55.2202,-65.2,-0.452769,174
55.5163,-64.965,-0.500125,174
55.8934,-65.0273,-0.524785,174
57.623,-69.2994,-0.253591,0
55.7179,-62.3803,-0.763438,174
55.9287,-62.1119,-0.804759,174
59.5911,-70.6249,-0.277453,0
60.3205,-71.0947,-0.286359,0
59.5608,-68.1476,-0.504903,174
62.0604,-72.4069,-0.286613,0
63.0762,-73.2126,-0.281442,0
63.8868,-73.5187,-0.30674,0
64.9369,-74.1966,-0.313049,0
65.8415,-74.5297,-0.339577,0
62.0672,-67.1973,-0.750852,174
62.008,-66.2815,-0.826141,174
62.3073,-65.9575,-0.870661,174
62.8738,-66.0172,-0.896922,174
64.3736,-65.7911,-0.993457,174
64.694,-65.4709,-1.03453,174
65.312,-65.487,-1.0627,174
66.2816,-65.8529,-1.0794,174
69.9438,-68.9255,-1.01177,174
71.0434,-69.1857,-1.04023,0
64.9078,-62.5843,-1.26186,174
64.6757,-61.8269,-1.30637,174
70.0191,-65.9063,-1.23227,0
69.6397,-64.8936,-1.28701,0
64.0459,-59.8329,-1.41869,174
64.5585,-59.7752,-1.44079,174
64.7676,-59.4793,-1.46691,174
64.9863,-59.1901,-1.49224,174
62.8846,-57.3858,-1.53362,174
65.9282,-58.922,-1.5383,174
65.3725,-58.1557,-1.56546,174
67.793,-59.1057,-1.58356,0
67.3076,-58.3773,-1.60918,0
66.8804,-57.7164,-1.63207,0
66.436,-57.0805,-1.65247,0
66.1061,-56.5288,-1.67097,0
65.8202,-56.0212,-1.68779,0
65.673,-55.5907,-1.70378,0
65.6118,-55.2062,-1.71914,0
65.5177,-54.8193,-1.73319,0
65.4157,-54.4398,-1.74613,0
65.3097,-54.0689,-1.75803,0
65.2,-53.7065,-1.76891,0
65.0868,-53.3524,-1.77882,0
64.9676,-53.0058,-1.78776,0
64.8537,-52.669,-1.79591,0
64.7351,-52.3394,-1.80317,0
64.6137,-52.0171,-1.8096,0
64.4896,-51.7022,-1.81522,0
64.3705,-51.3951,-1.82019,0
64.289,-51.0983,-1.82507,0
64.2266,-50.8076,-1.82962,0
64.2234,-50.5234,-1.83456,0
64.2155,-50.2398,-1.83887,0
46.1677,-59.3038,-0.00715996,0
46.3409,-59.4891,-0.0161883,0
46.5156,-59.6791,-0.0245672,0
46.6936,-59.8716,-0.0327215,0
46.8761,-60.0644,-0.040993,0
47.0632,-60.2577,-0.0494012,0
47.255,-60.4515,-0.0579266,0
47.5888,-60.2757,-0.119981,174
47.781,-60.4714,-0.127422,174
47.8684,-61.0115,-0.0877312,0
48.0868,-61.1854,-0.0997234,0
48.3099,-61.359,-0.111877,0
48.5381,-61.5321,-0.124196,0
48.7714,-61.7049,-0.136681,0
49.0098,-61.8778,-0.149284,0
49.2466,-62.0907,-0.157219,0
49.4904,-62.3053,-0.165324,0
49.7418,-62.5215,-0.17362,0
50.001,-62.7395,-0.182116,0
50.2719,-62.9185,-0.195261,0
50.5462,-63.1482,-0.20319,0
50.8292,-63.3889,-0.210427,0
51.1226,-63.6121,-0.219972,0
51.4255,-63.837,-0.229772,0
51.7384,-64.0637,-0.239826,0
52.0666,-64.4095,-0.239035,0
52.4119,-64.7708,-0.237785,0
52.77,-65.0872,-0.241652,0
53.1434,-65.402,-0.246506,0
53.5427,-65.7952,-0.245412,0
53.9484,-66.1016,-0.25279,0
53.8822,-63.6699,-0.485844,174
54.2358,-63.8641,-0.498247,174
54.977,-65.7346,-0.380138,174
55.2161,-65.2116,-0.451304,174
55.5091,-64.9638,-0.499643,174
55.886,-65.026,-0.524307,174
57.6119,-69.2933,-0.253298,0
55.7161,-62.3925,-0.762148,174
55.923,-62.1126,-0.804267,174
59.5766,-70.6138,-0.277424,0
60.3067,-71.0873,-0.286071,0
59.5521,-68.149,-0.504171,174
62.0342,-72.3764,-0.287614,0
63.0606,-73.2066,-0.280964,0
63.8707,-73.5127,-0.306237,0
64.9102,-74.1733,-0.313449,0
65.8236,-74.5234,-0.339045,0
62.0871,-67.2461,-0.747802,174
62.0031,-66.2894,-0.825189,174
62.3,-65.9615,-0.869914,174
62.861,-66.0138,-0.896514,174
64.369,-65.7994,-0.992567,174
64.6851,-65.474,-1.03386,174
65.3012,-65.4883,-1.06209,174
66.2728,-65.8571,-1.07869,174
69.9274,-68.925,-1.01109,174
71.0448,-69.2038,-1.03897,0
64.9043,-62.5919,-1.26117,174
64.6691,-61.8312,-1.3058,174
66.5567,-62.9383,-1.30295,174
69.6463,-64.9122,-1.286,0
64.044,-59.8401,-1.41814,174
64.5559,-59.782,-1.44026,174
64.7633,-59.4849,-1.46641,174
64.982,-59.1957,-1.49176,174
62.8805,-57.3902,-1.53323,174
65.8793,-58.9003,-1.53806,174
65.3642,-58.1589,-1.56503,174
67.8025,-59.1203,-1.58303,0
67.3115,-58.3881,-1.60871,0
66.8893,-57.7292,-1.63164,0
66.4445,-57.0925,-1.65209,0
66.1117,-56.539,-1.67062,0
65.8257,-56.0308,-1.68747,0
65.6742,-55.5982,-1.70347,0
65.613,-55.2136,-1.71885,0
65.5197,-54.8267,-1.73294,0
65.4177,-54.447,-1.7459,0
65.3118,-54.076,-1.7578,0
65.2022,-53.7135,-1.76871,0
65.0891,-53.3592,-1.77864,0
64.9697,-53.0124,-1.7876,0
64.8559,-52.6755,-1.79575,0
64.7374,-52.3457,-1.80304,0
64.6161,-52.0233,-1.80948,0
64.4921,-51.7082,-1.81512,0
64.3721,-51.4009,-1.82008,0
64.2906,-51.104,-1.82497,0
64.2267,-50.8131,-1.82951,0
64.2236,-50.5289,-1.83447,0
64.2158,-50.2453,-1.8388,0
46.4167,-58.8903,-0.00508965,0
46.5839,-59.0644,-0.0137029,0
46.7544,-59.2391,-0.0222576,0
46.9263,-59.4191,-0.0300213,0
47.1023,-59.5992,-0.0378875,0
47.2826,-59.7795,-0.0458709,0
47.4675,-59.9599,-0.0539715,0
47.6572,-60.1394,-0.0623357,0
47.8582,-60.3001,-0.0736443,0
48.0618,-60.4647,-0.0844158,0
48.2666,-60.6397,-0.0937615,0
48.4777,-60.8104,-0.10383,0
48.6962,-60.9704,-0.11548,0
48.9196,-61.1296,-0.127282,0
49.1477,-61.2881,-0.13923,0
49.3809,-61.4459,-0.151335,0
49.6144,-61.6352,-0.159596,0
49.8536,-61.8306,-0.16736,0
50.0999,-62.027,-0.175295,0
50.3587,-62.1643,-0.190387,0
50.623,-62.2948,-0.206242,0
50.8923,-62.4229,-0.222346,0
51.1645,-62.6598,-0.22655,0
51.4467,-62.9112,-0.229719,0
51.7401,-63.1657,-0.233117,0
52.0432,-63.3812,-0.241066,0
52.357,-63.6058,-0.248498,0
52.6871,-63.8916,-0.250373,0
53.0241,-64.1151,-0.258913,0
53.3727,-64.3392,-0.267809,0
53.7334,-64.5647,-0.277009,0
53.8878,-63.5737,-0.395317,174
54.2109,-63.6259,-0.418101,174
54.9857,-65.6549,-0.271937,174
55.2131,-65.0951,-0.349228,174
55.5376,-64.9733,-0.388255,174
55.9148,-65.0345,-0.41187,174
56.3184,-65.1543,-0.430794,174
55.6869,-62.2437,-0.679846,174
55.9353,-62.0861,-0.714004,174
58.3082,-67.3098,-0.358409,174
59.2155,-68.4025,-0.312458,0
58.8058,-66.4034,-0.482526,174
59.0244,-65.9351,-0.542776,174
60.706,-68.418,-0.40864,174
61.6836,-69.2906,-0.385143,0
62.4324,-69.6417,-0.396613,0
63.0262,-69.6702,-0.428454,0
62.3236,-67.57,-0.584526,174
60.8254,-64.4162,-0.79314,174
62.307,-65.9193,-0.734705,174
62.7723,-65.8377,-0.765802,174
62.351,-64.5525,-0.858802,174
63.2139,-65.0038,-0.860575,174
64.4011,-65.7903,-0.847607,174
64.6834,-65.4253,-0.891071,174
65.219,-65.3501,-0.920302,174
62.331,-61.5882,-1.1093,174
67.3862,-66.2653,-0.933786,0
67.0258,-65.2066,-1.0037,0
64.8843,-62.5369,-1.13195,174
62.799,-60.1183,-1.24208,174
66.5887,-62.9287,-1.1616,0
66.6963,-62.4471,-1.20024,0
63.9857,-59.766,-1.30651,174
64.1417,-59.4431,-1.3337,174
64.7892,-59.4759,-1.35013,174
62.7233,-57.6259,-1.41584,174
62.8433,-57.3441,-1.43723,174
66.1128,-59.0185,-1.41465,0
65.9761,-58.4953,-1.44331,0
65.6985,-57.9125,-1.47147,0
65.4127,-57.3515,-1.49741,0
65.1769,-56.8413,-1.52084,0
64.9455,-56.3546,-1.54236,0
64.6893,-55.8769,-1.56222,0
64.6166,-55.4977,-1.57987,0
61.9026,-54.0776,-1.6003,174
63.1212,-54.266,-1.61217,174
64.4066,-54.4211,-1.62612,0
64.3273,-54.0768,-1.63946,0
64.2536,-53.7423,-1.65187,0
64.179,-53.4153,-1.66335,0
64.0923,-53.0924,-1.6739,0
64.0002,-52.7756,-1.68358,0
63.9045,-52.4653,-1.69239,0
63.8057,-52.1614,-1.70038,0
63.7309,-51.8681,-1.70778,0
63.6674,-51.5817,-1.71456,0
63.6004,-51.2993,-1.72062,0
63.5299,-51.021,-1.72599,0
63.4937,-50.7493,-1.73105,0
63.4916,-50.4817,-1.73585,0
63.4852,-50.2145,-1.74003,0
46.4136,-58.8869,-0.00492363,0
46.5806,-59.061,-0.0135369,0
46.7511,-59.2356,-0.0221062,0
46.9229,-59.4156,-0.029865,0
47.0987,-59.5957,-0.037741,0
47.2791,-59.776,-0.0457195,0
47.4637,-59.9563,-0.0538103,0
47.6534,-60.1363,-0.062116,0
47.8541,-60.297,-0.0734295,0
48.0579,-60.4613,-0.0842352,0
48.2627,-60.6363,-0.0935809,0
48.4735,-60.8073,-0.103605,0
48.692,-60.9672,-0.115251,0
48.9152,-61.1265,-0.127048,0
49.1433,-61.285,-0.138991,0
49.3764,-61.4429,-0.151095,0
49.6098,-61.6314,-0.159445,0
49.8488,-61.8268,-0.167209,0
50.095,-62.0231,-0.175138,0
50.3537,-62.1617,-0.19008,0
50.6178,-62.2923,-0.205934,0
50.887,-62.4204,-0.222023,0
51.1591,-62.655,-0.226491,0
51.4411,-62.9063,-0.22965,0
51.7343,-63.1607,-0.233049,0
52.0373,-63.3773,-0.240886,0
52.3507,-63.5998,-0.248512,0
52.6807,-63.8873,-0.250212,0
53.0175,-64.1107,-0.258737,0
53.3658,-64.3349,-0.267629,0
53.7262,-64.5596,-0.276891,0
53.8832,-63.5817,-0.394066,174
54.2031,-63.6177,-0.418288,174
54.9806,-65.6636,-0.270588,174
55.2082,-65.1033,-0.347977,174
55.5306,-64.973,-0.387725,174
55.9074,-65.0333,-0.411416,174
56.3102,-65.151,-0.430498,174
55.6833,-62.2504,-0.678897,174
55.9294,-62.0864,-0.713558,174
58.3026,-67.3177,-0.357235,174
59.2043,-68.3979,-0.312145,0
58.7966,-66.4018,-0.482066,174
59.0171,-65.9376,-0.542069,174
60.7027,-68.4312,-0.407157,174
61.6694,-69.2837,-0.384933,0
62.4177,-69.6349,-0.396379,0
63.0148,-69.6702,-0.427804,0
62.3184,-67.5783,-0.583457,174
60.8133,-64.4112,-0.79295,174
62.2997,-65.9232,-0.733969,174
62.7612,-65.8365,-0.765349,174
62.3576,-64.5744,-0.857192,174
63.2055,-65.0063,-0.859959,174
64.3969,-65.7991,-0.84667,174
64.6744,-65.4282,-0.890437,174
65.2119,-65.3554,-0.91956,174
62.3258,-61.5926,-1.10873,174
67.386,-66.2791,-0.932678,0
67.057,-65.2503,-1.00145,0
64.8808,-62.5444,-1.13124,174
62.7901,-60.1191,-1.24171,174
66.5864,-62.938,-1.16083,0
66.6943,-62.4565,-1.1995,0
63.9843,-59.7737,-1.30593,174
64.119,-59.4346,-1.33362,174
64.7849,-59.4815,-1.34963,174
62.7166,-57.6284,-1.4155,174
62.8394,-57.3485,-1.43685,174
66.1155,-59.0289,-1.41407,0
65.9787,-58.5053,-1.44278,0
65.7056,-57.9245,-1.47093,0
65.4173,-57.3617,-1.49694,0
65.1815,-56.851,-1.5204,0
64.95,-56.3638,-1.54196,0
64.6923,-55.8852,-1.56186,0
64.6179,-55.5048,-1.57954,0
61.8987,-54.0812,-1.60006,174
63.1082,-54.2669,-1.61192,174
64.4081,-54.4279,-1.62585,0
64.329,-54.0834,-1.63922,0
64.255,-53.7488,-1.65163,0
64.1805,-53.4216,-1.66313,0
64.0941,-53.0986,-1.6737,0
64.002,-52.7817,-1.68339,0
63.9064,-52.4713,-1.69223,0
63.8077,-52.1673,-1.70023,0
63.732,-51.8737,-1.70764,0
63.6687,-51.5872,-1.71444,0
63.6018,-51.3048,-1.72051,0
63.5312,-51.0264,-1.7259,0
63.4937,-50.7545,-1.73095,0
63.4917,-50.4869,-1.73576,0
63.4853,-50.2197,-1.73996,0
46.4103,-58.8835,-0.00475761,0
46.5773,-59.0576,-0.0133611,0
46.7478,-59.2321,-0.0219598,0
46.9195,-59.4122,-0.0297186,0
47.0954,-59.5922,-0.0375799,0
47.2755,-59.7725,-0.0455584,0
47.4602,-59.9528,-0.0536541,0
47.6495,-60.1331,-0.0619012,0
47.8502,-60.2939,-0.0732049,0
48.0539,-60.4579,-0.0840545,0
48.2586,-60.6329,-0.0933904,0
48.4693,-60.8042,-0.103381,0
48.6877,-60.9642,-0.115026,0
48.9108,-61.1234,-0.126818,0
49.1387,-61.282,-0.138762,0
49.3718,-61.4398,-0.150856,0
49.6052,-61.6276,-0.159294,0
49.8442,-61.823,-0.167057,0
50.0902,-62.0193,-0.174982,0
50.3486,-62.1591,-0.189772,0
50.6127,-62.2898,-0.205622,0
50.8818,-62.418,-0.221711,0
51.1537,-62.6501,-0.226437,0
51.4355,-62.9014,-0.229592,0
51.7285,-63.1558,-0.23298,0
52.0312,-63.3734,-0.24069,0
52.3444,-63.5937,-0.248537,0
52.6742,-63.883,-0.250046,0
53.0109,-64.1064,-0.258576,0
53.3589,-64.3305,-0.267453,0
53.7191,-64.5552,-0.276716,0
53.8786,-63.5897,-0.392816,174
54.1953,-63.6096,-0.418475,174
54.9755,-65.6724,-0.269238,174
55.2041,-65.1147,-0.346454,174
55.5235,-64.9727,-0.387193,174
55.8999,-65.032,-0.41096,174
56.3021,-65.1482,-0.43017,174
55.6797,-62.2571,-0.677947,174
55.9237,-62.0871,-0.713075,174
58.2971,-67.3255,-0.356062,174
59.1931,-68.3933,-0.311838,0
58.7876,-66.4005,-0.481596,174
59.011,-65.9423,-0.541211,174
60.6994,-68.4445,-0.405665,174
61.6551,-69.2768,-0.384723,0
62.4027,-69.6281,-0.396144,0
63.0035,-69.6701,-0.42716,0
62.3135,-67.5874,-0.582349,174
60.8013,-64.4062,-0.79276,174
62.2924,-65.9272,-0.733229,174
62.7501,-65.8353,-0.764899,174
62.3564,-64.5859,-0.856125,174
63.2003,-65.013,-0.859136,174
64.3928,-65.8079,-0.845728,174
64.6653,-65.431,-0.889801,174
65.2056,-65.3616,-0.918778,174
62.3205,-61.597,-1.10816,174
67.3857,-66.2928,-0.931569,0
67.0886,-65.2946,-0.999181,0
64.8774,-62.552,-1.13053,174
62.7829,-60.1214,-1.24129,174
66.5842,-62.9474,-1.16007,0
66.6923,-62.4658,-1.19876,0
63.983,-59.7813,-1.30534,174
64.0985,-59.4278,-1.33349,174
64.7807,-59.4871,-1.34913,174
62.7099,-57.6309,-1.41515,174
62.8355,-57.3529,-1.43646,174
66.118,-59.0392,-1.41349,0
65.9814,-58.5152,-1.44224,0
