56.3228,-9.16581,0.146637,174
57.1494,-8.38882,0.178821,0
40.8098,-37.3034,0.159047,174
41.3878,-36.9096,0.156418,174
45.8371,-34.7344,0.180882,0
46.1987,-34.0586,0.169993,0
46.5486,-33.3903,0.159642,0
46.8871,-32.729,0.149808,0
47.2149,-32.0742,0.140472,0
47.5322,-31.4255,0.131614,0
47.83,-30.7737,0.122767,0
48.1093,-30.12,0.113948,0
48.379,-29.4725,0.105599,0
48.6394,-28.8308,0.0976887,0
48.916,-28.2142,0.0913996,0
49.1947,-27.6089,0.0859797,0
49.4656,-27.006,0.0809602,0
49.7289,-26.4053,0.076302,0
49.9955,-25.8133,0.0724836,0
50.2618,-25.2264,0.0693,0
50.5215,-24.6398,0.0664777,0
50.7748,-24.0534,0.0639875,0
51.0217,-23.4668,0.0618391,0
51.2626,-22.8797,0.0600324,0
51.4974,-22.292,0.0585578,0
51.7264,-21.7032,0.0574152,0
51.9572,-21.1161,0.0568977,0
51.0438,-20.1061,0.0121563,174
52.4612,-19.9561,0.0591438,0
52.6994,-19.3684,0.0605109,0
52.9255,-18.7747,0.0619367,0
53.1823,-18.1865,0.0650422,0
53.4037,-17.5851,0.0673078,0
53.6187,-16.9787,0.0698664,0
49.4106,-15.5286,-0.0921698,174
48.7943,-14.8846,-0.118745,174
49.0023,-14.3911,-0.11414,174
49.2854,-13.8998,-0.106352,174
54.7877,-13.8815,0.0938508,0
55.0901,-13.2445,0.102747,0
55.3811,-12.5948,0.111761,0
55.6712,-11.9325,0.121292,0
51.2216,-11.2703,-0.0420573,174
51.2974,-10.6996,-0.0392348,174
56.0318,-9.88966,0.134696,174
56.3018,-9.18384,0.145829,174
57.1427,-8.40649,0.178538,0
40.8021,-37.3245,0.1596,174
41.3721,-36.9153,0.156319,174
45.8284,-34.7505,0.181155,0
46.1902,-34.0746,0.170247,0
46.5404,-33.4062,0.159876,0
46.8792,-32.7447,0.150032,0
47.2072,-32.0897,0.140687,0
47.5247,-31.4408,0.13182,0
47.8233,-30.7893,0.122982,0
48.1028,-30.1354,0.114154,0
48.3727,-29.4878,0.105784,0
48.6333,-28.8459,0.0978742,0
48.9093,-28.2286,0.0915363,0
49.1882,-27.6232,0.0861066,0
49.4593,-27.0203,0.0810773,0
49.7227,-26.4196,0.0764094,0
49.9891,-25.8273,0.0725617,0
51.0623,-18.2041,0.167239,0
51.2727,-17.6515,0.169495,0
51.4876,-17.097,0.172523,0
49.7504,-16.1219,0.0886321,174
49.3743,-15.4958,0.0668679,174
48.501,-14.8115,0.0237684,174
48.6379,-14.3151,0.0262415,174
49.0665,-13.8493,0.0420812,174
52.7137,-13.6602,0.199886,0
52.9846,-13.0706,0.209417,0
53.2535,-12.4699,0.219446,0
53.5207,-11.8576,0.230013,0
51.1514,-11.2435,0.125879,174
51.2128,-10.6747,0.128701,174
54.5627,-9.93268,0.276087,0
54.9466,-9.25298,0.294417,0
55.2702,-8.55853,0.310833,0
55.5991,-7.84464,0.328236,0
50.3608,-7.93349,0.100618,174
56.2523,-6.35702,0.365286,0
56.3449,-5.62702,0.374671,0
56.4495,-4.88309,0.385423,0
54.3707,-2.57651,0.322776,174
28.7971,-40.0719,0.343411,174
30.256,-40.9128,0.385498,174
39.1809,-38.7536,0.394866,0
39.723,-38.2318,0.383812,0
40.2552,-37.7162,0.373538,0
40.7188,-37.0925,0.358412,174
41.228,-36.5853,0.349417,0
41.6937,-36.0218,0.33807,0
42.1589,-35.4807,0.328245,0
42.6112,-34.9387,0.318802,0
43.0249,-34.3577,0.307669,0
43.4186,-33.7689,0.296458,0
43.7998,-33.1832,0.285706,0
44.1686,-32.6003,0.275394,0
44.5255,-32.0201,0.265521,0
44.8709,-31.4424,0.256068,0
45.2037,-30.8654,0.246917,0
45.5091,-30.2739,0.237142,0
45.8038,-29.6862,0.227806,0
46.0884,-29.1023,0.2189,0
46.373,-28.5309,0.211009,0
46.6852,-27.9941,0.205687,0
46.9892,-27.4575,0.200706,0
47.2852,-26.921,0.196087,0
47.5734,-26.3844,0.19181,0
47.8385,-25.8368,0.187044,0
48.0877,-25.2842,0.18222,0
48.3293,-24.7324,0.177738,0
48.5634,-24.1812,0.173607,0
48.7945,-23.633,0.170042,0
49.0464,-23.1,0.168206,0
49.2919,-22.5654,0.166702,0
49.5312,-22.0292,0.16553,0
49.7613,-21.4897,0.164525,0
49.9876,-20.9492,0.163958,0
50.2128,-20.4084,0.163948,0
50.4281,-19.8635,0.164066,0
50.6377,-19.3159,0.164515,0
50.8416,-18.7655,0.165296,0
51.0573,-18.2171,0.1672,0
51.2677,-17.6647,0.169437,0
51.4825,-17.1102,0.172445,0
49.7721,-16.1398,0.0897314,174
49.3742,-15.5087,0.0669704,174
48.5058,-14.8246,0.0240766,174
48.6291,-14.3262,0.0259316,174
49.0514,-13.86,0.0414832,174
52.7073,-13.6741,0.199671,0
52.9782,-13.0847,0.209183,0
53.2472,-12.4843,0.219212,0
53.5143,-11.8723,0.229759,0
51.1575,-11.2569,0.126153,174
51.2052,-10.6884,0.128358,174
54.5536,-9.94859,0.275667,0
54.9374,-9.26937,0.293968,0
55.2624,-8.57523,0.310433,0
55.5912,-7.86184,0.327806,0
50.3815,-7.94373,0.101457,174
56.2501,-6.37422,0.365062,0
56.3427,-5.64448,0.374437,0
56.4458,-4.90116,0.385101,0
54.3636,-2.59568,0.322234,174
28.7828,-40.1107,0.34507,174
30.2402,-40.9235,0.385887,174
39.168,-38.7663,0.39515,0
39.7102,-38.244,0.384046,0
40.2432,-37.7297,0.373831,0
40.7078,-37.1069,0.358747,174
41.2168,-36.5987,0.349691,0
41.6824,-36.0346,0.338294,0
42.148,-35.4935,0.32847,0
42.6007,-34.9516,0.319027,0
43.0154,-34.3717,0.307952,0
43.4094,-33.7829,0.296722,0
43.7908,-33.1971,0.28595,0
44.1599,-32.6141,0.275638,0
44.5172,-32.0338,0.265745,0
44.863,-31.4561,0.256282,0
45.1963,-30.8795,0.247152,0
45.502,-30.2879,0.237366,0
45.797,-29.7001,0.228021,0
46.0818,-29.1161,0.219105,0
46.3655,-28.5436,0.211146,0
46.6779,-28.0068,0.205804,0
46.982,-27.4703,0.200823,0
47.2783,-26.9337,0.196185,0
47.5666,-26.3972,0.191907,0
47.8325,-25.8499,0.187171,0
48.082,-25.2973,0.182327,0
48.3237,-24.7455,0.177835,0
48.5579,-24.1943,0.173704,0
48.7884,-23.6457,0.170091,0
49.0405,-23.1127,0.168245,0
49.2862,-22.5782,0.166732,0
49.5256,-22.042,0.16555,0
49.7561,-21.5026,0.164554,0
49.9822,-20.962,0.163958,0
50.2076,-20.4213,0.163948,0
50.423,-19.8765,0.164066,0
50.6327,-19.329,0.164505,0
50.8368,-18.7786,0.165267,0
51.0522,-18.2302,0.167152,0
51.2628,-17.6779,0.169388,0
51.4774,-17.1234,0.172366,0
49.7938,-16.1578,0.0908344,174
49.374,-15.5216,0.0670736,174
48.5113,-14.8378,0.0244118,174
48.6203,-14.3372,0.0256221,174
49.0363,-13.8706,0.0408868,174
52.7008,-13.688,0.199456,0
52.9718,-13.0989,0.208958,0
53.2409,-12.4987,0.218968,0
53.508,-11.8869,0.229505,0
51.1637,-11.2704,0.126426,174
51.1976,-10.7021,0.128014,174
54.5445,-9.96449,0.275247,0
54.9283,-9.28574,0.293528,0
55.2546,-8.59193,0.310023,0
55.5834,-7.87899,0.327396,0
50.4024,-7.954,0.1023,174
56.2478,-6.39144,0.364847,0
56.3405,-5.66194,0.374222,0
56.4421,-4.91925,0.384788,0
54.3566,-2.61484,0.321693,174
28.7684,-40.1496,0.346733,174
30.2243,-40.9344,0.386287,174
39.1551,-38.779,0.395433,0
39.6974,-38.2561,0.3843,0
40.2312,-37.7427,0.374105,0
40.6973,-37.1223,0.359132,174
41.2056,-36.6122,0.349974,0
41.6713,-36.0476,0.338538,0
42.1371,-35.5064,0.328714,0
42.5901,-34.9645,0.319241,0
43.0059,-34.3857,0.308226,0
43.4002,-33.7968,0.296986,0
43.7819,-33.2109,0.286204,0
44.1513,-32.6279,0.275862,0
44.5088,-32.0475,0.26597,0
44.8548,-31.4698,0.256497,0
45.1889,-30.8936,0.247396,0
45.4948,-30.3019,0.237591,0
45.7902,-29.7141,0.228236,0
46.0752,-29.1299,0.21931,0
46.358,-28.5564,0.211273,0
46.6706,-28.0195,0.205921,0
46.975,-27.483,0.200931,0
47.2713,-26.9465,0.196292,0
47.5598,-26.4099,0.192005,0
47.8264,-25.863,0.187298,0
48.0761,-25.3104,0.182435,0
48.318,-24.7586,0.177943,0
49.396,-17.7219,0.255696,0
49.6165,-17.2146,0.259466,0
49.8319,-16.7021,0.263577,0
50.0397,-16.1836,0.267904,0
49.3406,-15.4894,0.225797,174
48.3421,-14.7853,0.169225,174
48.3589,-14.2761,0.165981,174
48.7099,-13.808,0.18051,174
50.9752,-13.501,0.293499,0
51.2056,-12.9503,0.302738,0
51.4253,-12.3899,0.312083,0
51.6271,-11.8198,0.321185,0
51.1529,-11.2434,0.296576,174
51.1413,-10.6766,0.296185,174
52.4731,-10.0403,0.364905,0
52.7873,-9.41578,0.382581,0
53.1257,-8.77161,0.402288,0
53.5864,-8.09315,0.429105,0
49.8661,-8.0065,0.241937,174
54.5934,-6.64252,0.489896,0
54.8989,-5.91145,0.511585,0
55.087,-5.18491,0.528118,0
55.2212,-4.45498,0.542855,0
55.292,-3.72725,0.555237,0
55.0765,-3.0719,0.55347,0
53.986,-2.70102,0.505834,174
22.2064,-38.4184,0.4847,0
22.8879,-38.3171,0.473929,0
23.5531,-38.2584,0.466204,0
24.214,-38.1762,0.458099,0
24.8684,-38.0806,0.45012,0
25.5143,-38.0021,0.443821,0
26.1488,-38.0521,0.444857,0
26.785,-38.0652,0.444769,0
27.4212,-38.0651,0.444779,0
28.0567,-38.0419,0.444368,0
28.6939,-38.0541,0.446527,0
29.3387,-38.1392,0.453187,0
29.9882,-38.2075,0.459779,0
30.6369,-38.2178,0.464202,0
31.2657,-38.0642,0.46098,0
31.8885,-37.8927,0.457571,0
32.5058,-37.7084,0.454251,0
33.1247,-37.5451,0.452757,0
33.7478,-37.4043,0.453206,0
34.3677,-37.2496,0.453695,0
34.9843,-37.0811,0.454222,0
35.5816,-36.851,0.45223,0
36.1559,-36.5603,0.447708,0
36.722,-36.2592,0.443284,0
37.2773,-35.9416,0.438646,0
37.8165,-35.5974,0.433206,0
38.324,-35.1958,0.425189,0
38.8199,-34.7873,0.417337,0
39.3045,-34.3721,0.409681,0
39.7777,-33.9505,0.4022,0
40.2406,-33.5248,0.395023,0
40.6684,-33.0541,0.385696,0
41.0845,-32.5808,0.376654,0
41.4892,-32.1052,0.367933,0
41.8825,-31.6272,0.359486,0
42.2646,-31.147,0.351341,0
42.648,-30.6803,0.344495,0
42.9904,-30.1736,0.335452,0
43.3165,-29.6606,0.326321,0
43.6322,-29.1485,0.317571,0
43.9384,-28.6378,0.309241,0
44.2607,-28.1535,0.303138,0
44.5744,-27.6684,0.297386,0
44.8795,-27.1824,0.291946,0
45.1763,-26.6955,0.286839,0
45.4572,-26.2012,0.281546,0
45.7299,-25.7064,0.276595,0
45.9948,-25.2111,0.271966,0
46.252,-24.7151,0.267669,0
46.5015,-24.2183,0.263695,0
46.7435,-23.7208,0.260042,0
46.992,-23.2307,0.257532,0
47.2341,-22.7391,0.255355,0
47.4693,-22.2457,0.25348,0
47.6963,-21.7496,0.251839,0
47.9117,-21.2491,0.250208,0
48.1348,-20.7534,0.2497,0
48.3438,-20.2517,0.249066,0
48.546,-19.7476,0.248714,0
48.742,-19.241,0.248665,0
48.9345,-18.7328,0.249095,0
49.1652,-18.2358,0.252181,0
49.3908,-17.7338,0.255609,0
49.6113,-17.2267,0.259368,0
49.8268,-16.7144,0.26347,0
50.0346,-16.1959,0.267777,0
49.3401,-15.5022,0.225896,174
48.3447,-14.798,0.169465,174
48.3532,-14.2874,0.165778,174
48.7011,-13.8192,0.180134,174
50.9697,-13.514,0.293284,0
51.2002,-12.9635,0.302513,0
51.4205,-12.4033,0.311878,0
51.6223,-11.8335,0.32096,0
51.1622,-11.2568,0.297053,174
51.1327,-10.6903,0.295735,174
52.4656,-10.0549,0.364495,0
52.7798,-9.43082,0.382161,0
53.1149,-8.78742,0.401693,0
53.5753,-8.10959,0.42845,0
49.8682,-8.0192,0.241957,174
50.326,-7.39062,0.26969,174
54.8941,-5.92856,0.511175,0
55.0837,-5.2021,0.527786,0
55.218,-4.47249,0.542503,0
55.2935,-3.74379,0.55512,0
55.0817,-3.08738,0.553489,0
53.9885,-2.71686,0.505715,174
22.1902,-38.4207,0.484964,0
22.8717,-38.3197,0.474183,0
23.5373,-38.2601,0.46639,0
24.1983,-38.1783,0.458294,0
24.853,-38.083,0.450316,0
25.4993,-38.0004,0.443782,0
26.1337,-38.0516,0.444857,0
26.7698,-38.0651,0.444779,0
27.406,-38.0652,0.444779,0
28.0416,-38.0432,0.444407,0
28.6787,-38.052,0.44637,0
29.3234,-38.1374,0.45303,0
29.9727,-38.2061,0.459622,0
30.6216,-38.219,0.464153,0
31.2509,-38.0681,0.461058,0
31.8738,-37.897,0.45765,0
32.4912,-37.7129,0.454329,0
33.1098,-37.5483,0.452747,0
33.733,-37.4078,0.453196,0
34.353,-37.2534,0.453685,0
34.9697,-37.0853,0.454212,0
35.5678,-36.8577,0.452337,0
36.1424,-36.5674,0.447806,0
36.7087,-36.2664,0.443382,0
37.2643,-35.9496,0.438773,0
37.8044,-35.6069,0.433402,0
38.3121,-35.2055,0.425374,0
38.8084,-34.7971,0.417523,0
39.2931,-34.382,0.409857,0
39.7665,-33.9605,0.402376,0
40.2299,-33.5353,0.395218,0
40.6584,-33.0653,0.385911,0
41.0748,-32.5921,0.376878,0
41.4797,-32.1165,0.368138,0
41.8732,-31.6386,0.359691,0
42.2556,-31.1584,0.351536,0
42.6391,-30.6914,0.344661,0
42.9825,-30.1858,0.335667,0
43.3088,-29.6727,0.326536,0
43.6248,-29.1607,0.317777,0
43.9309,-28.6494,0.309398,0
44.2532,-28.165,0.303284,0
44.567,-27.6799,0.297513,0
44.8723,-27.1939,0.292073,0
45.1693,-26.707,0.286956,0
45.4505,-26.2129,0.281663,0
45.7235,-25.7182,0.276702,0
45.9887,-25.2228,0.272073,0
46.2459,-24.7269,0.267767,0
46.4957,-24.2301,0.263782,0
46.7379,-23.7326,0.26013,0
46.9862,-23.2423,0.257581,0
47.2284,-22.7508,0.255404,0
47.4637,-22.2574,0.253529,0
47.6911,-21.7615,0.251878,0
47.9066,-21.2611,0.250247,0
48.1295,-20.7652,0.24971,0
48.3388,-20.2637,0.249075,0
48.5413,-19.7596,0.248714,0
48.7373,-19.253,0.248665,0
48.9291,-18.7446,0.249017,0
49.1598,-18.2477,0.252103,0
49.3855,-17.7458,0.255521,0
49.6061,-17.2388,0.259271,0
49.8217,-16.7266,0.263362,0
50.0295,-16.2083,0.267659,0
49.3395,-15.515,0.225995,174
48.3473,-14.8106,0.169705,174
48.3475,-14.2987,0.165575,174
48.6923,-13.8304,0.17976,174
50.9642,-13.527,0.29307,0
51.1947,-12.9766,0.302288,0
51.4157,-12.4167,0.311663,0
51.6176,-11.8471,0.320745,0
51.1715,-11.2703,0.297532,174
51.1241,-10.704,0.295285,174
52.4582,-10.0696,0.364085,0
52.7723,-9.44584,0.381732,0
53.1041,-8.80319,0.401058,0
53.5643,-8.12599,0.427806,0
49.8704,-8.0319,0.241981,174
50.2177,-7.42253,0.263997,174
54.8894,-5.94569,0.510784,0
55.0805,-5.21925,0.527445,0
55.2148,-4.48999,0.542152,0
55.2952,-3.76031,0.554984,0
55.087,-3.10291,0.553538,0
53.991,-2.73271,0.505596,174
22.1739,-38.423,0.485218,0
22.8557,-38.3223,0.474437,0
23.5216,-38.2619,0.466595,0
24.1827,-38.1804,0.458489,0
24.8375,-38.0854,0.450501,0
25.4842,-37.9986,0.443743,0
26.1184,-38.0511,0.444866,0
26.7548,-38.0649,0.444779,0
27.3909,-38.0653,0.444779,0
28.0266,-38.0445,0.444446,0
28.6634,-38.0497,0.446214,0
29.308,-38.1355,0.452864,0
29.9573,-38.2046,0.459466,0
30.6063,-38.2203,0.464124,0
31.236,-38.072,0.461136,0
31.8591,-37.9012,0.457738,0
32.4766,-37.7175,0.454407,0
33.095,-37.5514,0.452747,0
33.7183,-37.4112,0.453187,0
34.3384,-37.2572,0.453675,0
34.9551,-37.0894,0.454202,0
35.5541,-36.8645,0.452445,0
36.1288,-36.5744,0.447913,0
36.6954,-36.2737,0.443489,0
37.2513,-35.9574,0.4389,0
37.7922,-35.6163,0.433587,0
38.3002,-35.2151,0.42556,0
38.7966,-34.8068,0.417708,0
39.2818,-34.392,0.410042,0
39.7554,-33.9706,0.402542,0
40.2188,-33.5451,0.395355,0
40.6484,-33.0766,0.386126,0
41.0651,-32.6034,0.377083,0
41.4702,-32.1278,0.368343,0
41.864,-31.65,0.359886,0
42.2466,-31.1698,0.351722,0
42.6301,-30.7025,0.344818,0
42.9747,-30.1979,0.335892,0
43.3013,-29.6849,0.326751,0
43.6174,-29.1728,0.317982,0
43.9237,-28.6615,0.309593,0
44.2456,-28.1765,0.303421,0
44.5597,-27.6914,0.29764,0
44.8652,-27.2055,0.292191,0
45.1623,-26.7186,0.287073,0
45.444,-26.2247,0.28179,0
45.7172,-25.7299,0.27682,0
45.9825,-25.2346,0.272181,0
46.2399,-24.7386,0.267864,0
46.4898,-24.242,0.26387,0
46.7322,-23.7444,0.260208,0
47.8482,-17.2739,0.326575,0
48.0402,-16.7988,0.329798,0
48.2264,-16.3192,0.333353,0
48.4211,-15.8381,0.33806,0
48.6112,-15.3517,0.343148,0
48.2034,-14.7625,0.313677,174
48.2206,-14.2567,0.310054,174
48.4946,-13.783,0.322172,174
49.3233,-13.3497,0.367259,0
49.5261,-12.8367,0.376429,0
49.7242,-12.3154,0.386019,0
49.9177,-11.7857,0.396038,0
50.1131,-11.2474,0.406907,0
50.3426,-10.6986,0.420482,0
50.5682,-10.1384,0.434603,0
50.79,-9.56639,0.4493,0
51.008,-8.98211,0.464593,0
51.5395,-8.3459,0.499056,0
49.766,-8.0212,0.399354,174
49.9755,-7.4375,0.416421,174
53.1364,-6.25815,0.608792,0
53.3106,-5.57849,0.626419,0
53.5034,-4.8787,0.646204,0
53.6936,-4.16207,0.666946,0
53.5903,-3.51442,0.671116,0
52.7746,-3.09333,0.632905,174
22.8614,-34.9558,0.477835,0
23.4338,-35.0001,0.474866,0
24.0041,-35.043,0.47264,0
24.5802,-35.0207,0.467386,0
25.153,-34.987,0.462269,0
25.7195,-34.9855,0.459837,0
26.2831,-35.0088,0.459612,0
26.8465,-35.04,0.460628,0
27.4108,-35.0681,0.462239,0
27.9756,-35.0659,0.462855,0
28.5358,-34.9599,0.458216,0
29.0915,-34.8428,0.453685,0
29.647,-34.7595,0.451878,0
30.1996,-34.6642,0.45013,0
30.7553,-34.5991,0.450921,0
31.3124,-34.5374,0.452679,0
31.8686,-34.4623,0.454437,0
32.4234,-34.374,0.456195,0
32.9745,-34.2642,0.457454,0
33.5178,-34.1205,0.457464,0
34.0574,-33.964,0.457454,0
34.5931,-33.7948,0.457464,0
35.1245,-33.6131,0.457464,0
35.6359,-33.3775,0.454886,0
36.1323,-33.1099,0.451019,0
36.6215,-32.8329,0.447259,0
37.1032,-32.5466,0.443587,0
37.5773,-32.2513,0.440023,0
38.032,-31.9242,0.435052,0
38.4698,-31.5747,0.429241,0
38.8987,-31.2187,0.423587,0
39.3185,-30.8562,0.418099,0
39.7291,-30.4876,0.412767,0
40.1309,-30.1129,0.407601,0
40.5091,-29.7123,0.401155,0
40.8724,-29.3004,0.394417,0
41.2262,-28.8849,0.387904,0
41.5752,-28.4714,0.382034,0
41.9215,-28.0617,0.376966,0
42.2589,-27.648,0.372112,0
42.5877,-27.2307,0.367474,0
42.8917,-26.7938,0.361741,0
43.1779,-26.3458,0.35553,0
43.4698,-25.9096,0.350745,0
43.7627,-25.4789,0.346917,0
44.048,-25.0457,0.343382,0
44.3258,-24.6098,0.340111,0
44.5927,-24.1688,0.336868,0
44.8504,-23.7241,0.333753,0
45.1129,-23.2853,0.33178,0
45.3528,-22.8336,0.328988,0
45.5805,-22.3767,0.326136,0
45.801,-21.9181,0.323558,0
46.0145,-21.4576,0.321282,0
46.228,-20.9988,0.319739,0
46.441,-20.5408,0.3189,0
46.6477,-20.0803,0.318333,0
46.8479,-19.6171,0.31806,0
47.0348,-19.1485,0.317659,0
47.2213,-18.6796,0.317904,0
47.4365,-18.2199,0.320589,0
47.6459,-17.7557,0.323587,0
47.8436,-17.2851,0.326497,0
48.0356,-16.8102,0.32973,0
48.222,-16.3307,0.333275,0
48.4165,-15.8496,0.337952,0
48.6068,-15.3633,0.343021,0
48.206,-14.7751,0.313946,174
48.2171,-14.2682,0.309955,174
48.4841,-13.7939,0.321645,174
49.3184,-13.3618,0.367044,0
49.5213,-12.849,0.376214,0
49.7195,-12.3279,0.385784,0
49.9131,-11.7984,0.395804,0
50.1075,-11.2603,0.406575,0
50.3372,-10.7118,0.420159,0
50.5629,-10.1519,0.434271,0
50.7848,-9.58012,0.448948,0
51.0028,-8.9961,0.464202,0
51.5252,-8.36156,0.498128,0
49.7709,-8.03343,0.399539,174
49.9493,-7.45516,0.41476,174
53.1323,-6.27411,0.608402,0
53.306,-5.59491,0.62596,0
53.4988,-4.89551,0.645726,0
53.6891,-4.1793,0.666458,0
53.5959,-3.52895,0.671204,0
52.7843,-3.10609,0.633218,174
22.8473,-34.9571,0.47806,0
23.4202,-34.9988,0.474925,0
23.9903,-35.0434,0.472767,0
24.5664,-35.0214,0.467513,0
25.1395,-34.9879,0.462386,0
25.7062,-34.9848,0.459837,0
26.2698,-35.0084,0.459612,0
26.833,-35.0392,0.460589,0
27.3973,-35.0676,0.462191,0
27.9623,-35.0683,0.462972,0
28.5227,-34.9625,0.458323,0
29.0784,-34.8457,0.453782,0
29.6338,-34.7616,0.451917,0
30.1865,-34.6666,0.450169,0
30.742,-34.6004,0.450882,0
31.2991,-34.539,0.45264,0
31.8554,-34.4643,0.454398,0
32.4102,-34.3762,0.456155,0
32.9616,-34.2676,0.457464,0
33.505,-34.1241,0.457464,0
34.0447,-33.9679,0.457454,0
34.5804,-33.799,0.457464,0
35.112,-33.6176,0.457454,0
35.6241,-33.3838,0.454984,0
36.1206,-33.1164,0.451116,0
36.6099,-32.8396,0.447347,0
37.0918,-32.5535,0.443685,0
37.5661,-32.2584,0.44012,0
38.0214,-31.9324,0.435208,0
38.4595,-31.5831,0.429388,0
38.8887,-31.2272,0.423724,0
39.3086,-30.8649,0.418226,0
39.7196,-30.4964,0.412894,0
40.1215,-30.1219,0.407728,0
40.5003,-29.7221,0.401321,0
40.8639,-29.3103,0.394573,0
41.218,-28.8948,0.38805,0
41.5669,-28.4811,0.382161,0
41.9133,-28.0714,0.377083,0
42.2509,-27.6579,0.37223,0
42.5799,-27.2406,0.367581,0
42.8848,-26.8044,0.361888,0
43.1712,-26.3565,0.355677,0
43.4627,-25.9198,0.350833,0
43.7559,-25.4892,0.347015,0
44.0413,-25.056,0.34347,0
44.3193,-24.6202,0.340189,0
44.5866,-24.1794,0.336946,0
44.8444,-23.7347,0.333821,0
45.1067,-23.2957,0.33182,0
45.3473,-22.8444,0.329056,0
45.5751,-22.3876,0.326195,0
45.7959,-21.929,0.323616,0
46.0095,-21.4686,0.321331,0
46.2228,-21.0097,0.319759,0
46.436,-20.5517,0.318909,0
46.6429,-20.0912,0.318343,0
46.8432,-19.6281,0.31806,0
47.0305,-19.1596,0.317659,0
47.2162,-18.6904,0.317845,0
47.4314,-18.2309,0.320521,0
47.641,-17.7668,0.323509,0
47.839,-17.2964,0.326429,0
48.0311,-16.8215,0.329642,0
48.2177,-16.3421,0.333177,0
48.412,-15.8611,0.337825,0
48.6023,-15.3749,0.342904,0
48.2085,-14.7876,0.314216,174
48.2137,-14.2798,0.309856,174
48.4736,-13.8048,0.321118,174
49.3134,-13.3739,0.366839,0
49.5165,-12.8612,0.375989,0
49.7149,-12.3404,0.38555,0
49.9086,-11.8111,0.39556,0
50.1017,-11.2731,0.406253,0
50.3318,-10.7249,0.419827,0
50.5576,-10.1653,0.433929,0
50.7795,-9.59383,0.448587,0
50.9977,-9.01014,0.463851,0
51.5109,-8.37719,0.4972,0
49.7759,-8.04568,0.399726,174
49.9262,-7.47229,0.413275,174
53.1283,-6.29005,0.608001,0
53.3014,-5.61131,0.625501,0
53.4942,-4.91229,0.645238,0
53.6847,-4.19647,0.665941,0
53.6014,-3.54346,0.671273,0
52.794,-3.11886,0.633533,174
22.8332,-34.9584,0.478275,0
23.4067,-34.9975,0.474974,0
23.9766,-35.0438,0.472894,0
24.5529,-35.022,0.46763,0
25.1259,-34.9888,0.462513,0
25.6927,-34.9841,0.459847,0
26.2563,-35.0079,0.459622,0
26.8197,-35.0384,0.46055,0
27.3839,-35.0671,0.462161,0
27.9489,-35.0707,0.463079,0
28.5094,-34.9652,0.458431,0
29.0652,-34.8486,0.4539,0
29.6206,-34.7637,0.451966,0
30.1734,-34.669,0.450218,0
30.7288,-34.6017,0.450843,0
31.2859,-34.5406,0.452591,0
31.8422,-34.4662,0.454359,0
32.3971,-34.3785,0.456107,0
32.9487,-34.2708,0.457454,0
33.4922,-34.1276,0.457464,0
34.0319,-33.9718,0.457454,0
34.5677,-33.8032,0.457464,0
35.0995,-33.6221,0.457454,0
35.6122,-33.39,0.455071,0
36.1089,-33.1228,0.451204,0
36.5984,-32.8462,0.447435,0
37.0805,-32.5604,0.443763,0
37.5549,-32.2655,0.440198,0
38.0109,-31.9406,0.435335,0
38.4492,-31.5915,0.429515,0
38.8785,-31.2357,0.423851,0
39.2987,-30.8736,0.418353,0
39.7099,-30.5052,0.413011,0
40.112,-30.1308,0.407845,0
40.4915,-29.7318,0.401487,0
40.8554,-29.3201,0.39473,0
41.2096,-28.9047,0.388206,0
41.5586,-28.4908,0.382279,0
41.9052,-28.0812,0.3772,0
42.243,-27.6678,0.372337,0
42.5722,-27.2506,0.367689,0
42.878,-26.815,0.362054,0
43.1645,-26.3671,0.355814,0
43.4557,-25.93,0.350931,0
43.749,-25.4994,0.347103,0
44.0347,-25.0663,0.343548,0
44.3127,-24.6305,0.340257,0
44.5803,-24.1899,0.337025,0
44.8384,-23.7452,0.3339,0
45.1005,-23.3062,0.331859,0
45.3418,-22.8553,0.329124,0
46.4126,-16.8584,0.382103,0
46.5762,-16.4127,0.384505,0
46.7539,-15.9681,0.388528,0
46.933,-15.5204,0.393333,0
47.1063,-15.0677,0.398441,0
47.2734,-14.6098,0.403812,0
47.4343,-14.1467,0.409486,0
47.5938,-13.6788,0.415765,0
47.7578,-13.2064,0.42304,0
47.9159,-12.7278,0.430648,0
48.0679,-12.243,0.438597,0
48.2137,-11.7518,0.446868,0
48.3665,-11.2541,0.456361,0
48.5684,-10.7477,0.469827,0
48.7661,-10.2312,0.483802,0
48.9702,-9.7036,0.499046,0
49.1705,-9.16471,0.514857,0
49.4527,-8.60358,0.536937,0
49.7103,-8.02935,0.558376,174
49.847,-7.45953,0.572762,174
50.7416,-6.72933,0.638421,0
51.1359,-6.06035,0.672191,0
51.4267,-5.39095,0.700257,0
51.7722,-4.68482,0.733275,0
52.2548,-3.91212,0.776927,0
52.2398,-3.26644,0.788138,0
23.3555,-32.3432,0.476956,0
23.8565,-32.432,0.477239,0
24.3618,-32.4921,0.476409,0
24.8694,-32.5285,0.474808,0
25.377,-32.5527,0.473196,0
25.8859,-32.542,0.470091,0
26.3932,-32.5175,0.466878,0
26.8977,-32.522,0.466351,0
27.402,-32.523,0.466351,0
27.9059,-32.5107,0.466273,0
28.4094,-32.4852,0.466116,0
28.9118,-32.4466,0.465862,0
29.4084,-32.3491,0.462532,0
29.8995,-32.2258,0.458265,0
30.3867,-32.0968,0.454368,0
30.8801,-32.0192,0.454612,0
31.3716,-31.9304,0.454896,0
31.8609,-31.8305,0.455208,0
32.3495,-31.7257,0.45596,0
32.8386,-31.6202,0.457454,0
33.3191,-31.4812,0.457454,0
33.7962,-31.3308,0.457454,0
34.2693,-31.1693,0.457464,0
34.7387,-30.9966,0.457454,0
35.2037,-30.813,0.457454,0
35.6573,-30.6024,0.456312,0
36.1023,-30.3748,0.454691,0
36.5387,-30.1319,0.452708,0
36.9692,-29.88,0.450784,0
37.3934,-29.6193,0.448929,0
37.8083,-29.3448,0.446751,0
38.1928,-29.0235,0.441683,0
38.5692,-28.6961,0.436771,0
38.944,-28.3721,0.432747,0
39.3122,-28.0437,0.428988,0
39.673,-27.7094,0.425404,0
40.0262,-27.3695,0.421976,0
40.3653,-27.0161,0.418021,0
40.6866,-26.6463,0.413255,0
40.9998,-26.2724,0.408685,0
41.3121,-25.902,0.404974,0
41.6193,-25.5299,0.401712,0
41.9191,-25.1537,0.398636,0
42.2114,-24.7734,0.395784,0
42.4964,-24.3891,0.393109,0
42.7704,-23.998,0.390355,0
43.0291,-23.5971,0.387142,0
43.2882,-23.1991,0.384798,0
43.5383,-22.7964,0.382523,0
43.7789,-22.389,0.380306,0
44.0123,-21.9784,0.378304,0
44.2383,-21.5648,0.376507,0
44.4595,-21.1496,0.37512,0
44.6834,-20.7366,0.374681,0
44.9004,-20.32,0.374466,0
45.1105,-19.9,0.374456,0
45.3021,-19.4712,0.373841,0
45.4816,-19.0374,0.373089,0
45.6679,-18.6065,0.373548,0
45.8712,-18.1811,0.375892,0
46.0614,-17.7491,0.378011,0
46.2383,-17.3109,0.379915,0
46.4086,-16.869,0.382044,0
46.5723,-16.4233,0.384437,0
46.7495,-15.9787,0.388431,0
46.9288,-15.5311,0.393226,0
47.1022,-15.0785,0.398314,0
47.2694,-14.6207,0.403685,0
47.4305,-14.1577,0.409349,0
47.5898,-13.69,0.415589,0
47.7541,-13.2177,0.422864,0
47.9123,-12.7392,0.430472,0
48.0644,-12.2545,0.438392,0
48.2103,-11.7635,0.446673,0
48.3616,-11.266,0.456048,0
48.5637,-10.7599,0.469495,0
48.7613,-10.2436,0.48347,0
48.9655,-9.71628,0.498675,0
49.1659,-9.17765,0.514486,0
49.4438,-8.61738,0.536263,0
49.7175,-8.04122,0.558733,174
49.8291,-7.4757,0.571443,174
50.7295,-6.74543,0.637435,0
51.1289,-6.07599,0.671527,0
51.4198,-5.40708,0.699583,0
51.7605,-4.70286,0.73223,0
52.255,-3.92738,0.776673,0
52.2402,-3.28185,0.787864,0
23.3437,-32.3409,0.476956,0
23.8446,-32.4301,0.477239,0
24.3498,-32.4911,0.476439,0
24.8573,-32.5277,0.474847,0
25.3648,-32.5523,0.473236,0
25.8737,-32.5424,0.470169,0
26.3812,-32.5183,0.466956,0
26.8857,-32.5219,0.466341,0
27.3899,-32.5231,0.466351,0
27.8941,-32.5112,0.466282,0
28.3975,-32.486,0.466116,0
28.8999,-32.4477,0.465872,0
29.3967,-32.3519,0.46263,0
29.8878,-32.2288,0.458353,0
30.375,-32.0986,0.454359,0
30.8684,-32.0212,0.454612,0
31.3598,-31.9326,0.454886,0
31.8494,-31.833,0.455198,0
32.3378,-31.728,0.455931,0
32.8273,-31.6234,0.457464,0
33.3077,-31.4846,0.457454,0
33.7848,-31.3345,0.457464,0
34.2582,-31.1732,0.457454,0
34.7275,-31.0009,0.457464,0
35.1927,-30.8175,0.457454,0
35.6466,-30.6076,0.456351,0
36.0919,-30.3804,0.454749,0
36.5285,-30.1377,0.452757,0
36.9591,-29.8861,0.450823,0
37.3834,-29.6256,0.448968,0
37.7991,-29.3524,0.446878,0
38.1838,-29.0312,0.44181,0
38.5604,-28.7039,0.436888,0
38.9351,-28.3798,0.432835,0
39.3035,-28.0516,0.429085,0
39.6645,-27.7175,0.425491,0
40.0179,-27.3776,0.422054,0
40.3575,-27.0248,0.418138,0
40.679,-26.6551,0.413363,0
40.9924,-26.2813,0.408792,0
41.3047,-25.9108,0.405062,0
41.6121,-25.5388,0.40179,0
41.912,-25.1627,0.398714,0
42.2046,-24.7825,0.395843,0
42.4897,-24.3983,0.393177,0
42.7642,-24.0076,0.390443,0
43.0229,-23.6065,0.3872,0
43.2821,-23.2086,0.384847,0
43.5325,-22.806,0.382581,0
43.7734,-22.3987,0.380364,0
44.0068,-21.9882,0.378343,0
44.233,-21.5746,0.376546,0
44.4541,-21.1593,0.37513,0
44.6782,-20.7464,0.374691,0
44.8953,-20.33,0.374466,0
45.1056,-19.91,0.374456,0
45.2978,-19.4815,0.373861,0
45.4773,-19.0477,0.373099,0
45.663,-18.6166,0.373499,0
45.8664,-18.1913,0.375843,0
46.0571,-17.7595,0.377972,0
46.2341,-17.3214,0.379866,0
46.4047,-16.8795,0.382005,0
46.5686,-16.4339,0.384378,0
46.7452,-15.9892,0.388314,0
46.9247,-15.5418,0.393109,0
47.0981,-15.0893,0.398187,0
47.2655,-14.6316,0.403548,0
47.4268,-14.1688,0.409212,0
47.5859,-13.7011,0.415423,0
47.7502,-13.229,0.422689,0
47.9085,-12.7507,0.430286,0
48.0609,-12.2661,0.438196,0
48.2069,-11.7753,0.446468,0
48.3568,-11.2779,0.455726,0
48.5589,-10.772,0.469173,0
48.7566,-10.256,0.483128,0
48.9607,-9.72893,0.498314,0
49.1612,-9.19057,0.514105,0
49.4349,-8.63114,0.535589,0
49.7247,-8.0531,0.559092,174
49.7777,-7.4976,0.567904,174
50.7173,-6.76153,0.636478,0
51.122,-6.09163,0.670882,0
51.413,-5.4232,0.698909,0
51.7487,-4.72083,0.731175,0
52.254,-3.94303,0.776341,0
52.2406,-3.29727,0.787601,0
23.3317,-32.3386,0.476946,0
23.8326,-32.4282,0.47723,0
24.3377,-32.4901,0.476478,0
24.8452,-32.527,0.474886,0
25.3528,-32.5518,0.473275,0
25.8616,-32.5428,0.470237,0
26.3691,-32.519,0.467034,0
26.8737,-32.5217,0.466331,0
27.378,-32.5232,0.466351,0
27.882,-32.5116,0.466282,0
28.3855,-32.4867,0.466116,0
28.888,-32.4487,0.465882,0
29.3849,-32.3547,0.462728,0
29.8762,-32.2319,0.45846,0
30.3633,-32.1003,0.454349,0
30.8566,-32.0231,0.454603,0
31.3483,-31.9349,0.454876,0
31.8377,-31.8356,0.455189,0
32.3262,-31.7303,0.455892,0
32.8157,-31.6262,0.457435,0
33.2963,-31.4881,0.457454,0
33.7735,-31.3382,0.457454,0
34.247,-31.1772,0.457454,0
34.7164,-31.0051,0.457454,0
35.1817,-30.822,0.457464,0
35.6359,-30.6128,0.45638,0
36.0815,-30.3861,0.454788,0
36.5183,-30.1436,0.452796,0
36.9489,-29.8922,0.450872,0
37.3734,-29.6318,0.449007,0
37.7899,-29.36,0.446995,0
38.1747,-29.0389,0.441927,0
38.5516,-28.7118,0.437005,0
38.9263,-28.3875,0.432923,0
39.2948,-28.0594,0.429173,0
39.656,-27.7255,0.425579,0
40.0095,-27.3858,0.422132,0
40.3498,-27.0335,0.418255,0
40.6715,-26.6639,0.41347,0
40.9851,-26.2903,0.4089,0
41.2973,-25.9196,0.40514,0
41.6048,-25.5477,0.401859,0
41.905,-25.1716,0.398782,0
42.1977,-24.7916,0.395911,0
42.483,-24.4075,0.393245,0
42.758,-24.0171,0.39053,0
43.0166,-23.6159,0.387259,0
43.276,-23.2181,0.384905,0
43.5267,-22.8156,0.38263,0
43.7677,-22.4084,0.380404,0
44.0013,-21.998,0.378392,0
45.0938,-16.4768,0.42515,0
45.262,-16.066,0.428821,0
45.43,-15.6524,0.433196,0
45.5922,-15.2342,0.437845,0
45.7485,-14.8115,0.442747,0
45.8988,-14.3841,0.447933,0
46.043,-13.9521,0.453392,0
46.1902,-13.5165,0.459808,0
46.3355,-13.0761,0.46682,0
46.4748,-12.6303,0.474134,0
46.6012,-12.1788,0.481263,0
46.7175,-11.722,0.488431,0
46.845,-11.26,0.497191,0
47.0394,-10.79,0.511595,0
47.2295,-10.3104,0.526507,0
47.415,-9.82089,0.541937,0
47.5959,-9.32121,0.557904,0
47.7848,-8.80954,0.575355,0
48.0624,-8.27272,0.600228,0
48.322,-7.72197,0.624818,0
48.5788,-7.15483,0.650257,0
48.8324,-6.57074,0.676605,0
49.443,-5.88026,0.730716,0
50.1742,-5.1196,0.795403,0
50.6052,-4.40337,0.839261,0
50.7427,-3.75136,0.862437,174
23.7745,-30.1278,0.467318,0
24.2232,-30.2037,0.467308,0
24.6727,-30.2753,0.467757,0
25.1238,-30.3353,0.468138,0
25.5772,-30.3756,0.467864,0
26.0322,-30.3904,0.466527,0
26.4877,-30.3773,0.463939,0
26.942,-30.3481,0.46097,0
27.3943,-30.3079,0.457991,0
27.8445,-30.2568,0.454984,0
28.2942,-30.2321,0.454661,0
28.7434,-30.1999,0.454564,0
29.1914,-30.1565,0.454417,0
29.6381,-30.1021,0.454251,0
30.0833,-30.0367,0.454046,0
30.5266,-29.9603,0.453792,0
30.9677,-29.8731,0.453528,0
31.4064,-29.775,0.453216,0
31.8424,-29.6662,0.452874,0
32.2754,-29.5467,0.452493,0
32.7052,-29.4166,0.452083,0
33.1359,-29.2896,0.452659,0
33.5652,-29.1569,0.453607,0
33.9912,-29.0134,0.454495,0
34.4138,-28.8593,0.455345,0
34.8326,-28.6946,0.456155,0
35.2497,-28.5245,0.457318,0
35.6499,-28.3178,0.456331,0
36.0432,-28.0988,0.455091,0
36.4309,-27.8709,0.45387,0
36.813,-27.6344,0.452659,0
37.1891,-27.3893,0.451468,0
37.5591,-27.1359,0.450296,0
37.9155,-26.8637,0.448216,0
38.2559,-26.5708,0.444984,0
38.5887,-26.2713,0.441829,0
38.9194,-25.9719,0.439339,0
39.2453,-25.6691,0.43721,0
39.5644,-25.36,0.435159,0
39.8762,-25.0448,0.433196,0
40.1809,-24.7237,0.431321,0
40.4657,-24.3841,0.428236,0
40.7402,-24.0372,0.424993,0
41.008,-23.6868,0.421986,0
41.2859,-23.3474,0.420804,0
41.5572,-23.0032,0.419788,0
41.8217,-22.6542,0.418919,0
42.0795,-22.3006,0.418196,0
42.3303,-21.9423,0.41762,0
42.5743,-21.5795,0.41721,0
42.8036,-21.2074,0.416282,0
43.0226,-20.8294,0.415237,0
43.2327,-20.4468,0.414212,0
43.4358,-20.0608,0.413382,0
43.632,-19.6715,0.412728,0
43.8211,-19.2789,0.412269,0
44.0031,-18.8832,0.411986,0
44.1947,-18.4914,0.413196,0
44.3866,-18.0985,0.415159,0
44.5723,-17.7016,0.417337,0
44.7514,-17.3006,0.4197,0
44.924,-16.8956,0.422288,0
45.09,-16.4866,0.425081,0
45.2579,-16.0758,0.428724,0
45.4261,-15.6623,0.433089,0
45.5884,-15.2442,0.437718,0
45.7449,-14.8216,0.44263,0
45.8952,-14.3943,0.447806,0
46.0395,-13.9624,0.453255,0
46.1867,-13.5269,0.459652,0
46.3322,-13.0866,0.466653,0
46.4716,-12.641,0.473948,0
46.5984,-12.1896,0.481087,0
46.7148,-11.7329,0.488255,0
46.8403,-11.2711,0.496859,0
47.0348,-10.8013,0.511243,0
47.225,-10.3219,0.526146,0
47.4106,-9.83263,0.541566,0
47.5916,-9.33318,0.557513,0
47.7773,-8.82219,0.5747,0
48.0562,-8.28561,0.599661,0
48.3159,-7.73523,0.624222,0
48.5727,-7.16849,0.649642,0
48.8265,-6.5848,0.67597,0
49.4252,-5.89794,0.729154,0
50.1641,-5.13621,0.794388,0
50.5948,-4.42075,0.838177,0
50.7359,-3.76818,0.861603,174
23.7638,-30.1263,0.467347,0
24.2126,-30.2018,0.467288,0
24.662,-30.2737,0.467747,0
25.1131,-30.334,0.468128,0
25.5664,-30.3751,0.467894,0
26.0214,-30.3901,0.466556,0
26.4769,-30.3778,0.464007,0
26.9312,-30.3489,0.461048,0
27.3836,-30.309,0.45806,0
27.8339,-30.2581,0.455052,0
28.2836,-30.2328,0.454661,0
28.7327,-30.2007,0.454554,0
29.1808,-30.1576,0.454427,0
29.6276,-30.1035,0.454251,0
30.0727,-30.0384,0.454046,0
30.516,-29.9623,0.453802,0
30.9573,-29.8753,0.453528,0
31.396,-29.7775,0.453226,0
31.8321,-29.6689,0.452874,0
32.2652,-29.5497,0.452503,0
32.6951,-29.4198,0.452093,0
33.1256,-29.2926,0.45265,0
33.5549,-29.1601,0.453587,0
33.9811,-29.017,0.454476,0
34.4037,-28.8631,0.455335,0
34.8227,-28.6986,0.456126,0
35.2398,-28.5286,0.457288,0
35.6405,-28.3229,0.45637,0
36.0339,-28.1041,0.45513,0
36.4218,-27.8764,0.45389,0
36.8039,-27.6401,0.452689,0
37.1802,-27.3952,0.451497,0
37.5504,-27.1421,0.450325,0
37.9074,-26.8706,0.448294,0
38.2478,-26.5778,0.445062,0
38.5809,-26.2785,0.441907,0
38.9116,-25.979,0.439388,0
39.2377,-25.6763,0.437259,0
39.5569,-25.3674,0.435198,0
39.8689,-25.0524,0.433245,0
40.1737,-24.7313,0.431361,0
40.4591,-24.3923,0.428304,0
40.7337,-24.0455,0.425071,0
41.0013,-23.6948,0.422005,0
41.2795,-23.3556,0.420843,0
41.5509,-23.0114,0.419808,0
41.8155,-22.6626,0.418939,0
42.0734,-22.309,0.418216,0
42.3245,-21.9509,0.41764,0
42.5686,-21.5882,0.41722,0
42.7983,-21.2163,0.416302,0
43.0175,-20.8385,0.415267,0
43.2278,-20.4559,0.414232,0
43.431,-20.07,0.413402,0
43.6273,-19.6808,0.412747,0
43.8166,-19.2883,0.412279,0
43.9989,-18.8927,0.411995,0
44.19,-18.5006,0.413157,0
44.3822,-18.1079,0.415111,0
44.5679,-17.7111,0.417278,0
44.7472,-17.3102,0.419652,0
44.9199,-16.9053,0.42222,0
45.0862,-16.4963,0.425003,0
45.2538,-16.0855,0.428626,0
45.4222,-15.6721,0.432982,0
45.5847,-15.2542,0.437611,0
45.7412,-14.8317,0.442503,0
45.8918,-14.4045,0.447679,0
46.0362,-13.9727,0.453128,0
46.1833,-13.5373,0.459486,0
46.3288,-13.0972,0.466478,0
46.4684,-12.6516,0.473773,0
46.5955,-12.2004,0.480931,0
46.7121,-11.7438,0.488079,0
46.8357,-11.2821,0.496517,0
47.0302,-10.8126,0.510902,0
47.2205,-10.3334,0.525784,0
47.4063,-9.84436,0.541185,0
47.5874,-9.34518,0.557132,0
47.7699,-8.83483,0.574075,0
48.0501,-8.29849,0.599075,0
48.3097,-7.74851,0.623626,0
48.5666,-7.18215,0.649036,0
48.8205,-6.59887,0.675335,0
49.4072,-5.9156,0.727601,0
50.154,-5.15276,0.793372,0
50.5845,-4.43816,0.837112,0
50.7291,-3.78499,0.860769,174
23.7531,-30.1247,0.467376,0
24.202,-30.2,0.467279,0
24.6512,-30.2722,0.467737,0
25.1024,-30.3326,0.468118,0
25.5555,-30.3746,0.467933,0
26.0105,-30.3899,0.466585,0
26.466,-30.3784,0.464085,0
26.9204,-30.3497,0.461116,0
27.3728,-30.3101,0.458128,0
27.8232,-30.2594,0.45512,0
28.2729,-30.2334,0.454661,0
28.722,-30.2017,0.454564,0
29.1702,-30.1588,0.454427,0
29.617,-30.1049,0.454261,0
30.0622,-30.04,0.454056,0
30.5055,-29.9642,0.453812,0
30.9468,-29.8775,0.453538,0
31.3856,-29.7799,0.453226,0
31.8217,-29.6716,0.452884,0
32.255,-29.5526,0.452513,0
32.6848,-29.423,0.452103,0
33.1154,-29.2956,0.45263,0
33.5448,-29.1634,0.453568,0
33.9711,-29.0205,0.454446,0
34.3938,-28.8669,0.455316,0
34.8128,-28.7026,0.456116,0
35.2299,-28.5327,0.457259,0
35.6312,-28.328,0.45639,0
36.0246,-28.1094,0.45515,0
36.4127,-27.8819,0.453919,0
36.795,-27.6458,0.452708,0
37.1713,-27.4012,0.451527,0
37.5417,-27.1482,0.450355,0
37.8993,-26.8775,0.448372,0
38.2398,-26.5848,0.44514,0
38.5731,-26.2857,0.441976,0
38.9037,-25.9861,0.439437,0
39.23,-25.6836,0.437308,0
39.5494,-25.3748,0.435247,0
39.8616,-25.0599,0.433294,0
40.1666,-24.7391,0.431409,0
40.4525,-24.4005,0.428392,0
40.7273,-24.0537,0.42514,0
40.9946,-23.7028,0.422054,0
41.2729,-23.3637,0.420862,0
41.5445,-23.0197,0.419827,0
41.8094,-22.6709,0.418948,0
42.0673,-22.3175,0.418226,0
42.3186,-21.9594,0.417659,0
42.5629,-21.5969,0.41723,0
42.7929,-21.2252,0.416321,0
43.8544,-16.1181,0.455189,0
44.0268,-15.7402,0.460277,0
44.1934,-15.3575,0.465589,0
44.354,-14.9699,0.471126,0
44.5084,-14.5775,0.476888,0
44.6514,-14.1794,0.482445,0
44.7865,-13.7765,0.488109,0
44.9262,-13.3703,0.494876,0
45.0591,-12.9592,0.501878,0
45.1845,-12.5431,0.509027,0
45.2931,-12.1215,0.515618,0
45.3951,-11.6956,0.522464,0
45.5061,-11.2652,0.530853,0
45.6704,-10.8279,0.544271,0
45.7944,-10.3843,0.555335,0
45.9111,-9.93429,0.566663,0
46.0203,-9.47779,0.578275,0
46.1219,-9.01489,0.590159,0
46.3026,-8.53271,0.609349,0
46.5134,-8.03329,0.631946,0
46.7202,-7.5205,0.655277,0
46.8908,-7.001,0.676761,0
47.011,-6.48023,0.695247,0
47.5061,-5.8456,0.745745,0
48.1048,-5.14804,0.806439,0
48.7391,-4.40031,0.871917,0
24.1137,-28.3344,0.459593,0
24.5214,-28.392,0.458655,0
24.9302,-28.439,0.457669,0
25.3397,-28.4754,0.456605,0
25.7491,-28.5072,0.45595,0
26.1594,-28.5218,0.45471,0
26.5695,-28.5263,0.453421,0
26.9791,-28.5207,0.452112,0
27.388,-28.505,0.450755,0
27.7961,-28.4793,0.449398,0
28.2035,-28.4568,0.449046,0
28.6105,-28.4279,0.448958,0
29.0165,-28.389,0.448831,0
29.4213,-28.3401,0.448675,0
29.8247,-28.2812,0.448489,0
30.2264,-28.2126,0.448275,0
30.6285,-28.1451,0.448929,0
31.0291,-28.0689,0.449642,0
31.4259,-27.9745,0.449642,0
31.8202,-27.8708,0.449652,0
32.212,-27.7578,0.449652,0
32.6009,-27.6355,0.449642,0
32.989,-27.5103,0.450169,0
33.3772,-27.3842,0.4514,0
33.7626,-27.2487,0.45262,0
34.1449,-27.1039,0.453821,0
34.5241,-26.9499,0.455032,0
34.8996,-26.7867,0.456214,0
35.2715,-26.6143,0.457386,0
35.6265,-26.4094,0.456409,0
35.9754,-26.1951,0.455306,0
36.323,-25.9794,0.454827,0
36.6659,-25.7566,0.454446,0
37.0037,-25.5263,0.454114,0
37.3362,-25.2886,0.453812,0
37.6631,-25.0436,0.453548,0
37.9747,-24.779,0.452064,0
38.2755,-24.5025,0.450101,0
38.5699,-24.2202,0.448196,0
38.8578,-23.9321,0.44637,0
39.1423,-23.6418,0.445003,0
39.4314,-23.3568,0.444964,0
39.7148,-23.0661,0.445032,0
39.9921,-22.7696,0.445208,0
40.2622,-22.4664,0.445355,0
40.5143,-22.148,0.444388,0
40.7601,-21.8251,0.443577,0
40.9994,-21.4977,0.442884,0
41.2323,-21.166,0.442357,0
41.4587,-20.8299,0.441956,0
41.6785,-20.4897,0.441712,0
41.8918,-20.1454,0.441614,0
42.0984,-19.797,0.441644,0
42.2984,-19.4446,0.441829,0
42.4916,-19.0884,0.442152,0
42.6783,-18.7285,0.44264,0
42.8646,-18.3679,0.443851,0
43.0428,-18.0027,0.445081,0
43.2146,-17.6339,0.446487,0
43.3798,-17.2614,0.44806,0
43.5384,-16.8853,0.449808,0
43.6902,-16.5057,0.451732,0
43.8502,-16.127,0.455071,0
44.0228,-15.7492,0.460159,0
44.1895,-15.3666,0.465462,0
44.3502,-14.9791,0.470989,0
44.5048,-14.5868,0.476741,0
44.6482,-14.1889,0.482318,0
44.783,-13.786,0.487943,0
44.9229,-13.38,0.49472,0
45.0561,-12.969,0.501712,0
45.1819,-12.553,0.50888,0
45.2905,-12.1316,0.515462,0
45.3927,-11.7058,0.522308,0
45.5021,-11.2755,0.530521,0
45.6673,-10.8384,0.544027,0
45.7915,-10.3949,0.555071,0
45.9084,-9.94505,0.56639,0
46.0178,-9.48871,0.577991,0
46.1195,-9.02598,0.589886,0
46.2976,-8.54438,0.608802,0
46.5084,-8.04529,0.63139,0
46.7153,-7.53283,0.65472,0
46.8878,-7.01326,0.676331,0
47.0083,-6.4927,0.694808,0
47.4927,-5.86146,0.744407,0
48.0901,-5.16519,0.804935,0
48.7237,-4.41867,0.870325,0
24.104,-28.3329,0.459603,0
24.5118,-28.3908,0.458695,0
24.9205,-28.438,0.457698,0
25.33,-28.4746,0.456634,0
25.7394,-28.5067,0.45598,0
26.1496,-28.5216,0.45473,0
26.5598,-28.5263,0.45345,0
26.9694,-28.5209,0.452142,0
27.3784,-28.5055,0.450794,0
27.7864,-28.48,0.449417,0
28.1939,-28.4574,0.449046,0
28.6008,-28.4287,0.448958,0
29.0069,-28.39,0.448831,0
29.4117,-28.3414,0.448685,0
29.8152,-28.2828,0.448489,0
30.217,-28.2143,0.448284,0
30.6189,-28.1468,0.448909,0
31.0197,-28.0711,0.449652,0
31.4164,-27.9769,0.449642,0
31.8108,-27.8733,0.449652,0
32.2027,-27.7605,0.449652,0
32.5916,-27.6385,0.449652,0
32.9797,-27.5132,0.45015,0
33.368,-27.3873,0.45137,0
33.7534,-27.252,0.452591,0
34.1359,-27.1074,0.453802,0
34.5152,-26.9536,0.454993,0
34.8908,-26.7907,0.456185,0
35.2627,-26.6185,0.457366,0
35.6181,-26.4145,0.456439,0
35.9672,-26.2002,0.455325,0
36.3148,-25.9846,0.454837,0
36.6579,-25.762,0.454466,0
36.9958,-25.5319,0.454114,0
37.3284,-25.2943,0.453812,0
37.6555,-25.0495,0.453558,0
37.9674,-24.7855,0.452122,0
38.2684,-24.5091,0.45014,0
38.563,-24.227,0.448236,0
38.851,-23.939,0.446419,0
39.1354,-23.6485,0.445003,0
39.4246,-23.3636,0.444954,0
39.7081,-23.073,0.445032,0
39.9856,-22.7767,0.445208,0
40.2561,-22.4739,0.445384,0
40.5084,-22.1556,0.444417,0
40.7542,-21.8328,0.443577,0
40.9937,-21.5055,0.442904,0
41.2269,-21.1739,0.442357,0
41.4534,-20.838,0.441966,0
41.6734,-20.4978,0.441722,0
41.8869,-20.1536,0.441614,0
42.0936,-19.8053,0.441644,0
42.2937,-19.453,0.44182,0
42.4871,-19.0969,0.442142,0
42.6735,-18.737,0.442601,0
42.8602,-18.3765,0.443821,0
43.0387,-18.0114,0.445052,0
43.2106,-17.6426,0.446448,0
43.3759,-17.2703,0.44803,0
43.5346,-16.8943,0.449769,0
43.6866,-16.5148,0.451683,0
43.8461,-16.1359,0.454945,0
44.0188,-15.7583,0.460032,0
44.1856,-15.3757,0.465335,0
44.3464,-14.9884,0.470862,0
44.5012,-14.5962,0.476605,0
44.6449,-14.1984,0.482191,0
44.7797,-13.7956,0.487786,0
44.9197,-13.3897,0.494554,0
45.053,-12.9789,0.501546,0
45.1793,-12.563,0.508734,0
45.288,-12.1417,0.515296,0
45.3903,-11.7159,0.522142,0
45.498,-11.2857,0.530208,0
45.6643,-10.8488,0.543753,0
45.7886,-10.4055,0.554798,0
45.9057,-9.95581,0.566116,0
46.0152,-9.49962,0.577718,0
46.1172,-9.03702,0.589603,0
46.2925,-8.5561,0.608284,0
46.5035,-8.05731,0.630853,0
46.7105,-7.54515,0.654144,0
46.8848,-7.0255,0.675892,0
47.0056,-6.50517,0.694359,0
47.4794,-5.87729,0.74306,0
48.0754,-5.18234,0.803431,0
48.7084,-4.43698,0.868714,0
24.0944,-28.3314,0.459632,0
24.502,-28.3895,0.458704,0
24.9108,-28.437,0.457718,0
25.3202,-28.4739,0.456654,0
25.7295,-28.5063,0.456009,0
26.1398,-28.5214,0.454759,0
26.5499,-28.5263,0.45348,0
26.9597,-28.5212,0.452171,0
27.3687,-28.5059,0.450823,0
27.7767,-28.4807,0.449456,0
28.1842,-28.4579,0.449046,0
28.5912,-28.4295,0.448958,0
28.9973,-28.3911,0.448841,0
29.4021,-28.3426,0.448685,0
29.8055,-28.2843,0.448499,0
30.2074,-28.216,0.448294,0
30.6094,-28.1483,0.44888,0
31.0102,-28.0732,0.449652,0
31.407,-27.9792,0.449652,0
31.8016,-27.8759,0.449652,0
32.1934,-27.7633,0.449652,0
32.5824,-27.6415,0.449652,0
32.9704,-27.516,0.450111,0
33.3587,-27.3904,0.451341,0
33.7444,-27.2553,0.452562,0
34.1269,-27.111,0.453763,0
34.5062,-26.9574,0.454974,0
34.882,-26.7946,0.456155,0
35.2539,-26.6227,0.457337,0
35.6098,-26.4194,0.456468,0
35.959,-26.2054,0.455355,0
36.3066,-25.9898,0.454847,0
36.6498,-25.7674,0.454466,0
36.9878,-25.5374,0.454124,0
37.3205,-25.3001,0.453831,0
37.6477,-25.0554,0.453558,0
37.9602,-24.7919,0.452171,0
38.2613,-24.5158,0.450189,0
38.5561,-24.2338,0.448284,0
38.8443,-23.9459,0.446458,0
39.1284,-23.6551,0.445003,0
39.4178,-23.3705,0.444954,0
39.7014,-23.08,0.445023,0
39.9791,-22.7838,0.445198,0
40.2501,-22.4814,0.445413,0
40.5024,-22.1632,0.444437,0
40.7485,-21.8405,0.443607,0
40.9881,-21.5134,0.442923,0
41.2213,-21.1818,0.442376,0
41.448,-20.846,0.441976,0
41.6682,-20.506,0.441722,0
42.7747,-15.8056,0.481263,0
42.9264,-15.4499,0.485618,0
43.072,-15.09,0.49014,0
43.2113,-14.726,0.494857,0
43.3442,-14.3578,0.49973,0
43.4707,-13.9855,0.504788,0
43.597,-13.6101,0.510589,0
43.7216,-13.2311,0.517015,0
43.8398,-12.8476,0.523636,0
43.9476,-12.4594,0.53013,0
44.0434,-12.0669,0.53637,0
44.1317,-11.6704,0.542777,0
44.2205,-11.2702,0.550032,0
44.3328,-10.865,0.56015,0
44.4381,-10.4542,0.570501,0
44.5363,-10.0379,0.581097,0
44.6273,-9.61626,0.591956,0
44.7054,-9.18981,0.602591,0
44.7819,-8.75735,0.613988,0
44.8823,-8.31406,0.62846,0
44.9752,-7.86383,0.643236,0
45.0601,-7.40666,0.658333,0
45.1368,-6.9426,0.673743,0
45.2097,-6.47045,0.689905,0
45.5609,-5.90573,0.732347,0
45.9344,-5.30889,0.778353,0
24.4031,-26.8044,0.448997,0
24.7739,-26.8579,0.448157,0
25.1458,-26.9019,0.447269,0
25.5179,-26.9405,0.446663,0
25.8895,-26.9799,0.446917,0
26.2623,-27.0099,0.447103,0
26.6355,-27.0303,0.447239,0
27.0092,-27.0412,0.447308,0
27.383,-27.0287,0.446116,0
27.7559,-27.0067,0.444857,0
28.1284,-26.9849,0.444398,0
28.5003,-26.9587,0.44431,0
28.8714,-26.9234,0.444193,0
29.2416,-26.879,0.444056,0
29.6103,-26.8256,0.44389,0
29.9777,-26.7632,0.443695,0
30.3431,-26.6917,0.44347,0
30.7096,-26.6245,0.444378,0
31.0747,-26.5486,0.445296,0
31.4379,-26.4636,0.446175,0
31.7991,-26.3696,0.447015,0
32.158,-26.2666,0.447835,0
32.5145,-26.1548,0.448607,0
32.8683,-26.0341,0.449339,0
33.2191,-25.9046,0.450042,0
33.5667,-25.7663,0.450706,0
33.9109,-25.6195,0.451321,0
34.2516,-25.4641,0.451917,0
34.5884,-25.3002,0.452454,0
34.921,-25.1279,0.452962,0
35.2494,-24.9474,0.453431,0
35.5733,-24.7587,0.453861,0
35.8925,-24.562,0.454251,0
36.2067,-24.3573,0.454593,0
36.5159,-24.1449,0.454905,0
36.8196,-23.9247,0.455169,0
37.1184,-23.6976,0.455443,0
37.4217,-23.4756,0.457103,0
37.7202,-23.2463,0.458773,0
38.002,-22.9971,0.458948,0
38.276,-22.7394,0.4589,0
38.5441,-22.4755,0.45888,0
38.8063,-22.2057,0.458909,0
39.0623,-21.9301,0.458968,0
39.3121,-21.6488,0.459075,0
39.5556,-21.3619,0.459212,0
39.797,-21.073,0.459876,0
40.0355,-20.7812,0.46096,0
40.2653,-20.4823,0.461849,0
40.4735,-20.168,0.461195,0
40.6752,-19.8497,0.460657,0
40.8704,-19.5275,0.460228,0
41.0588,-19.2014,0.459905,0
41.2406,-18.8717,0.459691,0
41.428,-18.5446,0.460784,0
41.6148,-18.2164,0.462571,0
41.7955,-17.884,0.464495,0
41.9698,-17.5475,0.466536,0
42.1378,-17.207,0.468724,0
42.2995,-16.8625,0.471038,0
42.4534,-16.5139,0.473392,0
42.6076,-16.1636,0.476497,0
42.771,-15.814,0.481155,0
42.9229,-15.4584,0.485511,0
43.0685,-15.0986,0.490023,0
43.208,-14.7347,0.49473,0
43.3411,-14.3666,0.499612,0
43.4677,-13.9944,0.504661,0
43.5939,-13.6191,0.510443,0
43.7188,-13.2401,0.516859,0
43.837,-12.8567,0.52347,0
43.9452,-12.4687,0.529993,0
44.0412,-12.0762,0.536214,0
44.1298,-11.6799,0.54262,0
44.2178,-11.2797,0.549798,0
44.3302,-10.8746,0.559905,0
44.4357,-10.464,0.570257,0
44.5341,-10.0479,0.580853,0
44.6252,-9.62633,0.591693,0
44.7038,-9.19998,0.602347,0
44.7794,-8.76778,0.613636,0
44.88,-8.32467,0.628109,0
44.973,-7.87459,0.642874,0
45.0582,-7.4176,0.657972,0
45.1351,-6.95369,0.673372,0
45.2078,-6.48179,0.689505,0
45.552,-5.91957,0.731273,0
45.9255,-5.32337,0.777239,0
24.3943,-26.8029,0.449017,0
24.7651,-26.8568,0.448187,0
25.1369,-26.901,0.447288,0
25.5091,-26.9394,0.446654,0
25.8807,-26.9791,0.446917,0
26.2534,-27.0093,0.447103,0
26.6267,-27.0299,0.44723,0
27.0004,-27.0411,0.447298,0
27.3741,-27.0291,0.446146,0
27.7471,-27.0073,0.444886,0
28.1195,-26.9854,0.444398,0
28.4915,-26.9594,0.44431,0
28.8627,-26.9244,0.444202,0
29.2327,-26.8802,0.444066,0
29.6016,-26.827,0.4439,0
29.9689,-26.7647,0.443695,0
30.3345,-26.6935,0.44347,0
30.7009,-26.6262,0.444359,0
31.066,-26.5505,0.445267,0
31.4293,-26.4657,0.446155,0
31.7906,-26.3719,0.446995,0
32.1496,-26.2692,0.447816,0
32.5061,-26.1576,0.448587,0
32.8599,-26.0371,0.449329,0
33.2109,-25.9078,0.450023,0
33.5586,-25.7697,0.450677,0
33.9028,-25.6231,0.451312,0
34.2435,-25.4679,0.451898,0
34.5803,-25.3042,0.452445,0
34.9131,-25.1321,0.452962,0
35.2416,-24.9518,0.453421,0
35.5656,-24.7633,0.453861,0
35.8849,-24.5667,0.454241,0
36.1993,-24.3623,0.454583,0
36.5086,-24.15,0.454896,0
36.8125,-23.9301,0.455159,0
37.111,-23.7028,0.455404,0
37.4145,-23.481,0.457064,0
37.7132,-23.2519,0.458734,0
37.9954,-23.0031,0.458948,0
38.2695,-22.7455,0.4589,0
38.5379,-22.4819,0.45889,0
38.8002,-22.2122,0.458909,0
39.0563,-21.9367,0.458968,0
39.3062,-21.6555,0.459066,0
39.5498,-21.3687,0.459212,0
39.7912,-21.0798,0.459847,0
