58.4247,-36.0749,-0.860358,0
31.3445,-49.5552,0.387835,0
31.612,-49.9727,0.383182,0
31.8798,-50.4024,0.379442,0
32.1566,-50.8343,0.375731,0
32.4655,-51.2341,0.36929,0
32.7854,-51.6301,0.362547,0
33.1309,-51.9981,0.353665,0
39.2087,-42.3696,-0.391455,174
41.8464,-37.9903,-0.722173,174
41.9793,-37.9779,-0.730844,174
39.8254,-42.672,-0.417892,174
39.7452,-43.397,-0.384582,174
35.3505,-54.2384,0.304515,0
35.7711,-54.5618,0.293372,0
36.1999,-54.8819,0.28221,0
36.6371,-55.1987,0.271053,0
37.0827,-55.5121,0.259896,0
37.537,-55.8219,0.248719,0
38.0117,-56.0858,0.235159,0
38.4983,-56.3266,0.220604,0
38.9914,-56.562,0.206112,0
39.4873,-56.8112,0.192698,0
39.983,-57.0995,0.181619,0
40.4935,-57.3496,0.168787,0
41.0175,-57.5569,0.154114,0
41.5519,-57.727,0.137977,0
42.0919,-57.8897,0.121907,0
42.6376,-58.0448,0.105911,0
43.2799,-55.9866,-0.01098,174
43.7904,-55.9307,-0.0336351,174
44.282,-52.2967,-0.213037,174
44.8786,-58.5871,0.0425813,0
45.4532,-58.6956,0.0266438,0
45.4336,-50.577,-0.330535,174
45.8081,-50.4317,-0.349573,174
46.1802,-50.3078,-0.36715,174
46.5759,-50.3756,-0.376638,174
47.1525,-51.5028,-0.345003,174
47.5977,-51.6384,-0.352116,174
49.4918,-58.5374,-0.10736,0
50.0582,-58.4139,-0.127922,0
48.6365,-50.6675,-0.421821,174
50.8859,-57.0899,-0.205163,0
51.2566,-56.4108,-0.242487,0
51.6113,-55.7609,-0.277595,0
51.9744,-55.2017,-0.308483,0
52.322,-54.6538,-0.33801,0
52.6489,-54.1018,-0.366681,0
52.9379,-53.5068,-0.395803,0
53.0502,-52.5805,-0.43446,0
53.1552,-51.7206,-0.469841,0
53.2495,-50.9114,-0.502536,0
51.7862,-47.3535,-0.617604,174
51.9896,-46.9945,-0.63374,174
53.6292,-48.9883,-0.579748,0
53.7427,-48.4085,-0.602092,0
53.8966,-47.9229,-0.621008,0
54.0427,-47.4508,-0.638913,0
52.1998,-44.3448,-0.730753,174
52.4777,-44.2061,-0.737454,174
53.0649,-44.4391,-0.733494,174
53.4705,-44.4226,-0.736245,174
53.7303,-44.2272,-0.743605,174
54.014,-44.0553,-0.749957,174
54.9536,-44.5427,-0.738093,0
55.0773,-44.1773,-0.749011,0
54.1275,-42.8301,-0.785965,174
55.3181,-43.4701,-0.768991,0
55.4579,-43.1459,-0.777599,0
55.5912,-42.8225,-0.785788,0
55.7188,-42.5003,-0.793581,0
55.3841,-41.8452,-0.810061,174
55.1889,-41.3239,-0.822666,174
55.3378,-41.0561,-0.828018,174
56.189,-41.2335,-0.820563,0
55.2681,-40.3035,-0.843889,174
55.5013,-40.0978,-0.846524,174
56.5883,-40.3478,-0.8353,0
56.3884,-39.8853,-0.844549,174
56.62,-39.6507,-0.846655,174
56.9908,-39.474,-0.846471,0
56.7803,-39.0357,-0.854333,174
56.8301,-38.7197,-0.858004,174
57.3639,-38.5885,-0.854743,0
57.4902,-38.2932,-0.856735,0
32.5382,-48.5509,0.407488,0
32.7934,-48.931,0.403831,0
33.0686,-49.295,0.398641,0
33.3537,-49.6554,0.393177,0
33.6467,-50.015,0.387713,0
33.9479,-50.3737,0.38221,0
41.6311,-38.0667,-0.669113,174
41.8452,-37.9198,-0.689803,174
41.9629,-37.9345,-0.696849,174
42.0539,-37.999,-0.699781,174
39.9043,-42.8752,-0.341597,174
39.8056,-43.6783,-0.298377,174
36.3884,-52.6404,0.327796,0
36.7773,-52.9336,0.318543,0
37.1739,-53.2234,0.30928,0
37.5804,-53.5036,0.299627,0
37.9987,-53.7666,0.2891,0
38.4263,-54.0179,0.278128,0
38.8609,-54.2645,0.267176,0
39.3049,-54.4978,0.255716,0
39.7595,-54.7081,0.243201,0
40.2203,-54.9126,0.23075,0
40.6933,-55.0755,0.216253,0
41.1692,-55.2444,0.202562,0
41.6493,-55.4184,0.189603,0
42.1353,-55.5855,0.176683,0
42.6273,-55.7456,0.163802,0
43.2973,-52.3356,-0.0387121,174
43.6403,-55.6148,0.11575,174
44.1499,-52.2046,-0.0791412,174
44.575,-52.3136,-0.0895092,174
45.1687,-56.2209,0.089466,0
45.3141,-50.5953,-0.203957,174
45.6913,-50.4689,-0.223098,174
46.0647,-50.3466,-0.241402,174
46.4501,-50.341,-0.253628,174
46.9871,-51.28,-0.221927,174
47.4008,-51.2827,-0.233536,174
48.6566,-55.3689,-0.0620574,0
49.104,-55.0604,-0.0890301,0
49.5399,-54.7436,-0.115475,0
48.8513,-50.4112,-0.313525,174
47.8321,-45.6719,-0.523641,174
50.6842,-53.4631,-0.203464,0
50.961,-52.8206,-0.23986,0
51.2184,-52.1927,-0.274582,0
51.4973,-51.6783,-0.303683,0
51.763,-51.1762,-0.331413,0
52.0009,-50.6524,-0.359147,0
52.2038,-50.0958,-0.387355,0
52.3944,-49.5564,-0.414079,0
52.5735,-49.0333,-0.439391,0
51.8238,-46.9278,-0.524607,174
52.1222,-46.7474,-0.535026,174
53.0374,-47.5355,-0.508381,0
53.1843,-47.081,-0.528395,0
53.3234,-46.6388,-0.547375,0
52.1802,-44.4795,-0.629788,174
52.3385,-44.1834,-0.642054,174
52.6566,-44.0945,-0.646217,174
53.4249,-44.5267,-0.63069,174
53.6574,-44.2993,-0.639194,174
53.9327,-44.1191,-0.645523,174
54.2871,-44.0163,-0.648571,0
54.4028,-43.6683,-0.660265,0
54.095,-42.9334,-0.686028,174
54.2704,-42.6756,-0.693644,174
54.7948,-42.7188,-0.689479,0
54.9224,-42.413,-0.698053,0
55.0459,-42.1093,-0.706169,0
55.1675,-41.8093,-0.713786,0
55.1446,-41.4115,-0.724909,174
55.2158,-41.0908,-0.732724,174
55.5185,-40.9253,-0.733874,0
55.239,-40.3957,-0.749739,174
55.3787,-40.136,-0.754133,174
55.9279,-40.1019,-0.7482,0
56.0501,-39.8217,-0.752477,0
56.1691,-39.5411,-0.756393,0
56.2851,-39.2599,-0.759977,0
56.398,-38.978,-0.76321,0
56.508,-38.6954,-0.7661,0
56.6228,-38.4148,-0.768483,0
56.746,-38.1369,-0.7703,0
56.8668,-37.8572,-0.771794,0
56.9852,-37.5754,-0.772936,0
57.1012,-37.2915,-0.773737,0
57.215,-37.0054,-0.774206,0
57.3265,-36.717,-0.774333,0
57.4356,-36.4261,-0.774118,0
57.5432,-36.1326,-0.773532,0
32.4502,-48.4269,0.409163,0
32.7073,-48.8009,0.40493,0
32.9739,-49.1728,0.400482,0
33.2563,-49.5335,0.395028,0
33.5466,-49.8934,0.389564,0
33.8451,-50.2525,0.384075,0
41.5506,-38.1252,-0.661154,174
41.7808,-37.9577,-0.683865,174
41.9237,-37.9288,-0.694552,174
42.0296,-37.9642,-0.699805,174
39.8749,-42.754,-0.345315,174
39.8053,-43.4723,-0.307914,174
36.2585,-52.5403,0.330921,0
36.6448,-52.8348,0.321663,0
37.0389,-53.1257,0.31241,0
37.4414,-53.4108,0.302996,0
37.8555,-53.6804,0.292821,0
38.2808,-53.9334,0.281839,0
38.713,-54.1816,0.270872,0
39.1526,-54.425,0.259925,0
39.605,-54.6375,0.247435,0
40.0637,-54.8441,0.234959,0
40.5327,-55.0216,0.22117,0
41.0082,-55.184,0.206956,0
41.4862,-55.3603,0.193983,0
41.9702,-55.5297,0.181048,0
42.4602,-55.6922,0.168153,0
43.1084,-53.1296,0.00974892,174
43.4701,-55.6353,0.123566,174
44.0027,-52.6103,-0.0526511,174
44.4301,-52.2391,-0.0879559,174
44.9933,-56.1882,0.0940705,0
45.1859,-50.6454,-0.196965,174
45.5641,-50.5106,-0.216747,174
45.9387,-50.3879,-0.235286,174
46.3164,-50.3191,-0.250661,174
46.766,-50.7349,-0.243082,174
47.2589,-51.2729,-0.230063,174
47.7337,-51.5742,-0.227949,174
48.9539,-55.1658,-0.0799627,0
49.3937,-54.8517,-0.106589,0
48.7169,-50.4278,-0.309638,174
47.719,-45.6306,-0.523229,174
50.5702,-53.6345,-0.192824,0
50.8741,-53.0493,-0.227204,0
51.125,-52.3809,-0.263952,0
51.4044,-51.851,-0.294001,0
51.6745,-51.3448,-0.322179,0
51.9294,-50.8449,-0.349255,0
52.1366,-50.2821,-0.37799,0
52.3312,-49.737,-0.405197,0
52.5141,-49.2085,-0.430973,0
51.7518,-47.0402,-0.519,174
52.0071,-46.7845,-0.532463,174
52.9859,-47.6922,-0.501359,0
53.1355,-47.2334,-0.521745,0
53.2772,-46.7871,-0.541066,0
53.4112,-46.3525,-0.559391,0
52.2539,-44.2417,-0.639512,174
52.5267,-44.0977,-0.645848,174
53.4165,-44.688,-0.62459,174
53.5606,-44.3554,-0.637137,174
53.8393,-44.1802,-0.643425,174
54.1196,-44.0027,-0.649369,174
54.3642,-43.7854,-0.656379,0
54.4791,-43.4434,-0.667594,0
54.1932,-42.7463,-0.691734,174
54.7506,-42.8228,-0.686471,0
54.8797,-42.5162,-0.695202,0
55.0046,-42.2118,-0.703473,0
55.1268,-41.9105,-0.711257,0
55.2009,-41.5794,-0.719844,174
55.1625,-41.1785,-0.730951,174
55.4681,-41.0163,-0.732094,174
55.295,-40.5478,-0.745484,174
55.3073,-40.2096,-0.7533,174
55.8845,-40.1958,-0.746706,0
56.0091,-39.9165,-0.751071,0
56.1291,-39.6361,-0.755104,0
56.2462,-39.3551,-0.758805,0
56.3602,-39.0734,-0.762155,0
56.4712,-38.7911,-0.765163,0
56.5806,-38.5084,-0.7678,0
56.7047,-38.2312,-0.769723,0
56.8262,-37.952,-0.771325,0
56.9454,-37.671,-0.772585,0
57.0623,-37.3878,-0.773503,0
57.1768,-37.1025,-0.774089,0
57.289,-36.8148,-0.774333,0
57.399,-36.5248,-0.774235,0
57.5066,-36.2321,-0.773776,0
57.6239,-35.9388,-0.772751,0
32.3735,-48.2897,0.409554,0
32.622,-48.6709,0.406038,0
32.8802,-49.0506,0.402327,0
33.1598,-49.4116,0.396878,0
33.4475,-49.7717,0.391414,0
33.7431,-50.1311,0.385936,0
38.8132,-42.5866,-0.28328,174
41.7055,-38.0126,-0.676452,174
41.8843,-37.9231,-0.692227,174
42.0002,-37.9398,-0.699017,174
42.0712,-38.0452,-0.698782,174
39.8918,-43.083,-0.331261,174
39.7864,-43.9276,-0.285595,174
36.5133,-52.7356,0.324803,0
36.9047,-53.0277,0.31554,0
37.3038,-53.3162,0.306282,0
37.7139,-53.5919,0.296409,0
38.1361,-53.8484,0.285555,0
38.566,-54.0982,0.274578,0
39.0031,-54.3432,0.263626,0
39.4512,-54.5664,0.251668,0
39.9078,-54.7748,0.239168,0
40.3725,-54.9668,0.226102,0
40.8473,-55.1263,0.211556,0
42.3861,-47.3032,-0.25674,174
41.8057,-55.4732,0.185423,0
42.2937,-55.638,0.172518,0
42.7881,-55.7873,0.159193,0
43.2978,-55.6972,0.133662,174
43.8025,-55.6004,0.108635,174
44.2867,-52.2085,-0.0841354,174
44.8184,-56.1557,0.0987434,0
45.3348,-56.2099,0.0830353,0
45.4364,-50.5524,-0.210314,174
45.8124,-50.4292,-0.229091,174
46.1846,-50.3073,-0.247174,174
46.5916,-50.4549,-0.252109,174
47.1193,-51.2736,-0.226064,174
47.5369,-51.292,-0.236813,174
48.8025,-55.2701,-0.0708416,0
49.2463,-54.9589,-0.0976434,0
48.6035,-50.5235,-0.302274,174
47.6307,-45.6717,-0.51927,174
50.4544,-53.8069,-0.182038,0
50.7848,-53.2806,-0.214304,0
51.0422,-52.6045,-0.251745,0
51.3101,-52.025,-0.284152,0
51.5845,-51.5147,-0.31279,0
51.8461,-51.0163,-0.340099,0
52.0679,-50.4705,-0.368434,0
52.2666,-49.9195,-0.396159,0
52.4535,-49.3855,-0.422414,0
51.6953,-47.1827,-0.512175,174
51.9005,-46.8355,-0.529324,174
52.9334,-47.8503,-0.494211,0
53.0859,-47.3872,-0.514972,0
53.2302,-46.9368,-0.53464,0
53.3666,-46.4983,-0.553303,0
52.1937,-44.3323,-0.635718,174
52.4245,-44.1342,-0.644201,174
52.875,-44.2043,-0.642346,174
53.4809,-44.4308,-0.634316,174
53.7462,-44.2412,-0.641282,174
54.0225,-44.0609,-0.647476,174
54.3251,-43.9032,-0.652419,0
54.4391,-43.5569,-0.663923,0
54.1248,-42.8249,-0.689477,174
54.7059,-42.9271,-0.683415,0
54.8366,-42.6196,-0.692302,0
54.9628,-42.3146,-0.70072,0
55.0855,-42.012,-0.708688,0
55.206,-41.7127,-0.716159,0
55.144,-41.2906,-0.72816,174
55.3221,-41.0439,-0.732877,174
55.5641,-40.8369,-0.735563,0
55.2426,-40.2867,-0.752262,174
55.4989,-40.0949,-0.753612,174
55.9677,-40.0113,-0.749626,0
56.0889,-39.731,-0.753776,0
56.2069,-39.4502,-0.757585,0
56.322,-39.1688,-0.761061,0
56.4339,-38.8867,-0.764177,0
56.543,-38.6038,-0.76696,0
56.663,-38.3252,-0.769108,0
56.7853,-38.0467,-0.770817,0
33.4987,-47.3308,0.414007,0
33.7279,-47.6866,0.412318,0
33.974,-48.0304,0.409368,0
34.2279,-48.3736,0.406385,0
34.5016,-48.6981,0.401663,0
41.4816,-38.0902,-0.620584,174
41.6987,-37.9532,-0.642839,174
41.8686,-37.88,-0.658424,174
41.9839,-37.897,-0.665494,174
42.0691,-37.9711,-0.667425,174
39.924,-42.8393,-0.271671,174
39.8475,-43.5899,-0.227116,174
37.0346,-51.0831,0.351209,0
37.3951,-51.3433,0.34285,0
37.7623,-51.5996,0.334505,0
38.1455,-51.8254,0.324173,0
38.5348,-52.0457,0.313846,0
38.9292,-52.2634,0.303714,0
39.3245,-52.4961,0.295032,0
39.727,-52.7239,0.286341,0
40.1366,-52.9464,0.27764,0
42.1633,-44.5477,-0.306223,174
40.9918,-53.285,0.25429,0
41.4297,-53.4282,0.241624,0
42.6278,-47.0982,-0.180979,174
42.3202,-53.6791,0.21556,0
42.7708,-53.806,0.203397,0
43.31,-52.1784,0.0857449,174
43.7246,-52.5009,0.0878233,174
44.1551,-52.1729,0.0518562,174
44.5804,-52.3304,0.0451209,174
44.9426,-50.8537,-0.0542937,174
45.3195,-50.608,-0.0816661,174
45.3585,-46.6817,-0.31196,174
46.0691,-50.3461,-0.121163,174
46.4585,-50.3699,-0.131507,174
46.9448,-50.9832,-0.109975,174
47.37,-51.0871,-0.115556,174
48.1625,-52.9374,-0.0298846,0
48.5559,-52.6468,-0.0560076,0
48.5125,-50.6693,-0.167137,174
48.8482,-50.3838,-0.190405,174
47.8182,-45.6155,-0.436588,174
47.9749,-45.1796,-0.463692,174
50.3331,-51.0279,-0.182209,0
50.5916,-50.5256,-0.213688,0
50.8273,-50.0131,-0.244772,0
51.05,-49.5149,-0.274318,0
51.2605,-49.0303,-0.302404,0
51.4592,-48.5585,-0.329118,0
51.6628,-48.1293,-0.353112,0
51.6022,-47.2428,-0.397788,174
51.7779,-46.8414,-0.419077,174
51.991,-46.5245,-0.435847,174
52.4124,-46.5482,-0.43633,0
52.5786,-46.1706,-0.45487,0
52.7318,-45.7921,-0.472902,0
52.1766,-44.4703,-0.533969,174
52.306,-44.1373,-0.54895,174
52.584,-44.0011,-0.554395,174
53.319,-44.3981,-0.53465,0
53.4505,-44.0629,-0.548337,0
53.5764,-43.7327,-0.561374,0
53.7021,-43.4125,-0.573547,0
53.8445,-43.1176,-0.584113,0
53.9822,-42.8248,-0.594186,0
54.1155,-42.5342,-0.603766,0
54.2444,-42.2456,-0.612868,0
54.3691,-41.9588,-0.621511,0
54.4898,-41.6738,-0.629694,0
54.6041,-41.3885,-0.637536,0
54.7102,-41.1019,-0.645095,0
54.8295,-40.8284,-0.651618,0
54.9545,-40.5615,-0.657419,0
55.077,-40.2952,-0.662819,0
55.2002,-40.0311,-0.667721,0
55.3202,-39.7666,-0.672253,0
55.437,-39.5016,-0.676442,0
55.5507,-39.236,-0.68027,0
55.6614,-38.9697,-0.683747,0
55.7691,-38.7027,-0.686891,0
55.8797,-38.4373,-0.689509,0
55.9983,-38.1749,-0.691462,0
56.1143,-37.9107,-0.693093,0
56.2279,-37.6448,-0.694372,0
56.3391,-37.3769,-0.6953,0
56.4462,-37.1066,-0.695934,0
56.545,-36.8327,-0.696403,0
56.6409,-36.5569,-0.69652,0
56.7341,-36.2791,-0.696286,0
56.8288,-36,-0.695593,0
33.4245,-47.2087,0.414393,0
33.6469,-47.5697,0.413255,0
33.8898,-47.9141,0.410369,0
34.1411,-48.2575,0.407401,0
34.4076,-48.5892,0.403338,0
41.397,-38.1501,-0.611543,174
41.6274,-37.9982,-0.635552,174
41.8181,-37.894,-0.654194,174
41.9451,-37.8913,-0.663132,174
42.0449,-37.9366,-0.667583,174
42.1009,-38.0736,-0.664207,174
39.8293,-43.4257,-0.234636,174
39.8653,-43.9701,-0.208001,174
37.2723,-51.2557,0.345682,0
37.6373,-51.5133,0.337327,0
38.0152,-51.7496,0.327679,0
38.4023,-51.9717,0.317337,0
38.7955,-52.1885,0.307005,0
39.19,-52.4179,0.297972,0
39.59,-52.6474,0.28928,0
39.9971,-52.8717,0.280584,0
42.0954,-44.4493,-0.308457,174
40.8453,-53.2318,0.258377,0
41.2807,-53.383,0.246063,0
42.5144,-47.1637,-0.171969,174
42.1684,-53.6386,0.219945,0
42.6175,-53.7681,0.207767,0
43.1658,-52.1958,0.0927402,174
43.5322,-53.9288,0.179012,0
44.0124,-52.1618,0.0566949,174
44.3921,-48.8592,-0.151,174
44.9255,-54.1136,0.136873,0
45.1907,-50.6503,-0.0748123,174
45.5688,-50.5125,-0.0955456,174
45.9432,-50.3873,-0.114849,174
46.3223,-50.33,-0.129788,174
46.7813,-50.8058,-0.115616,174
47.2334,-51.0992,-0.111213,174
47.7209,-51.4853,-0.101823,174
48.424,-52.7456,-0.0472527,0
48.8106,-52.4524,-0.0729314,0
48.7118,-50.3922,-0.187079,174
47.7153,-45.6071,-0.435049,174
47.8929,-45.2301,-0.459413,174
50.2362,-51.1826,-0.172096,0
50.5087,-50.7023,-0.202809,0
50.749,-50.1849,-0.23443,0
50.9761,-49.682,-0.264484,0
51.1906,-49.1928,-0.293063,0
51.3933,-48.7167,-0.320236,0
51.5927,-48.2686,-0.345348,0
51.7968,-47.8595,-0.367941,0
51.6967,-46.9359,-0.41387,174
51.9213,-46.6341,-0.430124,174
52.2019,-46.4341,-0.44112,174
52.5233,-46.2976,-0.448688,0
52.6754,-45.9116,-0.467253,0
52.8361,-45.5551,-0.483942,0
52.2425,-44.2225,-0.545198,174
52.4738,-44.0275,-0.553515,174
52.9784,-44.16,-0.546196,174
53.4066,-44.1758,-0.543776,0
53.5345,-43.8439,-0.557033,0
53.6567,-43.5168,-0.569655,0
53.7969,-43.2171,-0.580597,0
53.9361,-42.9236,-0.590837,0
54.0709,-42.6324,-0.600573,0
54.2012,-42.3431,-0.609841,0
54.3274,-42.0557,-0.61863,0
54.4494,-41.77,-0.626979,0
54.5673,-41.4859,-0.63488,0
54.6748,-41.1987,-0.642595,0
54.7863,-40.9187,-0.649567,0
54.9126,-40.6518,-0.655505,0
55.0355,-40.385,-0.661052,0
55.1588,-40.1205,-0.6661,0
55.2799,-39.8561,-0.670768,0
55.3978,-39.5913,-0.675065,0
55.5127,-39.3259,-0.67902,0
55.6243,-39.0599,-0.682614,0
55.733,-38.7932,-0.685866,0
55.839,-38.5257,-0.688766,0
55.9584,-38.2638,-0.690837,0
56.0753,-38.0003,-0.692575,0
56.1898,-37.735,-0.693971,0
56.3017,-37.4678,-0.695026,0
56.4112,-37.1986,-0.695739,0
56.5119,-36.9256,-0.696286,0
56.6087,-36.6505,-0.696511,0
56.7028,-36.3734,-0.696403,0
56.7943,-36.0942,-0.695934,0
56.9002,-35.8158,-0.694675,0
33.3509,-47.0868,0.414779,0
33.5707,-47.4475,0.413641,0
33.8066,-47.7978,0.411361,0
34.0552,-48.1414,0.408402,0
34.3145,-48.4802,0.405008,0
34.592,-48.802,0.400057,0
41.554,-38.0445,-0.628025,174
41.7637,-37.9134,-0.649405,174
41.9061,-37.8855,-0.660739,174
42.0204,-37.9033,-0.667646,174
42.0905,-38.0085,-0.66691,174
39.9273,-43.0119,-0.262825,174
39.8614,-43.7605,-0.218932,174
37.1503,-51.1676,0.348504,0
37.513,-51.4266,0.340154,0
37.8855,-51.6733,0.331175,0
38.2707,-51.8972,0.320833,0
38.6619,-52.1157,0.310501,0
39.0562,-52.3391,0.300906,0
39.4539,-52.5703,0.292225,0
39.8585,-52.7964,0.283529,0
40.2713,-53.013,0.274539,0
40.6993,-53.1777,0.262464,0
41.1324,-53.335,0.250389,0
42.3959,-47.2586,-0.160977,174
42.017,-53.5973,0.224349,0
42.4653,-53.7218,0.211673,0
42.9679,-53.0507,0.150967,174
43.4421,-52.2943,0.087111,174
43.87,-52.1413,0.0610497,174
44.2917,-52.2036,0.0484575,174
44.767,-54.0916,0.141307,0
45.0631,-50.7258,-0.0659914,174
45.4416,-50.5612,-0.0884953,174
45.4599,-46.7288,-0.312466,174
46.1893,-50.3091,-0.126992,174
46.6076,-50.5349,-0.126301,174
47.1003,-51.1306,-0.105779,174
47.5151,-51.1517,-0.115647,174
48.2908,-52.8439,-0.03841,0
48.6809,-52.5521,-0.0643182,0
48.5945,-50.4719,-0.180081,174
47.6208,-45.626,-0.432102,174
47.8707,-45.4743,-0.445444,174
50.1378,-51.3384,-0.161833,0
50.4243,-50.8808,-0.19174,0
50.6692,-50.3583,-0.223918,0
50.9007,-49.8506,-0.254484,0
51.1194,-49.3568,-0.283552,0
51.3259,-48.8764,-0.311183,0
51.5214,-48.4089,-0.337463,0
51.7288,-47.997,-0.360412,0
51.6487,-47.0917,-0.405733,174
51.8588,-46.7578,-0.423683,174
52.092,-46.4772,-0.438597,174
52.467,-46.4254,-0.442414,0
52.6256,-46.0426,-0.461012,0
52.7831,-45.676,-0.478342,0
52.1908,-44.3243,-0.540633,174
52.372,-44.0633,-0.552145,174
52.7353,-44.0306,-0.552648,174
53.3621,-44.2892,-0.539142,0
53.4918,-43.9557,-0.552619,0
53.6159,-43.6269,-0.565466,0
53.7487,-43.3169,-0.577009,0
53.8895,-43.0227,-0.587429,0
54.0258,-42.7307,-0.597341,0
54.1576,-42.4407,-0.606755,0
54.2852,-42.1527,-0.61571,0
54.4085,-41.8665,-0.624206,0
54.528,-41.5819,-0.632253,0
54.6389,-41.2956,-0.640026,0
54.7437,-41.0096,-0.647448,0
54.8702,-40.7421,-0.653542,0
54.9942,-40.4753,-0.659216,0
55.1171,-40.2099,-0.66444,0
55.2393,-39.9457,-0.669216,0
55.3583,-39.681,-0.673649,0
55.4741,-39.4158,-0.677721,0
55.5869,-39.15,-0.681432,0
55.6966,-38.8835,-0.684802,0
55.8033,-38.6162,-0.687829,0
55.9183,-38.3526,-0.690173,0
56.036,-38.0896,-0.692028,0
56.1513,-37.8249,-0.693542,0
34.3295,-46.2755,0.417337,0
34.5437,-46.6002,0.416321,0
34.7744,-46.9122,0.413904,0
35.0141,-47.2206,0.411199,0
41.3127,-38.1356,-0.567738,174
41.5421,-37.9939,-0.593033,174
41.7389,-37.8865,-0.613778,174
41.8905,-37.843,-0.627397,174
42.0046,-37.8601,-0.634659,174
42.0841,-37.9436,-0.635456,174
39.9397,-42.8118,-0.201492,174
39.8715,-43.5423,-0.153544,174
37.6135,-49.687,0.364642,0
37.949,-49.9164,0.35681,0
38.2965,-50.1247,0.347586,0
38.6455,-50.3396,0.339315,0
38.9981,-50.5574,0.331668,0
39.3572,-50.7699,0.323973,0
39.7252,-50.9673,0.315482,0
40.1005,-51.1523,0.306458,0
40.484,-51.3204,0.296595,0
42.1909,-44.4167,-0.236468,174
41.2711,-51.6069,0.274647,0
42.2749,-47.4211,-0.0460426,174
42.636,-47.0599,-0.0866478,174
42.4843,-51.9841,0.24182,0
42.9002,-52.0508,0.227874,0
43.3208,-52.0573,0.210487,0
43.7409,-52.0555,0.193245,0
44.1603,-52.072,0.177933,0
44.5121,-48.7911,-0.050759,174
44.9466,-50.8383,0.0681005,174
45.3249,-50.6208,0.0409104,174
45.3489,-46.5344,-0.227452,174
46.0735,-50.3456,-0.00083168,174
46.4733,-50.4458,-0.00599297,174
46.9102,-50.7363,0.000793991,174
47.3541,-50.9743,0.00464645,174
47.6639,-50.4901,-0.0340789,174
48.1645,-50.9208,-0.0179168,0
48.4869,-50.5505,-0.0482991,174
47.5334,-45.6421,-0.340209,174
47.7747,-45.4612,-0.355914,174
47.9648,-45.1392,-0.379116,174
49.7103,-49.2522,-0.150715,0
49.9856,-48.9158,-0.174997,0
50.2307,-48.5308,-0.201257,0
50.4579,-48.1353,-0.22736,0
50.6786,-47.7551,-0.251887,0
50.8885,-47.3791,-0.275505,0
51.0889,-47.0093,-0.298132,0
51.2803,-46.6455,-0.319797,0
51.463,-46.2874,-0.340549,0
51.6379,-45.9356,-0.360397,0
51.8266,-45.6234,-0.377521,0
52.0084,-45.3142,-0.393967,0
52.1836,-45.0077,-0.409748,0
52.1799,-44.4705,-0.437718,174
52.2822,-44.1026,-0.455977,174
52.4907,-43.8821,-0.465636,174
52.4112,-43.3254,-0.493589,174
52.9281,-43.472,-0.481823,0
53.076,-43.1919,-0.493425,0
53.2194,-42.9139,-0.504489,0
53.356,-42.6356,-0.515173,0
53.4855,-42.3567,-0.525505,0
53.6104,-42.0796,-0.535339,0
53.7309,-41.8042,-0.544704,0
53.847,-41.5305,-0.5536,0
53.9591,-41.2583,-0.562048,0
54.0681,-40.9883,-0.570007,0
54.1955,-40.7355,-0.57652,0
54.3195,-40.4826,-0.582634,0
54.4402,-40.2298,-0.588376,0
54.5575,-39.9768,-0.593737,0
54.6716,-39.7235,-0.598727,0
54.7827,-39.4701,-0.603346,0
54.8906,-39.2162,-0.607604,0
54.9954,-38.962,-0.611501,0
55.0987,-38.708,-0.614987,0
55.206,-38.4563,-0.617858,0
55.3184,-38.2068,-0.620095,0
55.4249,-37.9547,-0.622087,0
55.5286,-37.701,-0.623766,0
55.6295,-37.4458,-0.625104,0
55.7276,-37.1891,-0.626091,0
55.8228,-36.9306,-0.626735,0
55.9153,-36.6705,-0.627057,0
56.0051,-36.4085,-0.627018,0
56.092,-36.1447,-0.626637,0
56.1881,-35.8811,-0.625505,0
34.2586,-46.1656,0.417694,0
34.4703,-46.4904,0.416668,0
34.6948,-46.8076,0.414813,0
34.9321,-47.1164,0.412113,0
35.1766,-47.424,0.409393,0
41.4669,-38.0405,-0.584752,174
41.683,-37.9068,-0.60847,174
41.8446,-37.8493,-0.623677,174
41.9662,-37.8544,-0.632233,174
42.06,-37.9094,-0.635745,174
42.1199,-38.0365,-0.632513,174
39.853,-43.3794,-0.161991,174
39.9092,-43.8734,-0.13623,174
37.8327,-49.8446,0.35992,0
38.1783,-50.0548,0.350711,0
38.5277,-50.2647,0.341888,0
38.8781,-50.4843,0.334261,0
39.235,-50.6986,0.326585,0
39.599,-50.9049,0.31866,0
39.9737,-51.0872,0.309271,0
40.3526,-51.2693,0.300311,0
42.1153,-44.3633,-0.236003,174
41.1366,-51.5604,0.278348,0
41.5354,-51.6956,0.267396,0
42.5226,-47.1283,-0.0768834,174
42.3455,-51.9448,0.245521,0
42.7579,-52.0466,0.233792,0
43.1785,-52.0561,0.216346,0
43.5987,-52.057,0.199066,0
44.0184,-52.0513,0.182034,0
44.3945,-48.7243,-0.0508093,174
44.822,-51.0642,0.0873251,174
45.1961,-50.6636,0.0480478,174
45.2453,-46.4902,-0.227028,174
45.5586,-46.6655,-0.225415,174
46.3299,-50.3541,-0.00784351,174
46.7704,-50.7031,0.00242817,174
47.1964,-50.8601,0.00128521,174
47.5369,-50.531,-0.0284204,174
48.0439,-51.0076,-0.00968925,0
48.3879,-50.7109,-0.0360906,0
48.7117,-50.3753,-0.0638885,0
47.7123,-45.586,-0.347004,174
47.8774,-45.1718,-0.375701,174
49.6147,-49.366,-0.142321,0
49.8937,-49.0296,-0.166872,0
50.1555,-48.6769,-0.191569,0
50.3805,-48.2644,-0.218879,0
50.6054,-47.8838,-0.243664,0
50.8185,-47.5056,-0.267629,0
51.0221,-47.1338,-0.290578,0
51.2166,-46.768,-0.31257,0
51.4022,-46.408,-0.33363,0
51.5794,-46.0536,-0.353796,0
51.7635,-45.7287,-0.371808,0
51.9477,-45.4185,-0.388478,0
50.3805,-42.59,-0.542859,174
52.2959,-44.8064,-0.419836,0
52.235,-44.2086,-0.450866,174
52.3912,-43.9201,-0.464449,174
52.753,-43.8866,-0.46341,0
52.8848,-43.5761,-0.477282,0
53.0265,-43.2864,-0.489567,0
53.1714,-43.0077,-0.500807,0
53.3112,-42.7304,-0.511579,0
53.4422,-42.4508,-0.522067,0
53.5686,-42.1731,-0.532067,0
53.6905,-41.8972,-0.541579,0
53.8082,-41.6229,-0.550641,0
53.9216,-41.3502,-0.559235,0
54.0309,-41.079,-0.567389,0
54.1528,-40.821,-0.574362,0
54.2779,-40.5682,-0.580602,0
54.3996,-40.3153,-0.586481,0
54.5181,-40.0624,-0.591969,0
54.6334,-39.8092,-0.597077,0
54.7455,-39.5559,-0.601823,0
54.8545,-39.3022,-0.606208,0
54.9603,-39.0481,-0.610221,0
55.0634,-38.7936,-0.613874,0
55.1672,-38.5403,-0.617028,0
55.2818,-38.2918,-0.619333,0
55.3892,-38.0401,-0.621452,0
55.4938,-37.787,-0.623239,0
55.5957,-37.5324,-0.624684,0
55.6947,-37.2761,-0.625788,0
55.7909,-37.0183,-0.626559,0
55.8844,-36.7587,-0.626989,0
55.9751,-36.4973,-0.627067,0
56.063,-36.2342,-0.626804,0
56.154,-35.9702,-0.625993,0
56.2541,-35.7059,-0.62443,0
34.1887,-46.0558,0.418035,0
34.3979,-46.3805,0.41701,0
34.6162,-46.7029,0.415721,0
34.8511,-47.012,0.41303,0
35.0931,-47.32,0.410316,0
41.3892,-38.0884,-0.576192,174
41.612,-37.9508,-0.600697,174
41.791,-37.8682,-0.618667,174
41.9276,-37.8486,-0.629775,174
42.036,-37.8755,-0.636012,174
42.1074,-37.9765,-0.635159,174
39.9623,-42.9418,-0.195358,174
39.8897,-43.7019,-0.145219,174
37.7189,-49.7676,0.362625,0
38.0607,-49.9843,0.353831,0
38.41,-50.1909,0.344593,0
38.7588,-50.4106,0.336849,0
39.1135,-50.6267,0.329188,0
39.4746,-50.8375,0.321478,0
39.8463,-51.0262,0.312449,0
40.222,-51.2159,0.303919,0
42.0265,-44.3777,-0.230443,174
42.2519,-44.5339,-0.232021,174
41.3999,-51.6506,0.271102,0
42.4041,-47.2256,-0.0649464,174
42.738,-47.0415,-0.0925618,174
42.6173,-52.0209,0.238304,0
43.0362,-52.0538,0.222235,0
43.4566,-52.0577,0.204891,0
43.8765,-52.053,0.187708,0
44.2781,-48.6753,-0.0496618,174
44.6392,-49.3431,-0.0191313,174
45.0678,-50.7269,0.0565857,174
45.1512,-46.5646,-0.219096,174
45.4444,-46.5329,-0.23055,174
46.1951,-50.32,-0.00612328,174
46.6237,-50.6164,0.000851135,174
47.0494,-50.7965,0.00099865,174
47.5048,-51.0728,0.00723953,174
47.9223,-51.0939,-0.00139336,0
48.2757,-50.8243,-0.026491,0
48.6002,-50.4764,-0.055281,174
47.6167,-45.6002,-0.34439,174
47.8121,-45.2756,-0.368151,174
48.0766,-45.1924,-0.377535,174
49.8005,-49.1434,-0.158654,0
50.0724,-48.8072,-0.182682,0
50.302,-48.3942,-0.210265,0
50.5309,-48.0127,-0.235353,0
50.7475,-47.6329,-0.25964,0
50.9543,-47.2589,-0.282922,0
51.1518,-46.8911,-0.305231,0
51.3404,-46.5291,-0.326608,0
51.5203,-46.1729,-0.347072,0
51.6997,-45.8344,-0.366008,0
51.8862,-45.5231,-0.382912,0
52.0658,-45.2148,-0.399142,0
52.2388,-44.9092,-0.414709,0
52.2029,-44.3362,-0.444517,174
52.3209,-43.9944,-0.461195,174
52.7072,-43.9926,-0.458576,0
52.4604,-43.2395,-0.497313,174
52.9764,-43.3811,-0.485641,0
53.123,-43.1018,-0.497067,0
53.2648,-42.8244,-0.507966,0
53.3984,-42.5452,-0.518571,0
53.5263,-42.2669,-0.528737,0
53.6498,-41.9904,-0.538425,0
53.7689,-41.7155,-0.547634,0
53.8837,-41.4423,-0.556384,0
53.9944,-41.1706,-0.564684,0
54.1097,-40.9066,-0.572155,0
54.2359,-40.6537,-0.578532,0
54.3588,-40.4009,-0.584528,0
54.4784,-40.148,-0.590153,0
54.5948,-39.8949,-0.595387,0
54.7079,-39.6416,-0.600261,0
54.818,-39.388,-0.604762,0
54.9248,-39.1341,-0.608903,0
55.0287,-38.8797,-0.612692,0
55.1324,-38.6261,-0.616003,0
55.2434,-38.3761,-0.618591,0
55.3532,-38.1255,-0.620778,0
55.4588,-37.8728,-0.622673,0
55.5616,-37.6187,-0.624235,0
35.0309,-45.3845,0.421917,0
35.2405,-45.6722,0.420101,0
35.4661,-45.9457,0.416741,0
35.7011,-46.2127,0.41282,0
41.3784,-38.0361,-0.54065,174
41.6,-37.9019,-0.566613,174
41.7665,-37.8416,-0.583453,174
41.912,-37.8066,-0.59688,174
42.0245,-37.8246,-0.604256,174
42.0989,-37.9164,-0.603863,174
42.1496,-38.0646,-0.597881,174
39.8953,-43.4951,-0.0806075,174
40.0228,-43.83,-0.0671129,174
38.442,-48.646,0.363529,0
38.764,-48.8331,0.355047,0
39.0912,-49.0148,0.346541,0
39.4233,-49.191,0.338011,0
39.7556,-49.3779,0.330877,0
40.0934,-49.5605,0.323812,0
41.7252,-44.2299,-0.145651,174
41.9377,-44.4228,-0.143721,174
42.2002,-44.3831,-0.160631,174
42.3583,-44.9604,-0.127422,174
42.2886,-47.3505,0.0481326,174
42.703,-46.5158,-0.0321534,174
42.931,-47.2499,0.0104483,174
43.2983,-46.4625,-0.0631331,174
43.3985,-50.5254,0.228123,0
43.7835,-50.525,0.212303,0
44.1681,-50.5158,0.196551,0
44.5131,-48.6416,0.0470714,174
44.9352,-50.4712,0.165296,0
45.0585,-46.555,-0.1238,174
45.3438,-46.4389,-0.141359,174
46.043,-50.0349,0.0981525,0
46.4022,-49.8898,0.0774641,0
46.7557,-49.7362,0.0570051,0
47.1033,-49.5747,0.0367854,0
47.4448,-49.4053,0.0168195,0
47.7708,-49.1887,-0.00549492,0
48.0743,-48.9089,-0.0311834,0
47.533,-45.629,-0.251848,174
47.7339,-45.3163,-0.276866,174
47.9605,-45.1166,-0.29392,174
49.2012,-47.8008,-0.125285,0
49.4623,-47.5257,-0.146838,0
49.7148,-47.2497,-0.167746,0
49.9591,-46.973,-0.188049,0
50.1866,-46.6768,-0.208923,0
50.388,-46.3453,-0.231393,0
50.5808,-46.0181,-0.252985,0
50.7791,-45.72,-0.27214,0
50.9745,-45.4322,-0.29008,0
51.163,-45.1464,-0.307355,0
51.3448,-44.8626,-0.323967,0
51.5203,-44.5808,-0.339933,0
50.4682,-42.5655,-0.465808,174
51.8497,-44.0189,-0.3703,0
52.0048,-43.7403,-0.38464,0
52.1546,-43.4641,-0.398361,0
52.3162,-43.2103,-0.410202,0
52.473,-42.957,-0.421559,0
52.622,-42.7012,-0.432653,0
52.7574,-42.4369,-0.443884,0
52.8882,-42.1742,-0.454626,0
53.0145,-41.9129,-0.46486,0
53.1364,-41.653,-0.474636,0
53.2541,-41.3944,-0.483942,0
53.3675,-41.1371,-0.4928,0
53.4866,-40.8884,-0.500661,0
53.6131,-40.6485,-0.507468,0
53.7362,-40.4086,-0.513893,0
53.856,-40.1685,-0.519948,0
53.9725,-39.9281,-0.525602,0
54.0858,-39.6876,-0.530895,0
54.1959,-39.4466,-0.535807,0
54.2966,-39.2019,-0.540661,0
54.3895,-38.9546,-0.545378,0
54.4789,-38.7072,-0.549733,0
54.5716,-38.4628,-0.553415,0
54.6784,-38.2254,-0.555964,0
54.7823,-37.9867,-0.55819,0
54.8834,-37.7467,-0.560065,0
54.9817,-37.5052,-0.561608,0
55.0772,-37.2622,-0.562809,0
55.1698,-37.0177,-0.563679,0
55.2596,-36.7716,-0.564206,0
55.3466,-36.5239,-0.564401,0
55.4309,-36.2745,-0.564255,0
55.5145,-36.0237,-0.563649,0
55.6091,-35.7736,-0.562155,0
36.6854,-43.1164,0.150849,174
35.1689,-45.575,0.420721,0
35.388,-45.8548,0.41806,0
35.6209,-46.1226,0.414149,0
41.2988,-38.0842,-0.531273,174
41.5273,-37.946,-0.558107,174
41.7119,-37.8604,-0.578007,174
41.8706,-37.8055,-0.593769,174
41.9869,-37.8181,-0.601841,174
42.0749,-37.8825,-0.604279,174
42.1386,-38,-0.601319,174
39.8622,-43.3659,-0.0868189,174
39.9718,-43.732,-0.0701688,174
38.3341,-48.5815,0.36639,0
38.6545,-48.7704,0.357923,0
38.9799,-48.9539,0.349422,0
39.3103,-49.132,0.340906,0
39.6427,-49.3149,0.33327,0
39.9785,-49.4993,0.326204,0
40.3228,-49.6661,0.318065,0
41.8734,-44.3193,-0.147563,174
42.1226,-44.3415,-0.159489,174
42.2991,-44.7821,-0.137192,174
41.7648,-50.1727,0.277415,0
42.5307,-47.093,0.0177932,174
42.8466,-47.0369,-0.00113075,174
42.8834,-50.5042,0.248797,0
43.4918,-46.47,-0.0709322,174
43.6533,-50.5262,0.21765,0
44.038,-50.5199,0.201868,0
44.3963,-48.5481,0.0445629,174
44.8056,-50.4812,0.17056,0
45.1682,-50.1125,0.131269,174
45.2441,-46.4337,-0.138611,174
45.5497,-46.5472,-0.139784,174
46.2813,-49.9398,0.0844465,0
46.6367,-49.7891,0.0639045,0
46.9863,-49.6302,0.0436066,0
47.3299,-49.4634,0.023548,0
47.6659,-49.283,0.00336739,0
47.9727,-49.0038,-0.022575,0
47.4908,-45.8403,-0.236322,174
47.7094,-45.565,-0.259188,174
47.8688,-45.1351,-0.291384,174
49.1109,-47.8936,-0.117848,0
49.3748,-47.6189,-0.139616,0
49.6303,-47.3432,-0.160749,0
49.8773,-47.0667,-0.181247,0
50.1163,-46.7896,-0.20113,0
50.3209,-46.4569,-0.223898,0
50.5165,-46.1283,-0.245783,0
50.7115,-45.8179,-0.265905,0
50.9091,-45.5293,-0.284089,0
51.1,-45.2428,-0.301584,0
51.2841,-44.9584,-0.31842,0
51.4616,-44.6759,-0.334601,0
50.3543,-42.5485,-0.467633,174
51.7958,-44.1136,-0.365329,0
51.953,-43.8344,-0.37985,0
52.1044,-43.557,-0.393815,0
52.2622,-43.2961,-0.406257,0
52.4205,-43.0427,-0.41777,0
52.5741,-42.7897,-0.428825,0
52.7121,-42.5261,-0.440143,0
52.8445,-42.2629,-0.451042,0
52.9723,-42.0012,-0.461452,0
53.0955,-41.7408,-0.471384,0
53.2147,-41.4818,-0.480846,0
53.3296,-41.224,-0.48985,0
53.443,-40.9695,-0.498259,0
53.5707,-40.7297,-0.505212,0
53.695,-40.4898,-0.511764,0
53.8159,-40.2497,-0.517936,0
53.9334,-40.0095,-0.523737,0
54.0478,-39.769,-0.529147,0
54.159,-39.5282,-0.534186,0
54.2644,-39.2855,-0.538991,0
54.3584,-39.0383,-0.543815,0
54.449,-38.7909,-0.548298,0
54.5362,-38.5434,-0.552419,0
54.6427,-38.3059,-0.555143,0
54.7475,-38.0676,-0.557477,0
54.8496,-37.828,-0.55947,0
54.9487,-37.587,-0.56113,0
55.0452,-37.3446,-0.562448,0
55.1387,-37.1006,-0.563425,0
55.2295,-36.8551,-0.564069,0
55.3174,-36.6079,-0.564372,0
55.4027,-36.359,-0.564333,0
55.4851,-36.1084,-0.563962,0
55.5773,-35.8585,-0.562702,0
55.6704,-35.6067,-0.560964,0
36.6183,-43.051,0.15311,174
35.098,-45.4776,0.421336,0
35.3106,-45.7637,0.419363,0
35.5413,-46.0323,0.415477,0
41.1983,-38.1613,-0.518445,174
41.4523,-37.9914,-0.549322,174
41.6563,-37.8796,-0.57244,174
41.8178,-37.8238,-0.588548,174
41.9487,-37.8122,-0.59932,174
42.051,-37.849,-0.604672,174
42.1221,-37.949,-0.603442,174
39.9888,-42.8904,-0.127097,174
39.9137,-43.6533,-0.0713875,174
38.2268,-48.5164,0.369241,0
38.5455,-48.707,0.360784,0
38.8693,-48.8924,0.352298,0
39.198,-49.0723,0.343782,0
39.5303,-49.2512,0.335643,0
39.8642,-49.4375,0.328602,0
40.2037,-49.6184,0.321512,0
41.8001,-44.2613,-0.147623,174
42.0398,-44.3273,-0.15606,174
42.2664,-44.4703,-0.157851,174
41.6416,-50.1269,0.280286,0
42.4122,-47.1927,0.0307087,174
42.7871,-46.6255,-0.0281675,174
42.7536,-50.4927,0.253758,0
43.3945,-46.4397,-0.0689702,174
43.523,-50.5263,0.222996,0
43.9239,-49.5952,0.138983,174
44.2816,-48.5781,0.0510372,174
44.6261,-48.7312,0.0495086,174
45.0587,-50.4607,0.160281,0
45.1492,-46.4903,-0.131458,174
45.4409,-46.4604,-0.142789,174
46.1597,-49.9889,0.0914436,0
46.5172,-49.841,0.0708234,0
46.8687,-49.6849,0.0504377,0
47.2144,-49.5208,0.0303107,0
47.5538,-49.3489,0.0104328,0
47.87,-49.0985,-0.0138738,0
48.1703,-48.8181,-0.0393279,0
47.6146,-45.5815,-0.256521,174
47.7956,-45.2125,-0.284983,174
48.0635,-45.1445,-0.293355,174
49.2865,-47.7119,-0.132321,0
49.5448,-47.4366,-0.153669,0
49.7948,-47.1603,-0.174382,0
50.0364,-46.8834,-0.194474,0
50.2526,-46.5691,-0.216286,0
50.4512,-46.239,-0.238469,0
50.643,-45.9161,-0.259596,0
50.843,-45.6267,-0.278014,0
51.0362,-45.3395,-0.295734,0
51.2225,-45.0544,-0.3128,0
51.4023,-44.7713,-0.329196,0
50.3196,-42.6455,-0.462144,174
51.7412,-44.2085,-0.360275,0
51.9005,-43.9286,-0.375012,0
52.0537,-43.6506,-0.389147,0
52.2075,-43.382,-0.402248,0
52.3675,-43.1284,-0.413928,0
52.5227,-42.8752,-0.425134,0
52.6662,-42.6155,-0.436345,0
52.8002,-42.3518,-0.447409,0
52.9295,-42.0896,-0.457985,0
53.0544,-41.8288,-0.468073,0
53.1749,-41.5693,-0.477692,0
53.2912,-41.3111,-0.486852,0
53.4034,-41.0541,-0.495553,0
53.5279,-40.8108,-0.502907,0
53.6533,-40.5709,-0.509587,0
53.7754,-40.331,-0.515895,0
53.8941,-40.0908,-0.521813,0
54.0095,-39.8504,-0.52735,0
54.1217,-39.6097,-0.532526,0
54.2309,-39.3687,-0.537321,0
54.327,-39.1219,-0.542223,0
54.4187,-38.8746,-0.546823,0
54.5071,-38.6272,-0.551061,0
54.6065,-38.3862,-0.554284,0
54.7123,-38.1484,-0.556716,0
54.8154,-37.9093,-0.558825,0
54.9155,-37.6688,-0.560602,0
55.0128,-37.4268,-0.562028,0
36.7604,-43.1769,0.234964,174
36.1603,-44.4441,0.368397,174
37.0878,-43.6688,0.236474,174
41.1914,-38.1026,-0.482606,174
41.4413,-37.9408,-0.514714,174
41.6318,-37.8524,-0.536658,174
41.7935,-37.7975,-0.553736,174
41.9331,-37.7708,-0.566859,174
42.0434,-37.7912,-0.57416,174
42.1136,-37.8895,-0.572636,174
42.1681,-38.0277,-0.566859,174
39.919,-43.4483,-0.00828903,174
40.0657,-43.7333,0.00202293,174
40.2746,-43.8825,-0.0015979,174
39.1797,-47.6844,0.357093,0
39.4799,-47.8589,0.350286,0
39.7851,-48.028,0.343436,0
40.0952,-48.1916,0.336512,0
41.5149,-44.0653,-0.0678196,174
41.7555,-44.1132,-0.0782676,174
41.9595,-44.3337,-0.0726774,174
42.2081,-44.3575,-0.0844898,174
42.3904,-44.7827,-0.060661,174
42.499,-45.8667,0.0195426,174
42.7095,-46.4912,0.0587687,174
42.9426,-47.165,0.101405,174
43.3303,-46.0559,-0.00463322,174
43.595,-46.4568,0.015955,174
43.823,-49.0946,0.217606,0
44.1757,-48.6084,0.164821,174
44.5127,-48.4293,0.137894,174
44.878,-49.0733,0.176483,0
45.0583,-46.5,-0.0352383,174
45.3423,-46.384,-0.053425,174
45.6604,-46.606,-0.0451269,174
46.2257,-48.56,0.0944709,0
46.5462,-48.3943,0.0731574,0
46.8598,-48.2186,0.0519074,0
47.1669,-48.0385,0.0311115,0
47.4677,-47.854,0.0107648,0
47.7573,-47.6469,-0.0104754,0
47.5371,-45.6322,-0.162403,174
47.7174,-45.2515,-0.194097,174
47.9577,-45.0989,-0.208624,174
48.8115,-46.689,-0.0974432,0
49.0564,-46.4471,-0.117585,0
49.2941,-46.2045,-0.137116,0
49.5249,-45.9613,-0.156052,0
49.7487,-45.7175,-0.174396,0
49.9659,-45.4733,-0.192165,0
50.1734,-45.2226,-0.209797,0
50.3665,-44.9576,-0.227873,0
50.5528,-44.6939,-0.245314,0
50.7327,-44.4315,-0.262126,0
50.9065,-44.1703,-0.278322,0
50.2751,-42.7189,-0.379823,174
50.4422,-42.5248,-0.390606,174
51.3959,-43.4005,-0.322985,0
51.5615,-43.1639,-0.335475,0
51.7221,-42.9274,-0.347477,0
51.878,-42.6911,-0.35903,0
52.0291,-42.455,-0.370114,0
52.1758,-42.2191,-0.380749,0
52.3178,-41.9832,-0.390944,0
52.4555,-41.7475,-0.40071,0
52.5887,-41.5118,-0.410065,0
52.7077,-41.2672,-0.419733,0
52.8225,-41.0236,-0.428952,0
52.9499,-40.7944,-0.436589,0
53.0758,-40.5665,-0.443708,0
53.1945,-40.3358,-0.450651,0
53.3057,-40.1021,-0.457487,0
53.4133,-39.8684,-0.463923,0
53.5172,-39.6345,-0.469997,0
53.6175,-39.4006,-0.47572,0
53.7142,-39.1664,-0.481071,0
53.8075,-38.9321,-0.486052,0
53.8973,-38.6976,-0.49069,0
53.9897,-38.4659,-0.494636,0
54.0945,-38.2408,-0.497409,0
54.1963,-38.0144,-0.499841,0
54.2954,-37.7868,-0.50194,0
54.3915,-37.5577,-0.503718,0
54.4849,-37.3273,-0.505143,0
54.5754,-37.0954,-0.506237,0
54.6631,-36.8621,-0.506999,0
54.7481,-36.6273,-0.507429,0
54.8302,-36.3908,-0.507516,0
54.906,-36.1519,-0.507438,0
54.9783,-35.9114,-0.507057,0
55.0515,-35.6701,-0.506139,0
36.709,-43.0915,0.234428,174
36.0382,-44.4331,0.378714,174
36.0066,-45.0043,0.417567,0
36.2264,-45.2489,0.413939,0
41.3644,-37.9864,-0.505136,174
41.5751,-37.8716,-0.530623,174
41.7398,-37.8158,-0.54808,174
41.8949,-37.7647,-0.564208,174
42.0073,-37.7824,-0.571938,174
42.0896,-37.856,-0.573177,174
42.1571,-37.9641,-0.570608,174
39.9695,-43.1324,-0.0349525,174
39.9937,-43.6873,0.00377476,174
40.1965,-43.8498,0.00141029,174
39.0792,-47.6242,0.359378,0
39.3777,-47.8005,0.352601,0
39.6812,-47.9714,0.34576,0
39.9898,-48.1369,0.338861,0
40.305,-48.2897,0.331253,0
41.6834,-44.0589,-0.0782876,174
41.8978,-44.2213,-0.0779911,174
42.129,-44.3243,-0.0827966,174
42.3406,-44.5571,-0.0758517,174
41.9699,-48.8099,0.279315,0
42.6095,-46.4878,0.063349,174
42.8862,-46.6813,0.0654921,174
43.2356,-46.0371,-0.00191555,174
43.5095,-46.2119,1.43433e-05,174
43.7039,-49.0907,0.222132,0
44.0558,-49.0994,0.208753,0
44.3986,-48.4177,0.141152,174
44.7593,-49.0821,0.181307,0
44.967,-46.6379,-0.0212322,174
45.2438,-46.3876,-0.050104,174
45.5452,-46.471,-0.0525427,174
46.1159,-48.6147,0.101771,0
46.4385,-48.4513,0.0803498,0
46.7544,-48.2786,0.059051,0
47.0637,-48.0999,0.0380988,0
47.3666,-47.9169,0.0176057,0
47.6625,-47.7271,-0.00262383,0
47.4917,-45.8315,-0.146367,174
47.6831,-45.4653,-0.177299,174
47.8624,-45.1054,-0.207033,174
48.1981,-45.239,-0.200578,174
48.9744,-46.5291,-0.110842,0
49.2145,-46.2867,-0.130578,0
49.4476,-46.0437,-0.149714,0
49.6738,-45.8001,-0.168254,0
49.8932,-45.5559,-0.186213,0
50.1059,-45.3114,-0.203605,0
50.3019,-45.0472,-0.221833,0
50.4905,-44.783,-0.239479,0
50.6726,-44.5201,-0.256501,0
50.8483,-44.2585,-0.272912,0
51.018,-43.9982,-0.288708,0
50.3471,-42.5343,-0.391077,174
51.3395,-43.4814,-0.318591,0
51.506,-43.2439,-0.331301,0
51.6684,-43.0074,-0.343464,0
51.8258,-42.7711,-0.355173,0
51.9785,-42.5349,-0.366413,0
52.1266,-42.2989,-0.377194,0
52.2702,-42.063,-0.387546,0
52.4094,-41.8272,-0.397458,0
52.5442,-41.5916,-0.40694,0
52.668,-41.3499,-0.416511,0
52.7841,-41.1059,-0.425886,0
52.9066,-40.8714,-0.434089,0
53.0335,-40.6437,-0.441335,0
53.1559,-40.4149,-0.448259,0
53.2685,-40.1812,-0.455212,0
53.3773,-39.9475,-0.461784,0
53.4824,-39.7137,-0.467985,0
53.5839,-39.4797,-0.473825,0
53.6819,-39.2457,-0.479294,0
53.7763,-39.0114,-0.484401,0
53.8673,-38.777,-0.489157,0
53.9548,-38.5424,-0.493571,0
54.0593,-38.3171,-0.496511,0
54.1621,-38.0912,-0.499059,0
54.2621,-37.8639,-0.501266,0
54.3593,-37.6353,-0.503161,0
54.4536,-37.4054,-0.504694,0
54.5451,-37.1741,-0.505915,0
54.6338,-36.9412,-0.506784,0
54.7197,-36.7069,-0.507331,0
54.8028,-36.471,-0.507526,0
54.883,-36.2335,-0.507399,0
54.9528,-35.9927,-0.507292,0
55.0271,-35.752,-0.506481,0
55.0992,-35.5096,-0.505309,0
36.6345,-43.0355,0.237873,174
35.7216,-44.6731,0.422366,0
36.1921,-44.5688,0.373413,174
36.1514,-45.1664,0.415164,0
41.2851,-38.0334,-0.495232,174
41.5127,-37.8984,-0.523577,174
41.685,-37.8344,-0.5423,174
41.8441,-37.7803,-0.559027,174
41.9694,-37.7765,-0.569358,174
42.0659,-37.8227,-0.573692,174
42.1367,-37.9217,-0.572094,174
40.0033,-42.8649,-0.0568154,174
39.9375,-43.6052,0.00180878,174
40.1186,-43.8169,0.00444302,174
38.9795,-47.5634,0.361654,0
39.2762,-47.7414,0.354905,0
39.578,-47.9142,0.348084,0
39.8848,-48.0815,0.341204,0
40.1966,-48.2432,0.334266,0
41.5988,-44.0569,-0.0734639,174
41.8249,-44.1654,-0.0782026,174
42.0464,-44.3094,-0.0794219,174
42.2766,-44.4303,-0.0824461,174
42.4518,-44.9289,-0.0522932,174
42.5971,-45.8176,0.0107615,174
42.7974,-46.5641,0.0603531,174
43.1223,-46.2376,0.0192076,174
43.4177,-46.1251,-0.00295048,174
43.5849,-49.0859,0.226663,0
43.9367,-49.0974,0.213275,0
44.2849,-48.4508,0.148053,174
44.6232,-48.4855,0.138407,174
44.9915,-49.0641,0.171888,0
45.1478,-46.4248,-0.044118,174
45.4394,-46.4097,-0.0543084,174
46.0053,-48.6689,0.109114,0
46.3301,-48.5071,0.0875471,0
46.6484,-48.338,0.0662385,0
46.9598,-48.1609,0.0451398,0
47.2648,-47.9793,0.0244807,0
47.5635,-47.7935,0.00429024,0
47.8472,-47.5702,-0.0178973,0
47.6216,-45.5948,-0.16651,174
47.7857,-45.1706,-0.201143,174
48.0575,-45.1173,-0.208316,174
48.8915,-46.6109,-0.104025,0
49.1341,-46.3688,-0.123967,0
49.3695,-46.126,-0.143307,0
49.598,-45.8825,-0.162048,0
49.8197,-45.6386,-0.180197,0
50.0347,-45.3942,-0.19779,0
50.2366,-45.1368,-0.21571,0
50.4273,-44.8722,-0.233586,0
50.6116,-44.6089,-0.250817,0
50.7896,-44.3469,-0.267424,0
50.9613,-44.0861,-0.283434,0
50.294,-42.6041,-0.387121,174
51.2866,-43.5685,-0.313693,0
51.45,-43.324,-0.327082,0
51.614,-43.0874,-0.339406,0
51.773,-42.851,-0.351266,0
51.9273,-42.6148,-0.362663,0
52.077,-42.3787,-0.3736,0
52.2221,-42.1428,-0.384089,0
52.3628,-41.907,-0.394157,0
52.4991,-41.6713,-0.403776,0
52.6277,-41.4326,-0.413239,0
52.7452,-41.1883,-0.422761,0
52.8629,-40.9484,-0.43155,0
52.991,-40.7208,-0.438932,0
53.1156,-40.4929,-0.445915,0
53.2309,-40.2603,-0.452907,0
53.3409,-40.0266,-0.459606,0
53.4473,-39.7928,-0.465934,0
53.55,-39.5589,-0.471891,0
53.6491,-39.3249,-0.477477,0
53.7448,-39.0907,-0.482712,0
53.8369,-38.8563,-0.487595,0
53.9255,-38.6218,-0.492116,0
54.0238,-38.3932,-0.495573,0
54.1277,-38.1678,-0.498239,0
54.2287,-37.941,-0.500563,0
54.3267,-37.7129,-0.502555,0
54.422,-37.4834,-0.504206,0
54.5145,-37.2525,-0.505534,0
36.7744,-43.1637,0.320131,174
36.4106,-44.1135,0.419368,0
37.1155,-43.6351,0.320366,174
41.2753,-37.9809,-0.460075,174
41.4927,-37.8633,-0.488054,174
41.6607,-37.8075,-0.506925,174
41.82,-37.7544,-0.524604,174
41.9539,-37.7355,-0.537318,174
42.0581,-37.7655,-0.543642,174
42.1281,-37.8629,-0.541767,174
42.1864,-37.9914,-0.536318,174
39.9424,-43.4018,0.0634245,174
40.0853,-43.693,0.0759867,174
40.3098,-43.7989,0.0681811,174
39.5449,-46.6748,0.356546,0
39.8249,-46.8325,0.350233,0
40.1094,-46.9851,0.343875,0
40.4026,-47.1169,0.335892,0
41.5379,-43.9881,0.00179184,174
41.7781,-44.0294,-0.00927425,174
41.9763,-44.2679,-0.000582199,174
42.2159,-44.332,-0.00862019,174
42.4059,-44.7064,0.0132117,174
42.5226,-45.7212,0.0946259,174
42.714,-46.4835,0.150998,174
43.0415,-46.1392,0.105403,174
43.3484,-45.8464,0.0658757,174
43.6164,-46.0757,0.0741302,174
43.8584,-47.8013,0.214559,0
44.1807,-47.8073,0.202366,0
44.5032,-47.8047,0.190106,0
44.8255,-47.7936,0.177811,0
45.0595,-46.467,0.0545065,174
45.3057,-45.9403,0.00108368,174
45.6541,-46.5195,0.0413303,174
46.0746,-47.4215,0.108187,0
46.3727,-47.2812,0.0887629,0
46.6639,-47.1271,0.0689875,0
46.9496,-46.9685,0.0496076,0
47.2298,-46.8056,0.0306379,0
47.5044,-46.6385,0.0120637,0
47.5487,-45.6621,-0.0706687,174
47.7058,-45.2031,-0.110902,174
47.9553,-45.0821,-0.123424,174
48.5023,-45.806,-0.0682488,0
48.7337,-45.589,-0.0873211,0
48.9587,-45.3707,-0.105846,0
49.1774,-45.1513,-0.123825,0
49.3898,-44.9309,-0.141266,0
49.5962,-44.7095,-0.158185,0
49.7966,-44.4873,-0.174582,0
49.9911,-44.2644,-0.19049,0
50.1765,-44.0351,-0.206335,0
50.3495,-43.7947,-0.222546,0
50.5168,-43.5551,-0.23818,0
50.246,-42.6717,-0.305283,174
50.4333,-42.5085,-0.314056,174
51.0196,-42.8874,-0.277985,0
51.1791,-42.6667,-0.290134,0
51.334,-42.4459,-0.301833,0
51.4844,-42.225,-0.313073,0
51.6303,-42.004,-0.323884,0
51.7713,-41.7822,-0.334303,0
51.9073,-41.5596,-0.344391,0
52.0388,-41.3368,-0.35405,0
52.1662,-41.1139,-0.363317,0
52.2929,-40.8941,-0.371882,0
52.4195,-40.6772,-0.379772,0
52.5422,-40.4599,-0.387292,0
52.6587,-40.2402,-0.394626,0
52.77,-40.019,-0.401696,0
52.8777,-39.7976,-0.408395,0
52.9818,-39.5761,-0.414714,0
53.0824,-39.3543,-0.42069,0
53.1795,-39.1322,-0.426296,0
53.273,-38.9098,-0.43155,0
53.3633,-38.6872,-0.436452,0
53.4558,-38.4672,-0.440651,0
53.5588,-38.2533,-0.443649,0
53.659,-38.0382,-0.446305,0
53.7563,-37.8219,-0.44863,0
53.8509,-37.6042,-0.450632,0
53.9426,-37.3853,-0.452292,0
54.0316,-37.165,-0.45362,0
54.1143,-36.9421,-0.454821,0
54.1891,-36.7165,-0.455983,0
54.2609,-36.4897,-0.456823,0
54.3294,-36.2618,-0.457341,0
54.3958,-36.0329,-0.457477,0
54.4674,-35.8045,-0.456823,0
54.5361,-35.5744,-0.455846,0
36.725,-43.076,0.318991,174
36.3427,-44.0363,0.420501,0
37.002,-43.6307,0.330595,174
41.1775,-38.052,-0.446121,174
41.4273,-37.8926,-0.480102,174
41.6049,-37.8261,-0.500679,174
41.7671,-37.7721,-0.518749,174
41.916,-37.7295,-0.534606,174
42.0271,-37.7476,-0.542465,174
42.1042,-37.8297,-0.54243,174
42.1753,-37.9287,-0.540368,174
40.0192,-43.0279,0.0279221,174
40.0091,-43.6581,0.0788386,174
40.2319,-43.7679,0.0712964,174
39.4512,-46.6203,0.358675,0
39.7297,-46.7797,0.352381,0
40.0127,-46.934,0.346033,0
40.3018,-47.077,0.339012,0
41.4405,-44.0338,0.0116797,174
41.7046,-43.9837,-0.0087339,174
41.9218,-44.1251,-0.00959972,174
42.1354,-44.3072,-0.0062635,174
42.3532,-44.5018,-0.00155769,174
42.5438,-44.93,0.0252234,174
42.693,-45.8408,0.0963714,174
42.8954,-46.6264,0.15462,174
43.2527,-45.8614,0.0714969,174
43.525,-45.9909,0.0706743,174
43.7492,-47.7973,0.218675,0
44.0716,-47.8062,0.206492,0
44.3941,-47.8065,0.194261,0
44.7165,-47.7983,0.181981,0
44.9713,-46.6517,0.0734396,174
45.2221,-46.0832,0.016025,174
45.5105,-46.1092,0.00978096,174
45.9722,-47.4651,0.114603,0
46.2728,-47.3323,0.09555,0
46.5659,-47.1797,0.0756281,0
46.8536,-47.0226,0.0561262,0
47.1355,-46.8612,0.03701,0
47.412,-46.6955,0.018299,0
47.4992,-45.8469,-0.054494,174
47.6524,-45.3503,-0.0980237,174
47.8591,-45.0854,-0.12225,174
48.1775,-45.1701,-0.118013,174
48.6561,-45.6625,-0.0809344,0
48.8833,-45.4447,-0.0996453,0
49.1041,-45.2256,-0.117804,0
49.3187,-45.0055,-0.135427,0
49.5271,-44.7845,-0.152512,0
49.7295,-44.5626,-0.169098,0
49.9259,-44.3399,-0.185168,0
50.1165,-44.1165,-0.200739,0
50.2916,-43.876,-0.217116,0
50.4609,-43.6361,-0.232956,0
50.628,-43.4027,-0.247751,0
50.3441,-42.5262,-0.314186,174
50.6827,-42.5742,-0.305403,174
51.1257,-42.7414,-0.286081,0
51.2822,-42.5207,-0.297917,0
51.434,-42.2998,-0.309313,0
51.5814,-42.0788,-0.32027,0
51.7244,-41.8576,-0.330798,0
51.8617,-41.6349,-0.341022,0
51.9948,-41.4122,-0.350827,0
52.1236,-41.1893,-0.360221,0
52.2492,-40.9674,-0.369128,0
52.377,-40.7507,-0.377145,0
52.5011,-40.5335,-0.384792,0
52.6202,-40.3149,-0.392145,0
52.7328,-40.0939,-0.399343,0
