75.6701,-57.4713,-2.76682,0
75.5302,-56.9586,-2.82461,0
75.3949,-56.4786,-2.87778,0
75.2609,-56.0257,-2.92703,0
75.2043,-55.6636,-2.96667,0
75.2164,-55.3746,-2.99862,0
75.2447,-55.1084,-3.0276,0
75.2677,-54.8461,-3.05536,0
75.2855,-54.5878,-3.08192,0
75.2984,-54.3336,-3.10731,0
75.3066,-54.0834,-3.13158,0
75.3102,-53.8372,-3.15474,0
75.3095,-53.5951,-3.17684,0
75.3047,-53.3569,-3.1979,0
75.2612,-53.1044,-3.21953,0
75.2202,-52.861,-3.23974,0
75.1876,-52.6287,-3.25839,0
75.152,-52.4015,-3.27602,0
75.1137,-52.1793,-3.29267,0
75.0728,-51.9619,-3.30838,0
75.0294,-51.7492,-3.32318,0
74.9838,-51.5411,-3.3371,0
74.9359,-51.3376,-3.35017,0
74.886,-51.1384,-3.36243,0
74.8341,-50.9435,-3.37389,0
74.8093,-50.76,-3.38383,0
74.7955,-50.582,-3.39277,0
74.7788,-50.4058,-3.40111,0
74.7593,-50.2314,-3.40887,0
74.737,-50.0589,-3.41606,0
74.7121,-49.8881,-3.42269,0
74.6846,-49.7192,-3.42874,0
74.6544,-49.5521,-3.43426,0
74.6218,-49.3868,-3.43925,0
74.5866,-49.2233,-3.4437,0
74.5491,-49.0616,-3.44764,0
74.5093,-48.9018,-3.45107,0
74.4696,-48.7437,-3.45394,0
74.4464,-48.5863,-3.45599,0
74.4208,-48.4298,-3.45757,0
74.418,-48.2716,-3.45822,0
74.4161,-48.1129,-3.45836,0
74.4116,-47.9537,-3.45803,0
74.4047,-47.794,-3.45721,0
74.3953,-47.634,-3.45593,0
74.3832,-47.4736,-3.45415,0
74.3687,-47.3128,-3.45189,0
74.3515,-47.1516,-3.44915,0
74.3316,-46.9901,-3.4459,0
74.3092,-46.8282,-3.44216,0
74.2841,-46.6659,-3.43791,0
74.2562,-46.5034,-3.43316,0
74.2199,-46.3427,-3.42802,0
74.1808,-46.182,-3.42237,0
74.1388,-46.0213,-3.41621,0
74.1127,-45.8521,-3.40905,0
74.102,-45.6729,-3.40085,0
74.088,-45.4918,-3.39202,0
74.0712,-45.3088,-3.38254,0
74.051,-45.1238,-3.37241,0
74.0276,-44.9369,-3.36162,0
74.0007,-44.7481,-3.35012,0
73.9703,-44.5574,-3.33793,0
73.9365,-44.3647,-3.32501,0
73.8989,-44.1702,-3.31134,0
73.8575,-43.9737,-3.29692,0
73.8123,-43.7753,-3.28172,0
73.763,-43.5751,-3.26571,0
73.7312,-43.3538,-3.24775,0
73.7185,-43.1071,-3.2275,0
73.7017,-42.8546,-3.20604,0
73.6804,-42.5962,-3.18334,0
73.6544,-42.3316,-3.15933,0
73.6184,-42.0664,-3.13433,0
73.5711,-41.8025,-3.10843,0
73.5181,-41.5337,-3.08118,0
73.459,-41.2599,-3.05255,0
73.3992,-40.9737,-3.02194,0
73.4097,-40.5739,-2.98208,0
73.4149,-40.1554,-2.93933,0
73.3877,-39.7583,-2.89652,174
73.3298,-39.3835,-2.85383,0
73.2614,-39.0012,-2.80894,0
73.1831,-38.6091,-2.76162,0
71.9321,-40.4154,-2.8901,174
73.5509,-36.6805,-2.56723,0
76.3813,-60.6812,-2.38341,0
76.3085,-60.0593,-2.46202,0
76.2287,-59.4661,-2.53558,0
76.1211,-58.8756,-2.60683,0
76.0055,-58.3107,-2.67366,0
75.7252,-57.6059,-2.75201,0
75.5574,-57.0581,-2.81346,0
75.4219,-56.5724,-2.86746,0
75.2876,-56.1142,-2.91748,0
75.2026,-55.7233,-2.96001,0
75.2101,-55.4284,-2.99268,0
75.2395,-55.1613,-3.02191,0
75.2634,-54.8983,-3.04989,0
75.2823,-54.6392,-3.0767,0
75.2962,-54.3841,-3.10233,0
75.3053,-54.1331,-3.12681,0
75.3098,-53.8862,-3.15019,0
75.3101,-53.6432,-3.17251,0
75.306,-53.4043,-3.19376,0
75.2702,-53.1545,-3.21529,0
75.2265,-52.9081,-3.23589,0
75.1943,-52.6748,-3.25474,0
75.1593,-52.4466,-3.27257,0
75.1215,-52.2234,-3.28942,0
75.0812,-52.005,-3.30531,0
75.0384,-51.7914,-3.32029,0
74.9931,-51.5824,-3.33438,0
74.9458,-51.378,-3.34762,0
74.8962,-51.1779,-3.36004,0
74.8446,-50.9822,-3.37166,0
74.8117,-50.7958,-3.38196,0
74.7985,-50.6175,-3.39103,0
74.7823,-50.4409,-3.39949,0
74.7634,-50.2662,-3.40737,0
74.7417,-50.0933,-3.41466,0
74.7173,-49.9221,-3.4214,0
74.6903,-49.7529,-3.42757,0
74.6607,-49.5854,-3.4332,0
74.6285,-49.4197,-3.43829,0
74.5939,-49.2559,-3.44285,0
74.5569,-49.0938,-3.44689,0
74.5174,-48.9336,-3.45042,0
74.4756,-48.7752,-3.45344,0
74.4512,-48.6177,-3.45562,0
74.426,-48.461,-3.45729,0
74.4181,-48.3034,-3.45814,0
74.4167,-48.1447,-3.45837,0
74.4127,-47.9855,-3.45813,0
74.4063,-47.826,-3.45742,0
74.3973,-47.6661,-3.45623,0
74.3859,-47.5057,-3.45455,0
74.3718,-47.345,-3.45238,0
74.3551,-47.1839,-3.44973,0
74.3359,-47.0224,-3.44659,0
74.3139,-46.8606,-3.44295,0
74.2895,-46.6984,-3.43881,0
74.2622,-46.5359,-3.43415,0
74.2273,-46.3748,-3.42908,0
74.1888,-46.2141,-3.42354,0
74.1475,-46.0535,-3.41749,0
74.1144,-45.8877,-3.41063,0
74.1042,-45.7089,-3.40254,0
74.0911,-45.5282,-3.39383,0
74.0748,-45.3456,-3.38449,0
74.0552,-45.161,-3.3745,0
74.0325,-44.9745,-3.36383,0
74.0063,-44.7861,-3.35248,0
73.9767,-44.5957,-3.34043,0
73.9435,-44.4034,-3.32765,0
73.9067,-44.2092,-3.31414,0
73.8661,-44.0132,-3.29987,0
73.8216,-43.8152,-3.28483,0
73.7731,-43.6153,-3.26898,0
73.7332,-43.4024,-3.25167,0
73.7214,-43.1569,-3.23165,0
73.7054,-42.9056,-3.21044,0
73.6851,-42.6484,-3.18799,0
73.66,-42.385,-3.16424,0
73.6273,-42.1186,-3.13936,0
73.5811,-41.8558,-3.11372,0
73.5292,-41.5879,-3.08675,0
73.4714,-41.3151,-3.05839,0
73.4073,-41.0372,-3.02859,0
73.408,-40.6553,-2.99028,0
73.4143,-40.2407,-2.94812,0
73.3999,-39.8294,-2.90461,0
73.3423,-39.4588,-2.86252,0
73.2758,-39.0785,-2.81811,0
73.1996,-38.6884,-2.77129,0
71.9604,-40.4544,-2.89614,174
73.5436,-36.8319,-2.58395,0
73.5791,-36.0488,-2.49689,0
76.3794,-60.7887,-2.36915,0
76.3236,-60.1814,-2.44671,0
76.2452,-59.5826,-2.52125,0
76.1438,-58.9923,-2.59289,0
76.0288,-58.4214,-2.66066,0
75.7809,-57.7429,-2.73689,0
75.5848,-57.1588,-2.80215,0
75.449,-56.6673,-2.85699,0
75.3144,-56.2038,-2.90777,0
75.2005,-55.7832,-2.95327,0
75.2083,-55.4862,-2.98633,0
75.2341,-55.2144,-3.01616,0
75.2591,-54.9506,-3.0444,0
75.2789,-54.6907,-3.07143,0
75.2937,-54.4349,-3.09728,0
75.3039,-54.183,-3.122,0
75.3093,-53.9352,-3.14561,0
75.3104,-53.6915,-3.16812,0
75.3071,-53.4518,-3.1896,0
75.2791,-53.2048,-3.21101,0
75.2333,-52.9558,-3.23195,0
75.2009,-52.7211,-3.25105,0
75.1665,-52.4919,-3.26908,0
75.1293,-52.2677,-3.28612,0
75.0895,-52.0483,-3.30219,0
75.0471,-51.8338,-3.31736,0
75.0023,-51.6239,-3.33163,0
74.9554,-51.4185,-3.34504,0
74.9062,-51.2176,-3.35762,0
74.8552,-51.021,-3.3694,0
74.8141,-50.8317,-3.38008,0
74.8014,-50.653,-3.38926,0
74.7859,-50.4761,-3.39784,0
74.7674,-50.301,-3.40584,0
74.7462,-50.1277,-3.41325,0
74.7224,-49.9562,-3.42009,0
74.6959,-49.7866,-3.42638,0
74.6668,-49.6187,-3.43213,0
74.6352,-49.4527,-3.43732,0
74.601,-49.2885,-3.44198,0
74.5645,-49.1261,-3.44613,0
74.5255,-48.9655,-3.44975,0
74.4842,-48.8068,-3.45287,0
74.4559,-48.6492,-3.45523,0
74.4313,-48.4923,-3.45699,0
74.418,-48.3351,-3.45804,0
74.4171,-48.1765,-3.45836,0
74.4137,-48.0174,-3.45822,0
74.4078,-47.858,-3.4576,0
74.3994,-47.6981,-3.4565,0
74.3884,-47.5379,-3.45492,0
74.3748,-47.3772,-3.45286,0
74.3587,-47.2162,-3.4503,0
74.3399,-47.0548,-3.44726,0
74.3185,-46.893,-3.44372,0
74.2945,-46.7309,-3.43967,0
74.2679,-46.5684,-3.43513,0
74.2348,-46.407,-3.43013,0
74.1968,-46.2463,-3.42469,0
74.1559,-46.0856,-3.41873,0
74.1162,-45.9233,-3.41217,0
74.1066,-45.7449,-3.40422,0
74.094,-45.5645,-3.39563,0
74.0783,-45.3823,-3.38642,0
74.0594,-45.1981,-3.37654,0
74.0373,-45.012,-3.36602,0
74.0118,-44.8239,-3.3548,0
73.983,-44.634,-3.34289,0
73.9505,-44.4421,-3.33026,0
73.9143,-44.2483,-3.3169,0
73.8745,-44.0526,-3.30278,0
73.8308,-43.8549,-3.2879,0
73.7831,-43.6554,-3.27222,0
73.7351,-43.4509,-3.25554,0
73.7241,-43.2065,-3.23574,0
73.709,-42.9564,-3.21478,0
73.6895,-42.7003,-3.19258,0
73.6654,-42.4382,-3.16911,0
73.6359,-42.1706,-3.14434,0
73.5907,-41.9087,-3.11895,0
73.5401,-41.6419,-3.09225,0
73.4834,-41.3701,-3.06417,0
73.4206,-41.0932,-3.03467,0
73.4061,-40.736,-2.99837,0
73.4134,-40.3252,-2.9568,0
73.4104,-39.9024,-2.91276,0
73.3546,-39.5337,-2.87113,0
73.2899,-39.1553,-2.82718,0
73.2156,-38.7672,-2.78086,0
71.9886,-40.4932,-2.90212,174
73.5359,-36.9813,-2.60039,0
73.5699,-36.2156,-2.51543,0
75.2454,-59.5639,-2.39041,0
75.2055,-59.0279,-2.4631,0
75.1576,-58.5138,-2.53152,0
75.0466,-57.9549,-2.60303,0
74.9624,-57.4603,-2.66586,0
74.8753,-56.9907,-2.72447,0
74.7817,-56.5404,-2.7796,0
74.6805,-56.1071,-2.8316,0
74.6453,-55.7595,-2.87347,0
74.6982,-55.5074,-2.90445,0
74.7451,-55.2578,-2.9343,0
74.7859,-55.0107,-2.96304,0
74.8211,-54.7663,-2.9907,0
74.8488,-54.5232,-3.01741,0
74.8712,-54.2832,-3.04305,0
74.8891,-54.0465,-3.06762,0
74.9023,-53.8132,-3.09114,0
74.911,-53.5833,-3.11364,0
74.9155,-53.3568,-3.13513,0
74.8944,-53.1217,-3.1569,0
74.8748,-52.8941,-3.17729,0
74.852,-52.6711,-3.19666,0
74.8261,-52.4526,-3.21505,0
74.7968,-52.2384,-3.23249,0
74.7647,-52.0285,-3.24901,0
74.7298,-51.8228,-3.26463,0
74.6924,-51.6214,-3.27938,0
74.6525,-51.4241,-3.29329,0
74.6104,-51.2308,-3.30639,0
74.566,-51.0415,-3.3187,0
74.5253,-50.8576,-3.33006,0
74.5169,-50.6857,-3.33953,0
74.5056,-50.5154,-3.34841,0
74.4916,-50.3467,-3.35672,0
74.4748,-50.1796,-3.36446,0
74.4552,-50.0142,-3.37165,0
74.433,-49.8504,-3.3783,0
74.4084,-49.6883,-3.3844,0
74.381,-49.5279,-3.38997,0
74.3512,-49.3691,-3.39503,0
74.3191,-49.212,-3.39956,0
74.2845,-49.0565,-3.4036,0
74.2562,-48.9027,-3.40692,0
74.2366,-48.7499,-3.40947,0
74.2147,-48.5978,-3.41156,0
74.1905,-48.4465,-3.41318,0
74.1844,-48.2941,-3.41383,0
74.182,-48.1408,-3.41386,0
74.1773,-47.9872,-3.41345,0
74.17,-47.8332,-3.41255,0
74.1602,-47.6788,-3.41119,0
74.148,-47.5241,-3.40936,0
74.1333,-47.369,-3.40705,0
74.116,-47.2137,-3.40426,0
74.0961,-47.058,-3.40099,0
74.0737,-46.902,-3.39724,0
74.0487,-46.7457,-3.39299,0
74.0166,-46.5908,-3.38836,0
73.9809,-46.4362,-3.38328,0
73.9423,-46.2816,-3.37771,0
73.9012,-46.1271,-3.37162,0
73.8574,-45.9727,-3.36504,0
73.8378,-45.8051,-3.35701,0
73.8222,-45.6326,-3.34814,0
73.8035,-45.4584,-3.33866,0
73.7817,-45.2826,-3.32854,0
73.7566,-45.1051,-3.31778,0
73.7284,-44.9259,-3.30636,0
73.6966,-44.7451,-3.29426,0
73.6616,-44.5626,-3.28147,0
73.6228,-44.3786,-3.26797,0
73.5805,-44.1929,-3.25373,0
73.5343,-44.0057,-3.23876,0
73.4844,-43.8169,-3.22303,0
73.4305,-43.6266,-3.20652,0
73.3799,-43.4279,-3.18872,0
73.358,-43.1953,-3.16778,0
73.3316,-42.9578,-3.14568,0
73.3008,-42.7153,-3.12238,0
73.262,-42.4711,-3.09809,0
73.2115,-42.23,-3.07311,0
73.1555,-41.9849,-3.04693,0
73.0938,-41.7359,-3.01946,0
73.0262,-41.483,-2.99069,0
72.9523,-41.2262,-2.96058,0
72.8812,-40.9523,-2.92799,0
72.864,-40.58,-2.88608,0
72.8073,-40.2457,-2.8459,0
72.7327,-39.9192,-2.80497,0
72.0989,-40.5753,-2.84836,174
71.8702,-40.5481,-2.83267,174
72.454,-38.9013,-2.66988,0
75.2142,-59.1334,-2.4489,0
75.1679,-58.615,-2.51815,0
75.0635,-58.0576,-2.58986,0
74.9795,-57.5573,-2.65362,0
74.893,-57.0827,-2.71307,0
74.8017,-56.6298,-2.76874,0
74.7009,-56.192,-2.82149,0
74.6339,-55.8102,-2.86714,0
74.6881,-55.5577,-2.89835,0
74.7362,-55.3076,-2.92841,0
74.7782,-55.06,-2.95738,0
74.8145,-54.815,-2.98525,0
74.8437,-54.5716,-3.01216,0
74.8672,-54.3309,-3.03802,0
74.8859,-54.0936,-3.06279,0
74.8999,-53.8596,-3.08652,0
74.9095,-53.6291,-3.10922,0
74.915,-53.4019,-3.13092,0
74.898,-53.1678,-3.15268,0
74.879,-52.9392,-3.1733,0
74.8568,-52.7153,-3.19287,0
74.8316,-52.496,-3.21144,0
74.8029,-52.2809,-3.22907,0
74.7712,-52.0701,-3.24577,0
74.737,-51.8636,-3.26157,0
74.7001,-51.6614,-3.27649,0
74.6608,-51.4632,-3.29057,0
74.619,-51.2691,-3.30384,0
74.575,-51.0791,-3.3163,0
74.529,-50.8928,-3.32801,0
74.5188,-50.72,-3.33768,0
74.5081,-50.5493,-3.34668,0
74.4947,-50.3803,-3.3551,0
74.4784,-50.2129,-3.36296,0
74.4594,-50.0472,-3.37026,0
74.4377,-49.8831,-3.37701,0
74.4134,-49.7206,-3.38322,0
74.3867,-49.5598,-3.3889,0
74.3574,-49.4007,-3.39405,0
74.3257,-49.2433,-3.3987,0
74.2916,-49.0875,-3.40283,0
74.2599,-48.9334,-3.40635,0
74.2408,-48.7804,-3.409,0
74.2193,-48.6282,-3.41119,0
74.1955,-48.4767,-3.41289,0
74.1845,-48.3247,-3.41377,0
74.1827,-48.1715,-3.41389,0
74.1784,-48.018,-3.41357,0
74.1716,-47.864,-3.41277,0
74.1624,-47.7097,-3.41151,0
74.1506,-47.5551,-3.40977,0
74.1365,-47.4001,-3.40756,0
74.1196,-47.2448,-3.40486,0
74.1003,-47.0892,-3.40169,0
74.0784,-46.9332,-3.39803,0
74.054,-46.777,-3.39387,0
74.0234,-46.6217,-3.38932,0
73.9882,-46.4671,-3.38434,0
73.9503,-46.3125,-3.37886,0
73.9098,-46.158,-3.37287,0
73.8664,-46.0036,-3.36639,0
73.8406,-45.8394,-3.35871,0
73.8255,-45.6672,-3.34997,0
73.8075,-45.4934,-3.3406,0
73.7863,-45.3179,-3.33063,0
73.762,-45.1407,-3.31999,0
73.7343,-44.9619,-3.30869,0
73.7033,-44.7814,-3.29674,0
73.6688,-44.5993,-3.28408,0
73.6309,-44.4155,-3.27072,0
73.5892,-44.2302,-3.25664,0
73.5439,-44.0433,-3.24182,0
73.4947,-43.8548,-3.22624,0
73.4415,-43.6648,-3.20988,0
73.3844,-43.4734,-3.19274,0
73.3627,-43.2423,-3.17206,0
73.3373,-43.0058,-3.1502,0
73.3073,-42.7642,-3.12715,0
73.2715,-42.5189,-3.10294,0
73.222,-42.2785,-3.07821,0
73.1671,-42.0342,-3.05227,0
73.1066,-41.786,-3.02507,0
73.0402,-41.5339,-2.99656,0
72.9676,-41.2779,-2.96672,0
72.8887,-41.0181,-2.93549,0
72.8679,-40.6557,-2.89467,0
72.8212,-40.3102,-2.85384,0
72.7484,-39.9851,-2.81332,0
72.6667,-39.6533,-2.77079,0
71.8995,-40.5838,-2.83853,174
72.4753,-38.9709,-2.67949,0
72.3644,-38.6208,-2.6306,0
75.2225,-59.2398,-2.43453,0
75.1777,-58.717,-2.50463,0
75.1027,-58.1885,-2.57354,0
74.9965,-57.6552,-2.64124,0
74.9105,-57.1757,-2.7015,0
74.8216,-56.7202,-2.75774,0
74.7212,-56.2778,-2.81122,0
74.6377,-55.8758,-2.85921,0
74.6777,-55.608,-2.89219,0
74.727,-55.3574,-2.92249,0
74.7702,-55.1093,-2.95168,0
74.8077,-54.8638,-2.97976,0
74.8384,-54.6201,-3.00685,0
74.8628,-54.3788,-3.03293,0
74.8825,-54.1408,-3.05792,0
74.8975,-53.9062,-3.08186,0
74.908,-53.6749,-3.10475,0
74.9142,-53.4471,-3.12665,0
74.9013,-53.2141,-3.14843,0
74.883,-52.9846,-3.16925,0
74.8615,-52.7598,-3.18903,0
74.8368,-52.5395,-3.2078,0
74.8089,-52.3236,-3.22562,0
74.7778,-52.1119,-3.24251,0
74.7441,-51.9046,-3.25847,0
74.7077,-51.7015,-3.27358,0
74.6688,-51.5025,-3.28782,0
74.6276,-51.3077,-3.30124,0
74.584,-51.1168,-3.31387,0
74.5384,-50.9298,-3.32572,0
74.5207,-50.7543,-3.33581,0
74.5105,-50.5834,-3.34492,0
74.4976,-50.414,-3.35347,0
74.4819,-50.2463,-3.36143,0
74.4634,-50.0802,-3.36884,0
74.4423,-49.9158,-3.3757,0
74.4185,-49.753,-3.38202,0
74.3923,-49.5919,-3.3878,0
74.3634,-49.4324,-3.39307,0
74.3323,-49.2747,-3.39781,0
74.2986,-49.1185,-3.40204,0
74.2635,-48.9641,-3.40576,0
74.2448,-48.8109,-3.4085,0
74.2237,-48.6586,-3.41078,0
74.2005,-48.507,-3.41259,0
74.1846,-48.3553,-3.41368,0
74.1833,-48.2022,-3.41391,0
74.1795,-48.0487,-3.41367,0
74.1732,-47.8949,-3.41297,0
74.1645,-47.7406,-3.4118,0
74.1532,-47.586,-3.41015,0
74.1395,-47.4311,-3.40804,0
74.1232,-47.2759,-3.40545,0
74.1044,-47.1203,-3.40236,0
74.083,-46.9645,-3.3988,0
74.059,-46.8083,-3.39474,0
74.0301,-46.6527,-3.39026,0
73.9955,-46.498,-3.38538,0
73.9581,-46.3434,-3.38,0
73.918,-46.1889,-3.37411,0
73.8753,-46.0345,-3.36773,0
73.8432,-45.8736,-3.36039,0
73.8288,-45.7018,-3.35177,0
73.8113,-45.5283,-3.34253,0
73.7909,-45.3531,-3.33268,0
73.7671,-45.1763,-3.32217,0
73.7401,-44.9978,-3.31102,0
73.7098,-44.8176,-3.29919,0
73.676,-44.6358,-3.28667,0
73.6387,-44.4524,-3.27345,0
73.5979,-44.2674,-3.25952,0
73.5533,-44.0808,-3.24485,0
73.5048,-43.8926,-3.22942,0
73.4525,-43.703,-3.21323,0
73.3961,-43.5118,-3.19624,0
73.3673,-43.289,-3.17631,0
73.3427,-43.0535,-3.15466,0
73.3138,-42.813,-3.13185,0
73.28,-42.5674,-3.10781,0
73.2323,-42.3269,-3.08325,0
73.1785,-42.0834,-3.05757,0
73.1191,-41.836,-3.03061,0
73.0539,-41.5846,-3.00237,0
72.9827,-41.3294,-2.97279,0
72.905,-41.0704,-2.94185,0
72.8716,-40.7308,-2.90318,0
72.8348,-40.3745,-2.86173,0
72.7635,-40.0507,-2.82158,0
72.6837,-39.7203,-2.77946,0
71.9393,-40.5996,-2.84259,174
71.8061,-40.3924,-2.81049,174
72.3875,-38.6913,-2.64056,0
74.2999,-58.2627,-2.45266,0
74.2654,-57.7933,-2.51922,0
74.2239,-57.3434,-2.58188,0
74.1762,-56.9122,-2.64083,0
74.1257,-56.5022,-2.69595,0
74.1141,-56.1568,-2.7423,0
74.0973,-55.8227,-2.78623,0
74.1645,-55.5874,-2.81779,0
74.2255,-55.3537,-2.84831,0
74.2807,-55.1216,-2.87778,0
74.3301,-54.8913,-2.90624,0
74.3739,-54.663,-2.93369,0
74.4123,-54.4368,-2.96015,0
74.4454,-54.2128,-2.98562,0
74.4735,-53.9911,-3.01013,0
74.4968,-53.7718,-3.03368,0
74.5255,-53.5617,-3.05553,0
74.5591,-53.3594,-3.07588,0
74.5532,-53.1379,-3.09781,0
74.5427,-52.9197,-3.11879,0
74.5287,-52.7056,-3.13879,0
74.5113,-52.4955,-3.1578,0
74.4909,-52.2894,-3.1759,0
74.4674,-52.0871,-3.19307,0
74.4412,-51.8887,-3.20938,0
74.4122,-51.6941,-3.22484,0
74.3805,-51.5032,-3.23945,0
74.3465,-51.3159,-3.25327,0
74.31,-51.1323,-3.26632,0
74.2712,-50.9522,-3.27862,0
74.253,-50.7817,-3.28922,0
74.2468,-50.617,-3.2986,0
74.2378,-50.4538,-3.3074,0
74.2259,-50.292,-3.31566,0
74.2115,-50.1317,-3.32337,0
74.1943,-49.9728,-3.33054,0
74.1745,-49.8155,-3.33717,0
74.1523,-49.6597,-3.34329,0
74.1275,-49.5054,-3.3489,0
74.1002,-49.3527,-3.354,0
74.0706,-49.2015,-3.3586,0
74.0531,-49.052,-3.36223,0
74.037,-48.9035,-3.36528,0
74.0185,-48.7556,-3.36785,0
73.9978,-48.6086,-3.36996,0
73.9748,-48.4622,-3.37162,0
73.9659,-48.3151,-3.3723,0
73.9631,-48.167,-3.37225,0
73.958,-48.0185,-3.37174,0
73.9505,-47.8698,-3.37079,0
73.9405,-47.7207,-3.36938,0
73.9281,-47.5713,-3.3675,0
73.9133,-47.4216,-3.36515,0
73.8959,-47.2716,-3.36234,0
73.8761,-47.1214,-3.35904,0
73.8538,-46.9709,-3.35528,0
73.8256,-46.8213,-3.35115,0
73.7931,-46.6723,-3.34661,0
73.758,-46.5233,-3.34158,0
73.7202,-46.3744,-3.33607,0
73.6798,-46.2256,-3.33008,0
73.6368,-46.077,-3.3236,0
73.5938,-45.9272,-3.31651,0
73.5767,-45.7625,-3.30765,0
73.5566,-45.5964,-3.29818,0
73.5334,-45.4289,-3.2881,0
73.5072,-45.2599,-3.27741,0
73.4778,-45.0895,-3.26609,0
73.4451,-44.9177,-3.2541,0
73.409,-44.7444,-3.24147,0
73.3695,-44.5699,-3.22815,0
73.3264,-44.394,-3.21413,0
73.2797,-44.2168,-3.19941,0
73.2294,-44.0383,-3.18396,0
73.1752,-43.8586,-3.16777,0
73.1171,-43.6777,-3.15083,0
73.055,-43.4957,-3.13312,0
73.0199,-43.2811,-3.11202,0
72.9854,-43.0575,-3.08942,0
72.9447,-42.8315,-3.06581,0
72.8918,-42.6098,-3.04174,0
72.8338,-42.385,-3.01654,0
72.7705,-42.1571,-2.99019,0
72.7016,-41.9262,-2.96265,0
72.6269,-41.6924,-2.93389,0
72.5461,-41.4556,-2.90387,0
72.4591,-41.2162,-2.87258,0
72.3704,-40.9666,-2.83925,0
72.2903,-40.6874,-2.80203,0
72.0643,-40.6518,-2.78679,174
71.8577,-40.5869,-2.76815,174
71.9973,-39.8334,-2.68102,0
74.2729,-57.8857,-2.50621,0
74.2327,-57.4319,-2.56964,0
74.1862,-56.997,-2.62932,0
74.1342,-56.5806,-2.68546,0
74.117,-56.225,-2.73322,0
74.1008,-55.8884,-2.77766,0
74.1515,-55.6344,-2.81156,0
74.2137,-55.4003,-2.84228,0
74.2701,-55.1679,-2.87196,0
74.3206,-54.9373,-2.90062,0
74.3655,-54.7085,-2.92828,0
74.405,-54.4819,-2.95493,0
74.4392,-54.2574,-2.9806,0
74.4684,-54.0352,-3.0053,0
74.4925,-53.8155,-3.02904,0
74.5184,-53.6024,-3.05136,0
74.5527,-53.3998,-3.07187,0
74.555,-53.182,-3.09348,0
74.5451,-52.9631,-3.11467,0
74.5316,-52.7482,-3.13487,0
74.515,-52.5373,-3.15408,0
74.4952,-52.3303,-3.17236,0
74.4724,-52.1273,-3.18971,0
74.4467,-51.9281,-3.20619,0
74.4182,-51.7327,-3.22181,0
74.3871,-51.5411,-3.23659,0
74.3535,-51.3531,-3.25058,0
74.3175,-51.1688,-3.26378,0
74.2791,-50.988,-3.27622,0
74.2539,-50.8148,-3.28727,0
74.2483,-50.6499,-3.29677,0
74.2398,-50.4863,-3.30569,0
74.2285,-50.3242,-3.31405,0
74.2145,-50.1636,-3.32187,0
74.198,-50.0045,-3.32915,0
74.1787,-49.8469,-3.33589,0
74.157,-49.6908,-3.34212,0
74.1327,-49.5362,-3.34782,0
74.1059,-49.3831,-3.35302,0
74.0768,-49.2316,-3.35772,0
74.0561,-49.0818,-3.36157,0
74.0404,-48.9331,-3.3647,0
74.0223,-48.7852,-3.36737,0
74.0021,-48.6379,-3.36959,0
73.9795,-48.4915,-3.37132,0
73.966,-48.3447,-3.37224,0
73.9638,-48.1967,-3.37229,0
73.9592,-48.0483,-3.37188,0
73.9522,-47.8996,-3.37102,0
73.9427,-47.7505,-3.36969,0
73.9309,-47.6012,-3.36792,0
73.9164,-47.4516,-3.36566,0
73.8996,-47.3016,-3.36294,0
73.8802,-47.1515,-3.35974,0
73.8584,-47.0011,-3.35608,0
73.8318,-46.8511,-3.352,0
73.7998,-46.7021,-3.34756,0
73.7652,-46.5531,-3.34262,0
73.728,-46.4042,-3.33722,0
73.6881,-46.2554,-3.33132,0
73.6456,-46.1067,-3.32493,0
73.6005,-45.9582,-3.31806,0
73.5803,-45.7956,-3.30947,0
73.5609,-45.6298,-3.30013,0
73.5384,-45.4625,-3.29017,0
73.5127,-45.2938,-3.2796,0
73.4839,-45.1237,-3.2684,0
73.4519,-44.9521,-3.25655,0
73.4164,-44.7792,-3.24404,0
73.3776,-44.6049,-3.23086,0
73.3353,-44.4293,-3.21699,0
73.2894,-44.2524,-3.20241,0
73.2397,-44.0741,-3.18711,0
73.1863,-43.8947,-3.17107,0
73.129,-43.714,-3.15428,0
73.0678,-43.5322,-3.13673,0
73.0263,-43.3253,-3.11642,0
72.9926,-43.1026,-3.09403,0
72.9544,-42.8757,-3.07051,0
72.9028,-42.6544,-3.04664,0
72.8459,-42.4302,-3.02168,0
72.7836,-42.203,-2.99555,0
72.7159,-41.9727,-2.96826,0
72.6423,-41.7394,-2.93974,0
72.5628,-41.5032,-2.90999,0
72.477,-41.2643,-2.87894,0
72.385,-41.0227,-2.84659,0
72.3071,-40.7433,-2.80959,0
72.2198,-40.4624,-2.77119,0
71.8903,-40.6159,-2.77348,174
72.0193,-39.8912,-2.68955,0
71.9054,-39.6017,-2.64627,0
74.2801,-57.9789,-2.49305,0
74.2413,-57.5212,-2.55725,0
74.196,-57.0826,-2.61766,0
74.1451,-56.6624,-2.67451,0
74.1195,-56.2937,-2.72404,0
74.1045,-55.9549,-2.76895,0
74.1383,-55.6814,-2.80528,0
74.2017,-55.447,-2.83621,0
74.2593,-55.2143,-2.86611,0
74.311,-54.9833,-2.89497,0
74.3569,-54.7541,-2.92283,0
74.3976,-54.5271,-2.94968,0
74.4328,-54.3021,-2.97554,0
74.4629,-54.0795,-3.00043,0
74.488,-53.8592,-3.02437,0
74.5109,-53.6432,-3.04716,0
74.5462,-53.4402,-3.06783,0
74.5566,-53.2264,-3.08912,0
74.5473,-53.0066,-3.11051,0
74.5346,-52.7909,-3.1309,0
74.5186,-52.5792,-3.1503,0
74.4994,-52.3714,-3.16877,0
74.4772,-52.1676,-3.18631,0
74.452,-51.9677,-3.20296,0
74.4241,-51.7715,-3.21875,0
74.3935,-51.5791,-3.2337,0
74.3605,-51.3904,-3.24784,0
74.3248,-51.2054,-3.26119,0
74.287,-51.0239,-3.27379,0
74.2548,-50.848,-3.28531,0
74.2496,-50.6828,-3.29491,0
74.2417,-50.5189,-3.30394,0
74.231,-50.3566,-3.31242,0
74.2176,-50.1956,-3.32034,0
74.2014,-50.0362,-3.32773,0
74.1827,-49.8783,-3.33458,0
74.1615,-49.7219,-3.34091,0
74.1377,-49.567,-3.34672,0
74.1115,-49.4136,-3.35202,0
74.0827,-49.2618,-3.35682,0
74.0589,-49.1117,-3.36089,0
74.0437,-48.9628,-3.36411,0
74.0262,-48.8147,-3.36688,0
74.0064,-48.6673,-3.36918,0
73.9843,-48.5207,-3.37101,0
73.9662,-48.3743,-3.37219,0
73.9645,-48.2263,-3.37232,0
73.9603,-48.078,-3.37199,0
73.9538,-47.9293,-3.37122,0
73.9448,-47.7804,-3.37,0
73.9334,-47.6311,-3.3683,0
73.9195,-47.4815,-3.36614,0
73.9032,-47.3317,-3.36352,0
73.8843,-47.1816,-3.36042,0
73.863,-47.0312,-3.35685,0
73.8379,-46.881,-3.35284,0
73.8063,-46.7319,-3.34849,0
73.7723,-46.5829,-3.34365,0
73.7356,-46.434,-3.33833,0
73.6963,-46.2852,-3.33253,0
73.6544,-46.1365,-3.32625,0
73.6098,-45.9879,-3.31947,0
73.5838,-45.8286,-3.31126,0
73.565,-45.6631,-3.30203,0
73.543,-45.4961,-3.29221,0
73.5181,-45.3277,-3.28177,0
73.4899,-45.1579,-3.2707,0
73.4586,-44.9866,-3.25898,0
73.4238,-44.8139,-3.2466,0
73.3856,-44.6399,-3.23355,0
73.3441,-44.4646,-3.21982,0
73.2988,-44.2879,-3.20538,0
73.2499,-44.1099,-3.19023,0
73.1973,-43.9307,-3.17434,0
73.1409,-43.7503,-3.15771,0
73.0804,-43.5687,-3.14029,0
73.0325,-43.3694,-3.12075,0
72.9998,-43.1475,-3.09861,0
72.9624,-42.9214,-3.07532,0
72.9136,-42.6989,-3.0515,0
72.8577,-42.4753,-3.02676,0
72.7965,-42.2487,-3.00089,0
72.7298,-42.019,-2.97382,0
72.6575,-41.7863,-2.94555,0
72.5791,-41.5507,-2.91604,0
72.4947,-41.3124,-2.88526,0
72.4039,-41.0713,-2.85317,0
72.3236,-40.7991,-2.81708,0
72.238,-40.5189,-2.779,0
71.9229,-40.6447,-2.77876,174
71.7683,-40.4824,-2.75023,174
71.929,-39.6598,-2.65506,0
73.5099,-57.1765,-2.51012,0
73.5362,-56.8356,-2.56194,0
73.5584,-56.508,-2.61085,0
73.5737,-56.1888,-2.65753,0
73.5823,-55.8779,-2.70207,0
73.6484,-55.6438,-2.73592,0
73.722,-55.4258,-2.76687,0
73.7899,-55.2087,-2.79685,0
73.852,-54.9926,-2.82591,0
73.9086,-54.7778,-2.85402,0
73.9597,-54.5642,-2.8812,0
74.0056,-54.3522,-2.90746,0
74.0463,-54.1418,-2.93281,0
74.097,-53.9443,-2.95588,0
74.1442,-53.7487,-2.97803,0
74.1873,-53.5543,-2.99938,0
74.2262,-53.3612,-3.01995,0
74.2292,-53.1496,-3.04227,0
74.2271,-52.9407,-3.06371,0
74.2214,-52.7353,-3.0842,0
74.2123,-52.5335,-3.10375,0
74.2001,-52.3351,-3.12239,0
74.1847,-52.1403,-3.14014,0
74.1663,-51.9488,-3.15703,0
74.1451,-51.7607,-3.17309,0
74.121,-51.576,-3.18834,0
74.0944,-51.3947,-3.20281,0
74.0652,-51.2166,-3.21651,0
74.0337,-51.0417,-3.22947,0
74.0023,-50.8707,-3.24157,0
74.0008,-50.7114,-3.25139,0
73.9964,-50.5534,-3.26066,0
73.9893,-50.3966,-3.26938,0
73.9795,-50.2412,-3.27756,0
73.967,-50.0871,-3.28522,0
73.952,-49.9344,-3.29236,0
73.9344,-49.7831,-3.29897,0
73.9142,-49.6331,-3.30508,0
73.8917,-49.4846,-3.31071,0
73.8698,-49.3376,-3.3157,0
73.8592,-49.1924,-3.31967,0
73.8464,-49.0479,-3.32317,0
73.8312,-48.9041,-3.32622,0
73.8139,-48.7611,-3.3288,0
73.7942,-48.6187,-3.33093,0
73.7724,-48.477,-3.33261,0
73.7609,-48.3348,-3.33335,0
73.7579,-48.1915,-3.33322,0
73.7524,-48.0479,-3.33266,0
73.7448,-47.904,-3.33165,0
73.7347,-47.7599,-3.33019,0
73.7221,-47.6155,-3.32827,0
73.7072,-47.4708,-3.3259,0
73.6898,-47.3259,-3.32306,0
73.6701,-47.1808,-3.31977,0
73.6455,-47.0362,-3.31611,0
73.6162,-46.8923,-3.31207,0
73.5842,-46.7484,-3.30758,0
73.5497,-46.6047,-3.30261,0
73.5127,-46.4611,-3.29718,0
73.473,-46.3177,-3.29129,0
73.4309,-46.1744,-3.28489,0
73.386,-46.0313,-3.27803,0
73.3493,-45.8829,-3.27013,0
73.328,-45.7242,-3.26071,0
73.3038,-45.5642,-3.2507,0
73.2766,-45.403,-3.2401,0
73.2463,-45.2405,-3.22889,0
73.2128,-45.0769,-3.21705,0
73.176,-44.9121,-3.20459,0
73.1359,-44.7461,-3.19145,0
73.0924,-44.5791,-3.17766,0
73.0455,-44.4109,-3.1632,0
72.9949,-44.2418,-3.14805,0
72.9407,-44.0716,-3.13219,0
72.8828,-43.9005,-3.11562,0
72.8211,-43.7285,-3.09831,0
72.7555,-43.5557,-3.08026,0
72.7023,-43.3647,-3.05983,0
72.6602,-43.1544,-3.03688,0
72.6059,-42.9496,-3.01366,0
72.5466,-42.7423,-2.98941,0
72.4823,-42.5326,-2.9641,0
72.4128,-42.3205,-2.9377,0
72.3372,-42.1072,-2.91029,0
72.253,-41.8959,-2.88216,0
72.163,-41.6834,-2.85296,0
72.0668,-41.4697,-2.82265,0
71.9573,-41.2672,-2.79247,0
71.8319,-41.0822,-2.76309,0
71.7194,-40.863,-2.72912,0
71.6147,-40.6143,-2.69087,0
73.5308,-56.9022,-2.55188,0
73.5545,-56.5729,-2.60124,0
73.5712,-56.252,-2.64836,0
73.5812,-55.9395,-2.69332,0
73.6329,-55.6875,-2.72962,0
73.7077,-55.4694,-2.76074,0
73.7768,-55.2521,-2.79093,0
73.8401,-55.0358,-2.82017,0
73.8977,-54.8207,-2.84846,0
73.9499,-54.6069,-2.87583,0
73.9968,-54.3945,-2.90228,0
74.0386,-54.1838,-2.92781,0
74.0869,-53.9835,-2.95134,0
74.1351,-53.7877,-2.97365,0
74.179,-53.5931,-2.99518,0
74.2188,-53.3997,-3.0159,0
74.2292,-53.1918,-3.03786,0
74.2278,-52.9822,-3.0595,0
74.2228,-52.7761,-3.08018,0
74.2145,-52.5736,-3.0999,0
74.2028,-52.3745,-3.11873,0
74.188,-52.179,-3.13666,0
74.1702,-51.9868,-3.15372,0
74.1495,-51.7981,-3.16995,0
74.126,-51.6127,-3.18536,0
74.0999,-51.4307,-3.19998,0
74.0713,-51.2519,-3.21383,0
74.0402,-51.0764,-3.22694,0
74.0068,-50.9041,-3.23931,0
74.0013,-50.7432,-3.24947,0
73.9975,-50.5849,-3.25885,0
73.9909,-50.4279,-3.26767,0
73.9816,-50.2722,-3.27597,0
73.9698,-50.1179,-3.28373,0
73.9552,-49.9649,-3.29097,0
73.938,-49.8133,-3.29769,0
73.9184,-49.663,-3.3039,0
73.8965,-49.5142,-3.30962,0
73.8719,-49.3667,-3.31485,0
73.8616,-49.2214,-3.31891,0
73.8491,-49.0768,-3.32251,0
73.8344,-48.9329,-3.32564,0
73.8175,-48.7896,-3.32832,0
73.7984,-48.6471,-3.33054,0
73.777,-48.5053,-3.33231,0
73.7612,-48.3635,-3.33333,0
73.7587,-48.2202,-3.33329,0
73.7537,-48.0767,-3.33281,0
73.7465,-47.9329,-3.33188,0
73.7369,-47.7888,-3.33051,0
73.7248,-47.6444,-3.32869,0
73.7104,-47.4998,-3.32641,0
73.6935,-47.3549,-3.32366,0
73.6742,-47.2098,-3.32046,0
73.6511,-47.065,-3.31685,0
73.6223,-46.921,-3.31292,0
73.5908,-46.7772,-3.30851,0
73.5569,-46.6335,-3.30364,0
73.5203,-46.4899,-3.29831,0
73.4812,-46.3464,-3.2925,0
73.4395,-46.2031,-3.28622,0
73.3952,-46.0599,-3.27945,0
73.3532,-45.9145,-3.27194,0
73.3326,-45.756,-3.26264,0
73.309,-45.5963,-3.25276,0
73.2823,-45.4353,-3.24228,0
73.2527,-45.2731,-3.23119,0
73.2198,-45.1097,-3.21947,0
73.1837,-44.9452,-3.20712,0
73.1442,-44.7794,-3.19413,0
73.1015,-44.6126,-3.18048,0
73.0552,-44.4447,-3.16615,0
73.0053,-44.2757,-3.15114,0
72.9519,-44.1058,-3.13542,0
72.8948,-43.9348,-3.11899,0
72.8337,-43.763,-3.10184,0
72.7689,-43.5903,-3.08394,0
72.7101,-43.4064,-3.0643,0
72.6691,-43.1965,-3.04154,0
72.617,-42.9908,-3.01839,0
72.5588,-42.784,-2.99434,0
72.4956,-42.5747,-2.96925,0
72.4271,-42.3631,-2.94307,0
72.3534,-42.1493,-2.9158,0
72.2703,-41.9383,-2.88788,0
72.1815,-41.726,-2.85888,0
72.0866,-41.5126,-2.82881,0
71.9817,-41.3044,-2.79825,0
71.8574,-41.1191,-2.76903,0
71.7394,-40.9126,-2.7366,0
71.6363,-40.6642,-2.69863,0
71.525,-40.4146,-2.65929,0
73.5252,-56.9691,-2.54174,0
73.5504,-56.6381,-2.59154,0
73.5684,-56.3155,-2.6391,0
73.5796,-56.0013,-2.6845,0
73.6172,-55.7312,-2.72326,0
73.6933,-55.513,-2.75459,0
73.7634,-55.2955,-2.78496,0
73.8278,-55.079,-2.81439,0
73.8866,-54.8636,-2.84287,0
73.9399,-54.6496,-2.87043,0
73.9878,-54.4369,-2.89706,0
74.0307,-54.2258,-2.92278,0
74.0768,-54.0229,-2.94678,0
74.1258,-53.8268,-2.96925,0
74.1705,-53.632,-2.99092,0
74.2111,-53.4383,-3.01181,0
74.2291,-53.2342,-3.03342,0
74.2284,-53.0239,-3.05525,0
74.2241,-52.8171,-3.07612,0
74.2164,-52.6139,-3.09603,0
74.2055,-52.4141,-3.11503,0
74.1912,-52.2178,-3.13313,0
74.174,-52.025,-3.15037,0
74.1538,-51.8356,-3.16676,0
74.1309,-51.6496,-3.18234,0
74.1054,-51.4669,-3.19711,0
74.0772,-51.2874,-3.21112,0
74.0466,-51.1113,-3.22437,0
74.0136,-50.9383,-3.2369,0
74.0017,-50.775,-3.24753,0
73.9984,-50.6165,-3.25702,0
73.9924,-50.4592,-3.26595,0
73.9837,-50.3033,-3.27435,0
73.9723,-50.1487,-3.28221,0
73.9583,-49.9954,-3.28956,0
73.9417,-49.8435,-3.29638,0
73.9227,-49.693,-3.30271,0
73.9011,-49.5438,-3.30852,0
73.877,-49.3961,-3.31384,0
73.8637,-49.2504,-3.31814,0
73.8518,-49.1057,-3.32183,0
73.8376,-48.9616,-3.32506,0
73.8211,-48.8183,-3.32782,0
73.8023,-48.6756,-3.33013,0
73.7814,-48.5336,-3.33199,0
73.7614,-48.3921,-3.33327,0
73.7593,-48.2489,-3.33333,0
73.7549,-48.1054,-3.33295,0
73.7481,-47.9617,-3.33211,0
73.739,-47.8176,-3.33082,0
73.7274,-47.6733,-3.32909,0
73.7134,-47.5287,-3.3269,0
73.6971,-47.3839,-3.32426,0
73.6783,-47.2389,-3.32114,0
73.6566,-47.0938,-3.31758,0
73.6282,-46.9498,-3.31374,0
73.5973,-46.806,-3.30943,0
73.5638,-46.6622,-3.30466,0
73.5278,-46.5186,-3.29941,0
73.4892,-46.3751,-3.2937,0
73.448,-46.2317,-3.28751,0
73.4043,-46.0886,-3.28085,0
73.3579,-45.9456,-3.27369,0
73.337,-45.7878,-3.26455,0
73.314,-45.6284,-3.25479,0
73.288,-45.4677,-3.24443,0
73.2588,-45.3057,-3.23346,0
73.2266,-45.1425,-3.22187,0
73.1911,-44.9782,-3.20965,0
73.1523,-44.8127,-3.19679,0
73.1103,-44.6461,-3.18327,0
73.0647,-44.4784,-3.16907,0
73.0156,-44.3096,-3.1542,0
72.9629,-44.1398,-3.13863,0
72.9065,-43.9691,-3.12235,0
72.8462,-43.7975,-3.10533,0
72.7823,-43.6249,-3.08757,0
72.7177,-43.448,-3.06873,0
72.6777,-43.2388,-3.04619,0
72.6281,-43.0319,-3.02308,0
72.5709,-42.8255,-2.99924,0
72.5088,-42.6168,-2.97436,0
72.4413,-42.4057,-2.94841,0
72.3685,-42.1922,-2.92134,0
72.2874,-41.9807,-2.89355,0
72.1998,-41.7686,-2.86478,0
72.106,-41.5554,-2.83492,0
72.0059,-41.3416,-2.80399,0
71.8828,-41.156,-2.77494,0
71.7591,-40.9622,-2.74404,0
71.6576,-40.714,-2.70633,0
71.548,-40.4646,-2.66726,0
73.007,-56.4822,-2.53246,0
73.0457,-56.1894,-2.57897,0
73.0773,-55.9026,-2.62357,0
73.1497,-55.6778,-2.65868,0
73.2344,-55.4755,-2.68983,0
73.3135,-55.2733,-2.72012,0
73.387,-55.0714,-2.74956,0
73.4549,-54.87,-2.77813,0
73.5175,-54.6693,-2.80584,0
73.5861,-54.4795,-2.83134,0
73.651,-54.2911,-2.85593,0
73.7116,-54.1033,-2.87973,0
73.7678,-53.9162,-2.90276,0
73.8198,-53.73,-2.92501,0
73.8676,-53.5446,-2.94651,0
73.9113,-53.3602,-2.96725,0
73.9219,-53.1578,-2.9899,0
73.9274,-52.9578,-3.01172,0
73.9294,-52.7608,-3.0326,0
73.9279,-52.5668,-3.05259,0
73.923,-52.376,-3.07169,0
73.915,-52.1882,-3.08993,0
73.9038,-52.0035,-3.10735,0
73.8898,-51.8218,-3.12394,0
73.8728,-51.6431,-3.13975,0
73.853,-51.4674,-3.15477,0
73.8307,-51.2947,-3.16905,0
73.8059,-51.1249,-3.1826,0
73.7786,-50.958,-3.19545,0
73.7664,-50.7991,-3.20656,0
73.7664,-50.6461,-3.21625,0
73.7637,-50.4942,-3.22539,0
73.7583,-50.3435,-3.23402,0
73.7502,-50.194,-3.24211,0
73.7394,-50.0457,-3.2497,0
73.7263,-49.8987,-3.25679,0
73.7106,-49.7528,-3.26338,0
73.6924,-49.6083,-3.26948,0
73.6811,-49.4659,-3.27464,0
73.6738,-49.3246,-3.27904,0
73.664,-49.1841,-3.28298,0
73.652,-49.0441,-3.28647,0
73.6378,-48.9048,-3.28949,0
73.6215,-48.7662,-3.29209,0
73.6029,-48.6282,-3.29423,0
73.582,-48.4909,-3.29592,0
73.5684,-48.3533,-3.29676,0
73.565,-48.2146,-3.29657,0
73.5594,-48.0755,-3.29594,0
73.5515,-47.9363,-3.29488,0
73.5413,-47.7967,-3.29339,0
73.5287,-47.657,-3.29143,0
73.5137,-47.517,-3.28904,0
73.4964,-47.3768,-3.2862,0
73.4753,-47.2369,-3.28298,0
73.4488,-47.0978,-3.27944,0
73.4199,-46.9587,-3.27546,0
73.3886,-46.8198,-3.27101,0
73.3547,-46.681,-3.26611,0
73.3184,-46.5423,-3.26077,0
73.2794,-46.4039,-3.25496,0
73.2381,-46.2656,-3.24867,0
73.1941,-46.1275,-3.24193,0
73.1477,-45.9898,-3.23471,0
73.1159,-45.8428,-3.22593,0
73.0909,-45.6897,-3.21602,0
73.0629,-45.5356,-3.20552,0
73.0319,-45.3805,-3.19444,0
72.9978,-45.2243,-3.18275,0
72.9605,-45.0672,-3.17046,0
72.9202,-44.9091,-3.15754,0
72.8764,-44.75,-3.144,0
72.8293,-44.5901,-3.1298,0
72.7787,-44.4294,-3.11494,0
72.7248,-44.2679,-3.09942,0
72.6672,-44.1057,-3.08319,0
72.6059,-43.9427,-3.06629,0
72.5409,-43.7791,-3.04868,0
72.4721,-43.615,-3.03036,0
72.403,-43.4464,-3.0109,0
72.3483,-43.2557,-2.98842,0
72.2857,-43.0668,-2.96539,0
72.2183,-42.8765,-2.94145,0
72.1457,-42.685,-2.91657,0
72.068,-42.4923,-2.89075,0
71.9848,-42.2986,-2.86395,0
71.8962,-42.1041,-2.83618,0
71.8019,-41.909,-2.80742,0
71.7018,-41.7134,-2.77766,0
71.5841,-41.5385,-2.74924,0
71.4579,-41.3706,-2.72065,0
71.3262,-41.2047,-2.69132,0
73.0385,-56.2475,-2.56981,0
73.0716,-55.9595,-2.61479,0
73.132,-55.7183,-2.65234,0
73.2179,-55.516,-2.68367,0
73.2981,-55.3137,-2.71413,0
73.3727,-55.1118,-2.74374,0
73.4417,-54.9103,-2.77248,0
73.5055,-54.7094,-2.80037,0
73.5727,-54.5173,-2.82632,0
73.6384,-54.3287,-2.85108,0
73.6998,-54.1408,-2.87504,0
73.7569,-53.9536,-2.89821,0
73.8097,-53.7672,-2.92062,0
73.8583,-53.5816,-2.94227,0
73.9029,-53.397,-2.96316,0
73.9203,-53.1983,-2.98542,0
73.9266,-52.9976,-3.00743,0
73.9293,-52.7999,-3.0285,0
73.9285,-52.6054,-3.04866,0
73.9243,-52.4139,-3.06794,0
73.9169,-52.2255,-3.08635,0
73.9063,-52.0402,-3.10392,0
73.8927,-51.8579,-3.12069,0
73.8764,-51.6786,-3.13664,0
73.8573,-51.5023,-3.15183,0
73.8354,-51.329,-3.16625,0
73.811,-51.1586,-3.17996,0
73.7843,-50.9912,-3.19294,0
73.7661,-50.8299,-3.20457,0
73.7666,-50.6766,-3.21436,0
73.7645,-50.5245,-3.22361,0
73.7595,-50.3736,-3.23233,0
73.752,-50.2238,-3.24053,0
73.7418,-50.0753,-3.24823,0
73.7291,-49.928,-3.25541,0
73.7139,-49.7819,-3.2621,0
73.6963,-49.6371,-3.2683,0
73.6823,-49.4942,-3.27371,0
73.6754,-49.3529,-3.2782,0
73.6661,-49.2121,-3.28222,0
73.6547,-49.0721,-3.2858,0
73.6409,-48.9326,-3.28893,0
73.6248,-48.7938,-3.2916,0
73.6067,-48.6557,-3.29383,0
73.5863,-48.5183,-3.29562,0
73.5687,-48.3811,-3.29674,0
73.5659,-48.2424,-3.29664,0
73.5607,-48.1034,-3.29611,0
73.5533,-47.9641,-3.29513,0
73.5435,-47.8247,-3.29372,0
73.5314,-47.685,-3.29187,0
73.517,-47.545,-3.28956,0
73.5001,-47.4049,-3.28681,0
73.4803,-47.2648,-3.28362,0
73.4543,-47.1256,-3.28019,0
73.4259,-46.9866,-3.27629,0
73.3951,-46.8476,-3.27194,0
73.3616,-46.7087,-3.26714,0
73.3258,-46.5701,-3.26188,0
73.2874,-46.4315,-3.25615,0
73.2466,-46.2932,-3.24996,0
73.2031,-46.1551,-3.24332,0
73.1571,-46.0173,-3.23618,0
73.1206,-45.8732,-3.22785,0
73.0961,-45.7204,-3.21804,0
73.0687,-45.5666,-3.20766,0
73.0384,-45.4116,-3.19671,0
73.0049,-45.2556,-3.18514,0
72.9684,-45.0987,-3.17297,0
72.9285,-44.9408,-3.16017,0
72.8855,-44.782,-3.14675,0
72.8391,-44.6222,-3.13269,0
72.7892,-44.4616,-3.11797,0
72.7359,-44.3003,-3.10257,0
72.6791,-44.1382,-3.0865,0
72.6185,-43.9753,-3.06974,0
72.5542,-43.8119,-3.05227,0
72.4862,-43.6479,-3.03408,0
72.4143,-43.4833,-3.01516,0
72.3598,-43.2936,-2.99296,0
72.2987,-43.1047,-2.97007,0
72.2322,-42.9147,-2.94633,0
72.1606,-42.7234,-2.92163,0
72.0839,-42.5309,-2.89598,0
72.0019,-42.3375,-2.86939,0
71.9144,-42.1431,-2.84181,0
71.8212,-41.9481,-2.81325,0
71.7223,-41.7526,-2.7837,0
71.6087,-41.5723,-2.75487,0
71.4836,-41.4041,-2.72643,0
71.353,-41.2377,-2.69725,0
71.2169,-41.0735,-2.66734,0
73.0311,-56.3059,-2.56058,0
73.0655,-56.0166,-2.60593,0
73.1141,-55.7588,-2.64597,0
73.2012,-55.5564,-2.67748,0
73.2825,-55.3542,-2.7081,0
73.3582,-55.1522,-2.73788,0
73.4284,-54.9506,-2.7668,0
73.4931,-54.7495,-2.79486,0
73.5589,-54.5551,-2.82128,0
73.6256,-54.3664,-2.84619,0
73.6879,-54.1784,-2.87029,0
73.7458,-53.991,-2.89364,0
73.7995,-53.8044,-2.9162,0
73.8489,-53.6187,-2.93799,0
73.8943,-53.4339,-2.95903,0
73.9185,-53.2388,-2.98091,0
73.9256,-53.0375,-3.0031,0
73.9291,-52.8392,-3.02436,0
73.929,-52.6441,-3.0447,0
73.9254,-52.452,-3.06416,0
73.9186,-52.263,-3.08274,0
73.9087,-52.0771,-3.10048,0
73.8957,-51.8941,-3.11739,0
73.8798,-51.7143,-3.13351,0
73.8613,-51.5374,-3.14884,0
73.84,-51.3635,-3.16343,0
73.8161,-51.1925,-3.17727,0
73.7898,-51.0245,-3.1904,0
73.7656,-50.8607,-3.20255,0
73.7668,-50.7072,-3.21244,0
73.7652,-50.5549,-3.22179,0
73.7608,-50.4037,-3.23063,0
73.7537,-50.2537,-3.23893,0
73.7441,-50.1049,-3.24673,0
73.7319,-49.9574,-3.25401,0
73.7172,-49.8111,-3.2608,0
73.7,-49.666,-3.2671,0
73.6834,-49.5225,-3.27276,0
73.6769,-49.3811,-3.27733,0
73.6681,-49.2403,-3.28146,0
73.6571,-49.1001,-3.28512,0
73.6438,-48.9605,-3.28834,0
73.6283,-48.8216,-3.2911,0
73.6105,-48.6833,-3.29342,0
73.5906,-48.5457,-3.29529,0
73.569,-48.4088,-3.29671,0
73.5666,-48.2701,-3.2967,0
73.562,-48.1312,-3.29625,0
73.555,-47.992,-3.29536,0
73.5456,-47.8526,-3.29404,0
73.5341,-47.7129,-3.29227,0
73.52,-47.5731,-3.29006,0
73.5037,-47.433,-3.28739,0
73.4848,-47.2927,-3.28428,0
73.4598,-47.1534,-3.28091,0
73.4318,-47.0144,-3.2771,0
73.4014,-46.8754,-3.27284,0
73.3685,-46.7365,-3.26814,0
73.3332,-46.5978,-3.26297,0
73.2953,-46.4593,-3.25734,0
73.2549,-46.3209,-3.25125,0
73.212,-46.1828,-3.24468,0
73.1666,-46.0449,-3.23766,0
73.1252,-45.9037,-3.22974,0
73.1012,-45.7511,-3.22006,0
73.0745,-45.5974,-3.2098,0
73.0447,-45.4427,-3.19895,0
73.0118,-45.2869,-3.18751,0
72.9759,-45.1302,-3.17546,0
72.9367,-44.9725,-3.16279,0
72.8943,-44.8138,-3.14949,0
72.8486,-44.6543,-3.13555,0
72.7995,-44.4938,-3.12096,0
72.7468,-44.3326,-3.1057,0
72.6907,-44.1707,-3.08977,0
72.6309,-44.008,-3.07315,0
72.5673,-43.8446,-3.05582,0
72.5002,-43.6807,-3.03779,0
72.429,-43.5163,-3.01901,0
72.3711,-43.3318,-2.99747,0
72.3113,-43.1426,-2.97472,0
72.2459,-42.9529,-2.95115,0
72.1754,-42.7618,-2.92665,0
72.0997,-42.5695,-2.90119,0
72.0187,-42.3762,-2.87479,0
71.9323,-42.1821,-2.84742,0
71.8403,-41.9872,-2.81905,0
71.7425,-41.7917,-2.78969,0
71.6331,-41.6062,-2.76048,0
71.5091,-41.4376,-2.73218,0
71.3796,-41.2708,-2.70314,0
71.2445,-41.1062,-2.67338,0
72.5837,-55.898,-2.55085,0
72.668,-55.6906,-2.58592,0
72.7624,-55.5038,-2.6171,0
72.852,-55.3171,-2.64738,0
72.9434,-55.1383,-2.6757,0
73.0301,-54.9592,-2.70327,0
73.1123,-54.78,-2.73006,0
73.1898,-54.6009,-2.7561,0
73.263,-54.422,-2.78136,0
73.3317,-54.2433,-2.80589,0
73.3962,-54.0649,-2.82967,0
73.4565,-53.8869,-2.85272,0
73.5126,-53.7095,-2.87502,0
73.5647,-53.5327,-2.89661,0
73.6127,-53.3566,-2.91748,0
73.6298,-53.1628,-2.94043,0
73.6423,-52.9711,-2.96254,0
73.6512,-52.7822,-2.98376,0
73.6567,-52.5959,-3.0041,0
73.6587,-52.4123,-3.0236,0
73.6573,-52.2313,-3.04226,0
73.6529,-52.0531,-3.06011,0
73.6454,-51.8776,-3.07716,0
73.6349,-51.7048,-3.09344,0
73.6216,-51.5346,-3.10897,0
73.6056,-51.3671,-3.12377,0
73.587,-51.2023,-3.13785,0
73.5659,-51.0401,-3.15124,0
73.5427,-50.8807,-3.16392,0
73.5468,-50.7325,-3.17398,0
73.5481,-50.5852,-3.18351,0
73.5468,-50.4391,-3.19253,0
73.5428,-50.294,-3.20104,0
73.5363,-50.1499,-3.20905,0
73.5272,-50.007,-3.21657,0
73.5156,-49.8653,-3.2236,0
73.5024,-49.7247,-3.23009,0
73.5002,-49.5868,-3.23535,0
73.4958,-49.4493,-3.24016,0
73.4891,-49.3125,-3.24451,0
73.4802,-49.1762,-3.24842,0
73.4691,-49.0405,-3.25189,0
73.4557,-48.9054,-3.25491,0
73.4402,-48.771,-3.2575,0
73.4225,-48.6371,-3.25964,0
73.4027,-48.5039,-3.26135,0
73.387,-48.3708,-3.2623,0
73.3834,-48.2363,-3.26206,0
73.3777,-48.1015,-3.26139,0
73.3697,-47.9666,-3.26028,0
73.3594,-47.8314,-3.25875,0
73.3466,-47.696,-3.25678,0
73.3317,-47.5605,-3.25438,0
73.3138,-47.4249,-3.25157,0
73.2902,-47.2902,-3.24851,0
73.2642,-47.1556,-3.24501,0
73.2357,-47.0211,-3.24107,0
73.2049,-46.8868,-3.2367,0
73.1716,-46.7526,-3.23187,0
73.1359,-46.6185,-3.2266,0
73.0978,-46.4847,-3.22087,0
73.0572,-46.3511,-3.21469,0
73.0141,-46.2178,-3.20806,0
72.9686,-46.0847,-3.20097,0
72.9205,-45.952,-3.19342,0
72.8928,-45.8065,-3.18374,0
72.8642,-45.659,-3.17336,0
72.8327,-45.5105,-3.16242,0
72.7982,-45.3612,-3.15091,0
72.7607,-45.2111,-3.1388,0
72.7201,-45.0601,-3.1261,0
72.6762,-44.9085,-3.11278,0
72.6292,-44.7561,-3.09886,0
72.5788,-44.603,-3.08429,0
72.5252,-44.4493,-3.06911,0
72.468,-44.2951,-3.05324,0
72.4073,-44.1404,-3.03674,0
72.3422,-43.9861,-3.01966,0
72.2681,-43.8371,-3.00255,0
72.1902,-43.6885,-2.98482,0
72.1128,-43.5354,-2.9659,0
72.0429,-43.3686,-2.94474,0
71.9756,-43.1923,-2.92177,0
71.9037,-43.015,-2.89795,0
71.8269,-42.8371,-2.87325,0
71.745,-42.6586,-2.84767,0
71.6581,-42.4796,-2.82121,0
71.5659,-42.3004,-2.79385,0
71.4683,-42.121,-2.76559,0
71.3631,-41.9457,-2.73688,0
71.2417,-41.7911,-2.70976,0
71.1153,-41.6386,-2.68198,0
72.6485,-55.7279,-2.5796,0
72.7441,-55.5412,-2.61091,0
72.834,-55.3539,-2.64147,0
72.9255,-55.1741,-2.67009,0
73.0131,-54.995,-2.69781,0
73.0961,-54.8159,-2.72475,0
73.1747,-54.6368,-2.75094,0
73.2487,-54.4578,-2.77637,0
73.3184,-54.279,-2.80104,0
73.3837,-54.1005,-2.82497,0
73.4448,-53.9225,-2.84817,0
73.5018,-53.745,-2.87061,0
73.5546,-53.5681,-2.89235,0
73.6034,-53.3918,-2.91336,0
73.6268,-53.2014,-2.9359,0
73.6401,-53.0093,-2.95819,0
73.6498,-52.8198,-2.97958,0
73.6559,-52.6329,-3.00009,0
73.6585,-52.4488,-3.01976,0
73.6579,-52.2673,-3.03859,0
73.654,-52.0886,-3.0566,0
73.6471,-51.9125,-3.0738,0
73.6373,-51.7391,-3.09025,0
73.6245,-51.5684,-3.10593,0
73.6091,-51.4004,-3.12087,0
73.5909,-51.2351,-3.13509,0
73.5704,-51.0724,-3.14862,0
73.5473,-50.9123,-3.16145,0
73.5462,-50.762,-3.172,0
73.548,-50.6146,-3.18164,0
73.5472,-50.4683,-3.19076,0
73.5438,-50.3229,-3.19938,0
73.5378,-50.1787,-3.20749,0
73.5292,-50.0355,-3.2151,0
73.5181,-49.8935,-3.22223,0
73.5045,-49.7527,-3.22886,0
73.5009,-49.6143,-3.23433,0
73.4969,-49.4768,-3.23923,0
73.4906,-49.3398,-3.24368,0
73.4822,-49.2034,-3.24767,0
73.4715,-49.0676,-3.25123,0
73.4586,-48.9324,-3.25434,0
73.4435,-48.7978,-3.25701,0
73.4262,-48.6639,-3.25925,0
73.4069,-48.5305,-3.26105,0
73.3874,-48.3977,-3.2623,0
73.3844,-48.2632,-3.26215,0
73.379,-48.1285,-3.26155,0
73.3715,-47.9936,-3.26054,0
73.3616,-47.8585,-3.2591,0
73.3494,-47.7231,-3.25721,0
73.3349,-47.5876,-3.2549,0
73.3182,-47.4519,-3.25214,0
73.2951,-47.3172,-3.24916,0
73.2695,-47.1826,-3.24575,0
73.2416,-47.0481,-3.2419,0
73.2113,-46.9137,-3.23761,0
73.1784,-46.7794,-3.23287,0
73.1433,-46.6453,-3.22769,0
73.1056,-46.5115,-3.22205,0
73.0655,-46.3778,-3.21597,0
73.023,-46.2445,-3.20942,0
72.9779,-46.1113,-3.20243,0
72.9303,-45.9786,-3.19496,0
72.8981,-45.8359,-3.18575,0
72.8702,-45.6886,-3.17549,0
72.8392,-45.5403,-3.16465,0
72.8054,-45.3911,-3.15326,0
72.7684,-45.2412,-3.14127,0
72.7284,-45.0904,-3.12869,0
72.6853,-44.9389,-3.11549,0
72.6388,-44.7866,-3.1017,0
72.5891,-44.6337,-3.08726,0
72.5362,-44.4802,-3.07219,0
72.4797,-44.326,-3.05647,0
72.4198,-44.1714,-3.04009,0
72.3562,-44.0163,-3.02305,0
72.2832,-43.8669,-3.00602,0
72.2061,-43.7182,-2.98841,0
72.1284,-43.5663,-2.96977,0
72.0558,-43.4038,-2.94924,0
71.9895,-43.2276,-2.92644,0
71.9185,-43.0506,-2.90278,0
71.8427,-42.8728,-2.87826,0
71.7619,-42.6943,-2.85286,0
71.6759,-42.5154,-2.82657,0
71.5848,-42.3362,-2.79939,0
71.4882,-42.1569,-2.77132,0
71.3862,-41.9777,-2.74234,0
71.2664,-41.8219,-2.71524,0
71.141,-41.669,-2.68758,0
71.0106,-41.5183,-2.65927,0
72.6287,-55.7652,-2.57323,0
72.7253,-55.5786,-2.60471,0
72.8164,-55.3914,-2.63542,0
72.9074,-55.2099,-2.66446,0
72.9959,-55.0309,-2.69233,0
73.0799,-54.8518,-2.71943,0
73.1593,-54.6726,-2.74576,0
73.2342,-54.4936,-2.77134,0
73.3048,-54.3147,-2.79617,0
73.3709,-54.1362,-2.82024,0
73.4329,-53.9581,-2.84358,0
73.4907,-53.7805,-2.86618,0
73.5444,-53.6034,-2.88806,0
73.594,-53.427,-2.90921,0
73.6237,-53.2402,-2.93133,0
73.6378,-53.0475,-2.9538,0
73.6482,-52.8575,-2.97537,0
73.655,-52.6701,-2.99606,0
73.6583,-52.4854,-3.01589,0
73.6583,-52.3034,-3.03488,0
73.6551,-52.1241,-3.05305,0
73.6487,-51.9475,-3.07043,0
73.6395,-51.7736,-3.08702,0
73.6273,-51.6024,-3.10285,0
73.6123,-51.4338,-3.11794,0
73.5948,-51.268,-3.1323,0
73.5747,-51.1047,-3.14596,0
73.5521,-50.9441,-3.15894,0
73.5455,-50.7917,-3.17001,0
73.5479,-50.644,-3.17975,0
73.5476,-50.4975,-3.18898,0
73.5448,-50.3519,-3.19769,0
73.5391,-50.2075,-3.2059,0
73.5311,-50.0641,-3.21362,0
73.5205,-49.9219,-3.22084,0
73.5075,-49.7808,-3.22758,0
73.5014,-49.6419,-3.2333,0
73.4978,-49.5043,-3.23829,0
73.492,-49.3672,-3.24283,0
73.4841,-49.2307,-3.24692,0
73.4737,-49.0947,-3.25056,0
73.4613,-48.9594,-3.25375,0
73.4466,-48.8247,-3.25651,0
73.4298,-48.6906,-3.25884,0
73.4109,-48.5572,-3.26072,0
73.3898,-48.4243,-3.26218,0
73.3852,-48.2901,-3.2622,0
73.3803,-48.1555,-3.26171,0
73.3731,-48.0206,-3.26077,0
73.3637,-47.8855,-3.25941,0
73.352,-47.7502,-3.25762,0
73.338,-47.6147,-3.2554,0
73.3217,-47.4791,-3.25272,0
73.2999,-47.3441,-3.24979,0
73.2749,-47.2095,-3.24647,0
73.2473,-47.075,-3.24271,0
73.2175,-46.9405,-3.2385,0
73.1852,-46.8063,-3.23385,0
73.1505,-46.6721,-3.22876,0
73.1134,-46.5382,-3.22322,0
73.0737,-46.4046,-3.21721,0
73.0316,-46.2711,-3.21076,0
72.9871,-46.138,-3.20386,0
72.9401,-46.0051,-3.19649,0
72.9034,-45.8653,-3.18774,0
72.8759,-45.7181,-3.17758,0
72.8456,-45.57,-3.16686,0
72.8124,-45.4211,-3.15558,0
72.7761,-45.2712,-3.14372,0
72.7367,-45.1206,-3.13125,0
72.6942,-44.9693,-3.11819,0
72.6484,-44.8171,-3.10451,0
72.5994,-44.6644,-3.0902,0
72.547,-44.5109,-3.07526,0
72.4913,-44.3569,-3.05968,0
72.432,-44.2024,-3.04343,0
72.3691,-44.0473,-3.02652,0
72.2982,-43.8967,-3.00947,0
72.2218,-43.7479,-2.99198,0
72.1437,-43.5973,-2.97362,0
72.0684,-43.4389,-2.95369,0
72.0032,-43.263,-2.93107,0
71.9331,-43.0861,-2.90758,0
71.8583,-42.9084,-2.88323,0
71.7784,-42.7301,-2.85801,0
71.6935,-42.5513,-2.83191,0
71.6034,-42.3721,-2.80492,0
71.508,-42.1928,-2.77701,0
71.4072,-42.0136,-2.7482,0
71.2909,-41.8528,-2.7207,0
71.1665,-41.6994,-2.69318,0
71.037,-41.5482,-2.66499,0
72.328,-55.5414,-2.54388,0
72.4333,-55.3775,-2.57282,0
72.5319,-55.2098,-2.60153,0
72.6258,-55.0415,-2.62952,0
72.7153,-54.8728,-2.65679,0
72.8003,-54.7036,-2.68335,0
72.8811,-54.5342,-2.7092,0
72.9575,-54.3647,-2.73433,0
73.0296,-54.1952,-2.75875,0
73.0976,-54.0257,-2.78247,0
73.1615,-53.8565,-2.80549,0
73.2212,-53.6875,-2.8278,0
73.2772,-53.5188,-2.84943,0
73.3288,-53.3504,-2.87042,0
73.3516,-53.1646,-2.89362,0
73.3705,-52.9811,-2.91595,0
73.3859,-52.7998,-2.93743,0
73.3976,-52.6209,-2.95806,0
73.4058,-52.4442,-2.97788,0
73.4108,-52.2699,-2.99689,0
73.4124,-52.098,-3.01511,0
