72.2548,-46.021,-3.07284,0
72.22,-45.8516,-3.06486,0
72.2005,-45.6721,-3.05547,0
72.1773,-45.4914,-3.04543,0
72.1502,-45.3095,-3.03474,0
72.1191,-45.1264,-3.02336,0
72.0839,-44.9424,-3.01129,0
72.0447,-44.7573,-2.99852,0
72.0013,-44.5714,-2.98505,0
71.9535,-44.3847,-2.97085,0
71.9013,-44.1973,-2.95592,0
71.8448,-44.0093,-2.94026,0
71.7905,-43.815,-2.92338,0
71.7327,-43.6189,-2.90562,0
71.6769,-43.4155,-2.88653,0
71.6371,-43.1907,-2.86492,0
71.592,-42.9631,-2.84225,0
71.5416,-42.7327,-2.81849,0
71.4854,-42.4998,-2.79361,0
71.4234,-42.2643,-2.76758,0
71.3553,-42.0265,-2.74038,0
71.2625,-41.81,-2.71399,0
71.1615,-41.5959,-2.68683,0
71.054,-41.3824,-2.65871,0
70.9401,-41.1695,-2.62961,0
70.8289,-40.9434,-2.59825,0
70.0924,-41.7148,-2.65773,174
69.8466,-41.7458,-2.64966,174
70.5437,-40.1056,-2.48209,0
70.4137,-39.8548,-2.44337,0
70.2748,-39.6058,-2.40348,0
72.1502,-58.0255,-2.19617,0
70.9021,-56.0307,-2.46149,174
72.2522,-57.3641,-2.30046,0
72.2873,-57.0381,-2.35003,0
72.3126,-56.7164,-2.39783,0
72.3286,-56.3993,-2.44387,0
72.3359,-56.0874,-2.48813,0
72.3517,-55.7976,-2.52862,0
72.4391,-55.5858,-2.55864,0
72.5211,-55.374,-2.58778,0
72.5978,-55.1624,-2.61604,0
72.6695,-54.9513,-2.64341,0
72.7362,-54.7406,-2.6699,0
72.798,-54.5306,-2.69553,0
72.8549,-54.3213,-2.7203,0
72.9072,-54.1128,-2.74422,0
72.9548,-53.9052,-2.7673,0
72.9979,-53.6986,-2.78955,0
73.0365,-53.4931,-2.81097,0
73.0593,-53.2824,-2.83235,0
73.0532,-53.0608,-2.85444,0
73.0433,-52.8427,-2.87553,0
73.0295,-52.6281,-2.89564,0
73.0123,-52.4169,-2.91479,0
72.9917,-52.2091,-2.93301,0
72.9678,-52.0048,-2.95032,0
72.9407,-51.8039,-2.96674,0
72.9105,-51.6064,-2.98231,0
72.8776,-51.4123,-2.99704,0
72.8418,-51.2215,-3.01094,0
72.8033,-51.034,-3.02406,0
72.7691,-50.8514,-3.03611,0
72.7637,-50.6783,-3.04616,0
72.7552,-50.5066,-3.0556,0
72.7592,-50.3387,-3.06385,0
72.763,-50.1718,-3.07142,0
72.764,-50.0055,-3.07844,0
72.7622,-49.8398,-3.08491,0
72.7576,-49.6746,-3.09083,0
72.7502,-49.5101,-3.0962,0
72.7402,-49.3462,-3.10104,0
72.7273,-49.1829,-3.10532,0
72.7119,-49.0202,-3.10907,0
72.6938,-48.8583,-3.11229,0
72.673,-48.697,-3.11498,0
72.6496,-48.5365,-3.11714,0
72.6297,-48.376,-3.11858,0
72.6282,-48.2133,-3.11883,0
72.6215,-48.0505,-3.11865,0
72.6096,-47.8877,-3.11802,0
72.5949,-47.7248,-3.11686,0
72.5773,-47.5618,-3.11517,0
72.5567,-47.3986,-3.11296,0
72.5333,-47.2353,-3.11021,0
72.5069,-47.0719,-3.10693,0
72.4776,-46.9085,-3.1031,0
72.4453,-46.7451,-3.09872,0
72.41,-46.5818,-3.09381,0
72.3717,-46.4185,-3.08832,0
72.328,-46.2563,-3.08239,0
72.2788,-46.0955,-3.076,0
72.2278,-45.9345,-3.069,0
72.2101,-45.7556,-3.05991,0
72.1885,-45.5755,-3.05017,0
72.1633,-45.3941,-3.03978,0
72.134,-45.2116,-3.02872,0
72.1008,-45.028,-3.01698,0
72.0634,-44.8433,-3.00454,0
72.0219,-44.6578,-2.99139,0
71.9762,-44.4715,-2.97754,0
71.9261,-44.2844,-2.96295,0
71.8716,-44.0967,-2.94762,0
71.8159,-43.9057,-2.93134,0
71.7601,-43.71,-2.91396,0
71.6998,-43.5134,-2.89576,0
71.6562,-43.2954,-2.87509,0
71.6137,-43.0691,-2.85291,0
71.5657,-42.84,-2.82966,0
71.5122,-42.6082,-2.8053,0
71.453,-42.3739,-2.77981,0
71.3877,-42.1372,-2.75316,0
71.3072,-41.9095,-2.72627,0
71.2092,-41.6953,-2.69956,0
71.1048,-41.4815,-2.67189,0
70.9938,-41.2682,-2.64324,0
70.8764,-41.0559,-2.61363,0
70.7861,-40.7914,-2.57816,0
69.9433,-41.7587,-2.65599,174
69.7933,-41.6314,-2.63281,174
70.4752,-39.9711,-2.46149,0
70.3405,-39.7211,-2.42214,0
70.1968,-39.4734,-2.38165,0
70.8477,-56.1099,-2.44758,174
71.0204,-56.0095,-2.46839,174
72.2723,-57.189,-2.32723,0
72.302,-56.8652,-2.37586,0
72.3223,-56.5459,-2.42272,0
72.3335,-56.2315,-2.46781,0
72.3363,-55.9227,-2.51112,0
72.3992,-55.6842,-2.54481,0
72.4837,-55.4723,-2.57436,0
72.5628,-55.2606,-2.60302,0
72.6369,-55.0492,-2.63081,0
72.7059,-54.8383,-2.65771,0
72.7699,-54.628,-2.68374,0
72.8291,-54.4184,-2.70892,0
72.8835,-54.2095,-2.73323,0
72.9333,-54.0015,-2.75669,0
72.9784,-53.7944,-2.77932,0
73.0191,-53.5884,-2.80112,0
73.0554,-53.3834,-2.82211,0
73.0566,-53.1633,-2.84431,0
73.0484,-52.9436,-2.86586,0
73.0364,-52.7273,-2.88643,0
73.0208,-52.5145,-2.90602,0
73.0017,-52.3052,-2.92466,0
72.9793,-52.0993,-2.94239,0
72.9536,-51.8968,-2.95923,0
72.925,-51.6977,-2.97519,0
72.8932,-51.502,-2.9903,0
72.8587,-51.3097,-3.0046,0
72.8215,-51.1206,-3.01807,0
72.7816,-50.9349,-3.03077,0
72.7666,-50.7585,-3.04158,0
72.7595,-50.5862,-3.05129,0
72.7566,-50.4163,-3.06014,0
72.7616,-50.2492,-3.06798,0
72.7638,-50.0827,-3.07526,0
72.7634,-49.9167,-3.08197,0
72.76,-49.7512,-3.08815,0
72.754,-49.5864,-3.09378,0
72.7452,-49.4222,-3.09886,0
72.7337,-49.2586,-3.1034,0
72.7195,-49.0957,-3.1074,0
72.7026,-48.9334,-3.11087,0
72.683,-48.7718,-3.1138,0
72.6608,-48.6109,-3.1162,0
72.636,-48.4508,-3.11808,0
72.6292,-48.2889,-3.11878,0
72.626,-48.1259,-3.11876,0
72.6155,-47.9633,-3.11838,0
72.602,-47.8005,-3.11746,0
72.5858,-47.6375,-3.11603,0
72.5666,-47.4743,-3.11405,0
72.5445,-47.3111,-3.11156,0
72.5195,-47.1478,-3.10852,0
72.4916,-46.9844,-3.10494,0
72.4607,-46.821,-3.10082,0
72.4268,-46.6576,-3.09616,0
72.3899,-46.4943,-3.09094,0
72.3496,-46.3312,-3.08518,0
72.302,-46.1701,-3.07904,0
72.2511,-46.0095,-3.07234,0
72.2188,-45.8388,-3.06421,0
72.199,-45.6592,-3.05478,0
72.1755,-45.4784,-3.0447,0
72.148,-45.2964,-3.03394,0
72.1166,-45.1133,-3.02251,0
72.0813,-44.9292,-3.0104,0
72.0417,-44.7441,-2.99758,0
71.998,-44.5581,-2.98406,0
71.9498,-44.3714,-2.96981,0
71.8975,-44.1839,-2.95483,0
71.8405,-43.9959,-2.93911,0
71.7866,-43.801,-2.92214,0
71.7284,-43.6048,-2.90431,0
71.6743,-43.3995,-2.88501,0
71.6341,-43.1745,-2.86333,0
71.5887,-42.9467,-2.84059,0
71.5377,-42.7162,-2.81675,0
71.4812,-42.483,-2.79179,0
71.4187,-42.2474,-2.76568,0
71.3502,-42.0095,-2.7384,0
71.2555,-41.7947,-2.71209,0
71.154,-41.5807,-2.68486,0
71.0461,-41.3671,-2.65666,0
70.9317,-41.1544,-2.6275,0
70.8233,-40.9232,-2.59559,0
70.0455,-41.7641,-2.66152,174
69.8369,-41.7352,-2.64787,174
70.5346,-40.0877,-2.47936,0
70.4041,-39.8369,-2.44055,0
70.2646,-39.5881,-2.40059,0
72.7142,-52.5833,-2.84746,0
72.7034,-52.3814,-2.86672,0
72.6891,-52.1825,-2.88508,0
72.6716,-51.9867,-2.90257,0
72.6508,-51.7939,-2.91921,0
72.627,-51.6042,-2.93501,0
72.6001,-51.4174,-2.95,0
72.5705,-51.2337,-2.96421,0
72.5381,-51.053,-2.97763,0
72.5045,-50.8756,-2.99024,0
72.5048,-50.7093,-3.00034,0
72.5163,-50.5469,-3.00919,0
72.5248,-50.3849,-3.01747,0
72.5306,-50.2233,-3.02522,0
72.5337,-50.0622,-3.03241,0
72.534,-49.9017,-3.03907,0
72.5316,-49.7416,-3.0452,0
72.5264,-49.5821,-3.05078,0
72.5187,-49.4232,-3.05583,0
72.5082,-49.2649,-3.06036,0
72.4951,-49.1071,-3.06435,0
72.4794,-48.95,-3.06783,0
72.461,-48.7936,-3.07078,0
72.4401,-48.6377,-3.07322,0
72.4166,-48.4826,-3.07513,0
72.4034,-48.3267,-3.07604,0
72.3958,-48.1697,-3.07612,0
72.3854,-48.0126,-3.0757,0
72.3721,-47.8553,-3.07478,0
72.3561,-47.6978,-3.07332,0
72.3355,-47.5407,-3.07143,0
72.3115,-47.3837,-3.06905,0
72.2843,-47.2269,-3.06615,0
72.2541,-47.0703,-3.06275,0
72.2205,-46.9139,-3.05884,0
72.1839,-46.7578,-3.05441,0
72.1441,-46.6022,-3.04946,0
72.1011,-46.4469,-3.044,0
72.0549,-46.2921,-3.03802,0
72.0055,-46.1379,-3.03151,0
71.9529,-45.9842,-3.02449,0
71.9221,-45.8183,-3.01566,0
71.8977,-45.6465,-3.00573,0
71.8694,-45.4737,-2.99516,0
71.8373,-45.3,-2.98395,0
71.8013,-45.1255,-2.97209,0
71.7616,-44.9502,-2.95956,0
71.7176,-44.7742,-2.94635,0
71.6696,-44.5976,-2.93247,0
71.6173,-44.4206,-2.9179,0
71.5616,-44.2426,-2.90258,0
71.508,-44.0588,-2.88605,0
71.4501,-43.8742,-2.86874,0
71.3877,-43.6889,-2.85067,0
71.3206,-43.5031,-2.8318,0
71.2691,-43.2966,-2.81027,0
71.2167,-43.0836,-2.78736,0
71.1591,-42.8687,-2.76341,0
71.0958,-42.6519,-2.73842,0
71.027,-42.4334,-2.71236,0
70.9407,-42.2278,-2.68659,0
70.842,-42.0307,-2.6607,0
70.7373,-41.8344,-2.63393,0
70.6266,-41.6391,-2.60629,0
70.5099,-41.445,-2.57777,0
70.0271,-41.8322,-2.60673,174
69.8369,-41.775,-2.59091,174
70.1472,-40.8292,-2.4825,0
70.0269,-40.6003,-2.44602,0
69.8939,-40.382,-2.40943,0
71.4712,-57.1047,-2.2427,0
70.134,-55.0414,-2.53343,174
71.5945,-56.5509,-2.33389,0
71.6709,-56.3092,-2.37302,0
71.7399,-56.0685,-2.41101,0
71.8019,-55.829,-2.44786,0
71.9077,-55.6423,-2.47674,0
72.0094,-55.4553,-2.5048,0
72.1056,-55.2668,-2.53221,0
72.1966,-55.077,-2.55895,0
72.2823,-54.8862,-2.58503,0
72.3616,-54.6936,-2.61054,0
72.4279,-54.4943,-2.63615,0
72.4895,-54.2954,-2.66094,0
72.5466,-54.097,-2.68494,0
72.5991,-53.8992,-2.70813,0
72.6472,-53.7021,-2.73051,0
72.6909,-53.5058,-2.75212,0
72.7231,-53.3062,-2.77351,0
72.7253,-53.0938,-2.79604,0
72.7235,-52.8844,-2.8176,0
72.718,-52.6781,-2.83821,0
72.7088,-52.4747,-2.85789,0
72.6962,-52.2745,-2.87666,0
72.6801,-52.0772,-2.89456,0
72.6608,-51.883,-2.91158,0
72.6384,-51.6919,-2.92777,0
72.6129,-51.5038,-2.94314,0
72.5845,-51.3187,-2.9577,0
72.5535,-51.1366,-2.97149,0
72.5196,-50.9575,-2.98451,0
72.5038,-50.7861,-2.99578,0
72.5112,-50.6222,-3.00515,0
72.5212,-50.46,-3.01369,0
72.5283,-50.2983,-3.02169,0
72.5326,-50.137,-3.02914,0
72.5342,-49.9762,-3.03606,0
72.533,-49.8159,-3.04242,0
72.5291,-49.6561,-3.04825,0
72.5226,-49.4969,-3.05355,0
72.5134,-49.3383,-3.05833,0
72.5015,-49.1803,-3.06257,0
72.487,-49.0229,-3.06628,0
72.4699,-48.8661,-3.06947,0
72.4502,-48.71,-3.07215,0
72.4278,-48.5545,-3.07431,0
72.4049,-48.3996,-3.07588,0
72.3997,-48.2426,-3.07615,0
72.3905,-48.0856,-3.07597,0
72.3786,-47.9283,-3.07527,0
72.3639,-47.771,-3.07406,0
72.3456,-47.6136,-3.07237,0
72.3231,-47.4566,-3.07022,0
72.2973,-47.2997,-3.06756,0
72.2685,-47.143,-3.0644,0
72.2365,-46.9865,-3.06071,0
72.2013,-46.8303,-3.05653,0
72.163,-46.6744,-3.05182,0
72.1215,-46.5189,-3.0466,0
72.0768,-46.3639,-3.04086,0
72.0288,-46.2094,-3.03459,0
71.9777,-46.0555,-3.02782,0
71.9323,-45.8977,-3.02006,0
71.9095,-45.7264,-3.01042,0
71.8829,-45.5541,-3.00015,0
71.8527,-45.3808,-2.98924,0
71.8185,-45.2066,-2.97768,0
71.7805,-45.0317,-2.96546,0
71.7384,-44.856,-2.95257,0
71.6924,-44.6797,-2.93901,0
71.6422,-44.5028,-2.92476,0
71.5877,-44.3256,-2.9098,0
71.5334,-44.1442,-2.89382,0
71.4775,-43.96,-2.87689,0
71.4172,-43.775,-2.85916,0
71.3523,-43.5895,-2.84066,0
71.2916,-43.3947,-2.82057,0
71.2416,-43.1828,-2.79812,0
71.1865,-42.9688,-2.77466,0
71.1259,-42.7528,-2.75015,0
71.0597,-42.5351,-2.7246,0
70.9846,-42.3195,-2.69832,0
70.8885,-42.1221,-2.67283,0
70.7866,-41.9255,-2.64648,0
70.6788,-41.7296,-2.61924,0
70.5649,-41.5349,-2.59111,0
70.4449,-41.3416,-2.56213,0
69.9103,-41.8256,-2.60078,174
69.7732,-41.6796,-2.57552,174
70.0859,-40.7024,-2.46267,0
69.9566,-40.483,-2.42654,0
69.8141,-40.2771,-2.3906,0
70.0808,-55.1007,-2.52251,174
70.9819,-55.9498,-2.41262,174
71.6363,-56.4213,-2.35499,0
71.7087,-56.1801,-2.39352,0
71.774,-55.94,-2.4309,0
71.8587,-55.7286,-2.46349,0
71.9628,-55.5423,-2.49185,0
72.0616,-55.3544,-2.51957,0
72.155,-55.1653,-2.54662,0
72.2432,-54.9749,-2.573,0
72.326,-54.7836,-2.59872,0
72.3977,-54.5868,-2.62437,0
72.4615,-54.3877,-2.64954,0
72.5207,-54.189,-2.6739,0
72.5753,-53.991,-2.69746,0
72.6254,-53.7935,-2.72022,0
72.6712,-53.5969,-2.74219,0
72.7126,-53.401,-2.76338,0
72.7248,-53.1921,-2.7857,0
72.7248,-52.9813,-2.80771,0
72.721,-52.7735,-2.82876,0
72.7136,-52.5688,-2.84886,0
72.7025,-52.3671,-2.86806,0
72.688,-52.1684,-2.88636,0
72.6702,-51.9728,-2.90378,0
72.6491,-51.7803,-2.92036,0
72.6252,-51.5907,-2.93611,0
72.5981,-51.4042,-2.95104,0
72.5683,-51.2207,-2.96519,0
72.5357,-51.0402,-2.97856,0
72.5045,-50.8637,-2.99099,0
72.5057,-50.6977,-3.00099,0
72.517,-50.5353,-3.00979,0
72.5254,-50.3733,-3.01804,0
72.5309,-50.2118,-3.02575,0
72.5338,-50.0508,-3.03291,0
72.5339,-49.8902,-3.03954,0
72.5313,-49.7302,-3.04561,0
72.526,-49.5708,-3.05115,0
72.518,-49.4119,-3.05618,0
72.5073,-49.2536,-3.06066,0
72.494,-49.0959,-3.06462,0
72.4781,-48.9388,-3.06806,0
72.4596,-48.7824,-3.07098,0
72.4385,-48.6266,-3.07337,0
72.4148,-48.4715,-3.07526,0
72.403,-48.3155,-3.07607,0
72.3951,-48.1585,-3.07612,0
72.3845,-48.0013,-3.07566,0
72.371,-47.844,-3.07468,0
72.3548,-47.6866,-3.0732,0
72.334,-47.5295,-3.07128,0
72.3097,-47.3725,-3.06885,0
72.2823,-47.2157,-3.06592,0
72.2518,-47.0591,-3.06249,0
72.218,-46.9027,-3.05853,0
72.1812,-46.7467,-3.05407,0
72.1412,-46.5911,-3.04909,0
72.0979,-46.4358,-3.04359,0
72.0515,-46.2811,-3.03757,0
72.0018,-46.1269,-3.03102,0
71.9491,-45.9733,-3.02396,0
71.9205,-45.806,-3.01497,0
71.8957,-45.6342,-3.00499,0
71.8672,-45.4613,-2.99438,0
71.8349,-45.2876,-2.98313,0
71.7986,-45.113,-2.97121,0
71.7585,-44.9376,-2.95863,0
71.7144,-44.7616,-2.94539,0
71.666,-44.585,-2.93145,0
71.6135,-44.4079,-2.91684,0
71.5579,-44.2295,-2.90143,0
71.5041,-44.0456,-2.88484,0
71.4458,-43.861,-2.86748,0
71.383,-43.6757,-2.84934,0
71.3156,-43.4899,-2.83043,0
71.2655,-43.2814,-2.80867,0
71.2128,-43.0684,-2.78568,0
71.1548,-42.8533,-2.76167,0
71.0911,-42.6364,-2.7366,0
71.0218,-42.4177,-2.71047,0
70.9338,-42.2137,-2.68477,0
70.8347,-42.0167,-2.65882,0
70.7297,-41.8204,-2.63199,0
70.6185,-41.6252,-2.60428,0
70.5013,-41.4312,-2.5757,0
70.0102,-41.8334,-2.60616,174
69.8272,-41.7645,-2.5891,174
70.1398,-40.8111,-2.47976,0
70.0177,-40.5846,-2.44344,0
69.8841,-40.3665,-2.40678,0
72.4175,-52.437,-2.813,0
72.4105,-52.2451,-2.83185,0
72.4002,-52.056,-2.84985,0
72.3866,-51.8696,-2.86703,0
72.3698,-51.6858,-2.88338,0
72.3494,-51.5046,-2.89899,0
72.3223,-51.325,-2.91405,0
72.2919,-51.1481,-2.92838,0
72.2585,-50.9741,-2.94195,0
72.2588,-50.812,-2.95271,0
72.2757,-50.6554,-2.96177,0
72.2895,-50.4989,-2.97034,0
72.2999,-50.3427,-2.97839,0
72.3073,-50.1867,-2.98593,0
72.3115,-50.0311,-2.99298,0
72.3124,-49.8758,-2.99951,0
72.3103,-49.721,-3.00555,0
72.3052,-49.5666,-3.01109,0
72.2968,-49.4128,-3.01612,0
72.2855,-49.2596,-3.02066,0
72.2711,-49.107,-3.02471,0
72.2537,-48.9552,-3.02826,0
72.2334,-48.804,-3.03133,0
72.2102,-48.6537,-3.0339,0
72.1862,-48.5039,-3.03588,0
72.1694,-48.3538,-3.03693,0
72.1609,-48.2025,-3.03697,0
72.1492,-48.0511,-3.03654,0
72.1347,-47.8996,-3.03564,0
72.1171,-47.7482,-3.03423,0
72.0965,-47.5969,-3.03235,0
72.0728,-47.4457,-3.02997,0
72.0462,-47.2946,-3.0271,0
72.0165,-47.1438,-3.02374,0
71.9837,-46.9932,-3.01988,0
71.9479,-46.843,-3.01553,0
71.909,-46.6932,-3.01069,0
71.867,-46.5438,-3.00532,0
71.822,-46.3949,-2.99946,0
71.7738,-46.2465,-2.99312,0
71.7226,-46.0988,-2.98624,0
71.6682,-45.9517,-2.97888,0
71.6404,-45.7892,-2.9692,0
71.6112,-45.6247,-2.95879,0
71.5784,-45.4595,-2.94776,0
71.542,-45.2936,-2.93611,0
71.5017,-45.1271,-2.92381,0
71.4576,-44.9601,-2.9109,0
71.4096,-44.7927,-2.89732,0
71.3576,-44.6249,-2.88309,0
71.3034,-44.4554,-2.86806,0
71.2498,-44.2816,-2.85193,0
71.192,-44.1074,-2.83507,0
71.1298,-43.9326,-2.8175,0
71.0635,-43.7576,-2.79916,0
69.9694,-44.6153,-2.88461,174
70.9251,-43.3987,-2.7594,0
70.8665,-43.1995,-2.73635,0
70.8027,-42.9988,-2.71233,0
70.7335,-42.7969,-2.68734,0
70.653,-42.6012,-2.6621,0
70.5568,-42.4189,-2.63738,0
70.455,-42.2375,-2.61185,0
70.3477,-42.0572,-2.58552,0
69.2647,-43.3624,-2.71866,174
70.0201,-41.8554,-2.54731,174
69.8313,-41.797,-2.53173,174
69.8611,-41.3534,-2.47244,0
69.722,-41.1888,-2.44293,0
69.5591,-41.0637,-2.4169,0
70.0135,-55.151,-2.45758,174
70.106,-54.9956,-2.48559,174
71.202,-56.0621,-2.33523,0
71.2787,-55.8427,-2.3718,0
71.3886,-55.668,-2.401,0
71.4973,-55.4956,-2.429,0
71.6009,-55.3214,-2.45642,0
71.6995,-55.1455,-2.48325,0
71.7932,-54.9682,-2.50946,0
71.8818,-54.7896,-2.53507,0
71.9655,-54.6098,-2.56006,0
72.0442,-54.429,-2.5844,0
72.118,-54.2474,-2.60812,0
72.187,-54.0652,-2.63118,0
72.2513,-53.8825,-2.65361,0
72.3106,-53.6994,-2.67538,0
72.3639,-53.5151,-2.69663,0
72.404,-53.3257,-2.71799,0
72.4137,-53.1221,-2.74086,0
72.4194,-52.9211,-2.7628,0
72.4213,-52.7227,-2.78383,0
72.4195,-52.527,-2.80395,0
72.4141,-52.3339,-2.8232,0
72.4054,-52.1435,-2.8416,0
72.3933,-51.9558,-2.85915,0
72.378,-51.7708,-2.87589,0
72.3595,-51.5885,-2.89182,0
72.3353,-51.408,-2.90716,0
72.3063,-51.2298,-2.92182,0
72.2742,-51.0545,-2.93575,0
72.2503,-50.8848,-2.9483,0
72.2683,-50.7281,-2.95763,0
72.2835,-50.5715,-2.96642,0
72.2955,-50.4152,-2.97471,0
72.3043,-50.2591,-2.98249,0
72.3099,-50.1033,-2.98977,0
72.3123,-49.9479,-2.99654,0
72.3117,-49.7928,-3.00281,0
72.308,-49.6382,-3.00858,0
72.3011,-49.4842,-3.01384,0
72.2911,-49.3307,-3.01862,0
72.2781,-49.1778,-3.02289,0
72.2622,-49.0256,-3.02668,0
72.2433,-48.8741,-3.02997,0
72.2213,-48.7234,-3.03277,0
72.1964,-48.5734,-3.03508,0
72.1738,-48.4238,-3.03667,0
72.1652,-48.2727,-3.03701,0
72.1549,-48.1214,-3.0368,0
72.1418,-47.97,-3.03611,0
72.1256,-47.8185,-3.03494,0
72.1064,-47.6671,-3.03328,0
72.0842,-47.5159,-3.03113,0
72.059,-47.3647,-3.02849,0
72.0306,-47.2138,-3.02537,0
71.9994,-47.0631,-3.02174,0
71.9648,-46.9127,-3.01762,0
71.9274,-46.7627,-3.013,0
71.8869,-46.6131,-3.00788,0
71.8433,-46.4639,-3.00225,0
71.7965,-46.3153,-2.99612,0
71.7467,-46.1673,-2.98949,0
71.6938,-46.0199,-2.98237,0
71.6527,-45.8653,-2.97383,0
71.6252,-45.7012,-2.9637,0
71.5941,-45.5363,-2.95296,0
71.5594,-45.3707,-2.94158,0
71.5209,-45.2045,-2.9296,0
71.4786,-45.0377,-2.91697,0
71.4323,-44.8705,-2.9037,0
71.3822,-44.7029,-2.88979,0
71.328,-44.535,-2.8752,0
71.2752,-44.3624,-2.85951,0
71.2194,-44.1883,-2.84299,0
71.1593,-44.0138,-2.82575,0
71.0948,-43.8389,-2.80777,0
71.026,-43.6637,-2.78904,0
70.9528,-43.4884,-2.76955,0
70.8943,-43.2922,-2.74717,0
70.833,-43.0921,-2.72361,0
70.7663,-42.8908,-2.69906,0
70.6942,-42.6883,-2.67353,0
70.6022,-42.5035,-2.64895,0
70.503,-42.3216,-2.62381,0
70.3981,-42.1408,-2.59785,0
70.2877,-41.9612,-2.57109,0
69.2083,-43.2967,-2.70794,174
69.9013,-41.8528,-2.5422,174
69.7791,-41.6825,-2.51385,174
69.7873,-41.2648,-2.45671,0
69.6362,-41.1194,-2.42884,0
69.4691,-41.0007,-2.40303,0
70.0518,-55.0525,-2.47491,174
71.1641,-56.164,-2.3179,0
71.2439,-55.9445,-2.35493,0
71.3365,-55.7473,-2.38781,0
71.4474,-55.5759,-2.41607,0
71.5534,-55.4025,-2.44376,0
71.6544,-55.2274,-2.47086,0
71.7504,-55.0507,-2.49736,0
71.8413,-54.8726,-2.52326,0
71.9273,-54.6934,-2.54853,0
72.0082,-54.513,-2.57318,0
72.0844,-54.3318,-2.59718,0
72.1556,-54.1499,-2.62056,0
72.222,-53.9673,-2.64328,0
72.2837,-53.7844,-2.66536,0
72.3405,-53.6012,-2.68677,0
72.388,-53.4149,-2.70797,0
72.4097,-53.2163,-2.73036,0
72.4173,-53.0141,-2.75274,0
72.4209,-52.8145,-2.77418,0
72.4208,-52.6175,-2.79472,0
72.4171,-52.4232,-2.81438,0
72.4098,-52.2315,-2.83317,0
72.3993,-52.0426,-2.85111,0
72.3855,-51.8563,-2.86822,0
72.3685,-51.6728,-2.88452,0
72.3475,-51.4917,-2.90009,0
72.3202,-51.3122,-2.9151,0
72.2895,-51.1355,-2.92938,0
72.2575,-50.9621,-2.94281,0
72.2601,-50.8008,-2.95338,0
72.2768,-50.6442,-2.96241,0
72.2903,-50.4878,-2.97093,0
72.3006,-50.3315,-2.97895,0
72.3077,-50.1756,-2.98645,0
72.3116,-50.02,-2.99346,0
72.3123,-49.8647,-2.99996,0
72.3101,-49.7099,-3.00596,0
72.3046,-49.5556,-3.01146,0
72.2961,-49.4019,-3.01646,0
72.2845,-49.2487,-3.02097,0
72.2699,-49.0962,-3.02497,0
72.2523,-48.9443,-3.0285,0
72.2319,-48.7932,-3.03153,0
72.2084,-48.6429,-3.03406,0
72.1846,-48.4932,-3.03599,0
72.1689,-48.343,-3.03695,0
72.1601,-48.1917,-3.03696,0
72.1483,-48.0402,-3.0365,0
72.1335,-47.8888,-3.03555,0
72.1158,-47.7374,-3.03412,0
72.0948,-47.5861,-3.0322,0
72.071,-47.4349,-3.02978,0
72.0442,-47.2838,-3.02688,0
72.0143,-47.133,-3.02348,0
71.9812,-46.9825,-3.01959,0
71.9452,-46.8323,-3.0152,0
71.9061,-46.6825,-3.01031,0
71.8639,-46.5331,-3.00492,0
71.8186,-46.3842,-2.99903,0
71.7702,-46.2359,-2.99264,0
71.7188,-46.0882,-2.98574,0
71.6642,-45.9412,-2.97833,0
71.6384,-45.7775,-2.96848,0
71.609,-45.613,-2.95801,0
71.576,-45.4477,-2.94695,0
71.5393,-45.2817,-2.93525,0
71.4987,-45.1152,-2.92291,0
71.4543,-44.9482,-2.90994,0
71.4059,-44.7807,-2.89633,0
71.3537,-44.6129,-2.88206,0
71.2997,-44.443,-2.86693,0
71.2458,-44.2692,-2.85075,0
71.1877,-44.0949,-2.83385,0
71.1252,-43.9201,-2.81621,0
71.0585,-43.7451,-2.79783,0
69.9611,-44.6092,-2.8839,174
70.9211,-43.3845,-2.75779,0
70.8621,-43.1852,-2.73466,0
70.7979,-42.9845,-2.71058,0
70.7284,-42.7825,-2.68551,0
70.6464,-42.5882,-2.66037,0
70.5497,-42.4059,-2.63558,0
70.4475,-42.2246,-2.61,0
70.3397,-42.0444,-2.58362,0
69.2544,-43.3579,-2.71771,174
70.0031,-41.8567,-2.54682,174
69.8222,-41.7856,-2.5298,174
69.8514,-41.3415,-2.47035,0
69.7119,-41.1771,-2.4408,0
69.5471,-41.0552,-2.41506,0
72.1054,-52.2837,-2.78451,0
72.101,-52.1018,-2.8029,0
72.0927,-51.9221,-2.82053,0
72.0808,-51.7445,-2.83743,0
72.0651,-51.5693,-2.85358,0
72.0459,-51.3964,-2.86901,0
72.0233,-51.226,-2.88373,0
72.0147,-51.0631,-2.89657,0
72.0043,-50.9022,-2.9087,0
72.0203,-50.7503,-2.9183,0
72.0373,-50.5995,-2.92714,0
72.0512,-50.4489,-2.93548,0
72.062,-50.2983,-2.94334,0
72.0697,-50.1481,-2.9507,0
72.0743,-49.9981,-2.95758,0
72.0758,-49.8484,-2.96398,0
72.0744,-49.6992,-2.96988,0
72.0699,-49.5504,-2.97531,0
72.0624,-49.402,-2.98026,0
72.052,-49.2542,-2.98471,0
72.0387,-49.107,-2.98869,0
72.0224,-48.9605,-2.9922,0
72.0033,-48.8146,-2.99523,0
71.9846,-48.6693,-2.99761,0
71.9647,-48.5244,-2.99944,0
71.9456,-48.3797,-3.0006,0
71.937,-48.2337,-3.00059,0
71.9255,-48.0875,-3.00011,0
71.911,-47.9414,-2.99917,0
71.8937,-47.7953,-2.99777,0
71.8734,-47.6493,-2.99587,0
71.8502,-47.5034,-2.99352,0
71.8241,-47.3578,-2.99068,0
71.7949,-47.2123,-2.98737,0
71.7629,-47.0672,-2.98357,0
71.7278,-46.9224,-2.97929,0
71.6898,-46.778,-2.97453,0
71.6488,-46.634,-2.96929,0
71.6048,-46.4906,-2.96356,0
71.5579,-46.3477,-2.95734,0
71.5079,-46.2054,-2.95063,0
71.455,-46.0639,-2.94343,0
71.4029,-45.9209,-2.93548,0
71.3731,-45.764,-2.92523,0
71.3398,-45.6065,-2.91439,0
71.303,-45.4485,-2.90295,0
71.2626,-45.29,-2.89091,0
71.2184,-45.1311,-2.87827,0
71.1705,-44.972,-2.865,0
71.1188,-44.8127,-2.85112,0
71.0662,-44.6508,-2.83634,0
71.0128,-44.4862,-2.82061,0
70.9553,-44.3212,-2.8042,0
70.8937,-44.1559,-2.78709,0
70.828,-43.9905,-2.76929,0
69.9662,-44.6237,-2.83969,174
70.6841,-43.6597,-2.73155,0
70.6055,-43.4946,-2.7116,0
70.5387,-43.3111,-2.68884,0
70.4698,-43.1237,-2.66484,0
70.3945,-42.9371,-2.64008,0
70.3005,-42.7676,-2.61642,0
70.2016,-42.5991,-2.59203,0
70.0975,-42.4319,-2.56691,0
69.2616,-43.3763,-2.6705,174
69.1683,-43.2343,-2.64769,174
69.7506,-41.9456,-2.48786,0
69.6227,-41.7912,-2.46053,0
69.4895,-41.6397,-2.4326,0
69.3487,-41.4962,-2.40467,0
69.9589,-55.0677,-2.4158,174
70.0995,-54.9771,-2.43418,174
70.892,-55.6749,-2.32984,0
71.0066,-55.5168,-2.35765,0
71.1166,-55.3564,-2.38495,0
71.2218,-55.194,-2.41173,0
71.3222,-55.0298,-2.43796,0
71.4179,-54.8639,-2.46365,0
71.509,-54.6966,-2.48877,0
71.5952,-54.5278,-2.51333,0
71.6769,-54.3579,-2.5373,0
71.7538,-54.187,-2.56069,0
71.8262,-54.0152,-2.58348,0
71.894,-53.8426,-2.60567,0
71.9545,-53.6676,-2.62756,0
72.0094,-53.4915,-2.64893,0
72.054,-53.3117,-2.67025,0
72.0734,-53.1197,-2.69294,0
72.0882,-52.9293,-2.71481,0
72.0986,-52.7407,-2.7359,0
72.1045,-52.5538,-2.75619,0
72.106,-52.3689,-2.7757,0
72.1035,-52.186,-2.79446,0
72.0971,-52.0052,-2.81244,0
72.0868,-51.8267,-2.82968,0
72.0727,-51.6504,-2.84617,0
72.0552,-51.4764,-2.86194,0
72.0341,-51.3048,-2.87698,0
72.0185,-51.1383,-2.89073,0
72.0095,-50.9767,-2.90315,0
72.0113,-50.8203,-2.91403,0
72.0298,-50.6695,-2.9231,0
72.0452,-50.5188,-2.93167,0
72.0574,-50.3682,-2.93974,0
72.0664,-50.2178,-2.94734,0
72.0725,-50.0677,-2.95445,0
72.0755,-49.9179,-2.96107,0
72.0754,-49.7684,-2.9672,0
72.0723,-49.6194,-2.97285,0
72.0662,-49.4708,-2.97801,0
72.0573,-49.3228,-2.9827,0
72.0452,-49.1753,-2.98691,0
72.0303,-49.0285,-2.99063,0
72.0125,-48.8823,-2.99388,0
71.9929,-48.7367,-2.9966,0
71.9743,-48.5916,-2.99865,0
71.9529,-48.4471,-3.00022,0
71.9414,-48.3015,-3.00065,0
71.9313,-48.1554,-3.00039,0
71.9181,-48.0093,-2.99967,0
71.9022,-47.8631,-2.99848,0
71.8832,-47.7171,-2.99681,0
71.8613,-47.5712,-2.99467,0
71.8366,-47.4254,-2.99205,0
71.8088,-47.2798,-2.98896,0
71.7781,-47.1345,-2.98539,0
71.7445,-46.9896,-2.98134,0
71.7079,-46.845,-2.9768,0
71.6682,-46.7008,-2.97178,0
71.6257,-46.5571,-2.96628,0
71.5801,-46.414,-2.96028,0
71.5315,-46.2714,-2.9538,0
71.4799,-46.1295,-2.94684,0
71.4254,-45.9883,-2.93937,0
71.3873,-45.837,-2.93007,0
71.3558,-45.6797,-2.91949,0
71.3205,-45.5219,-2.90833,0
71.2818,-45.3636,-2.89658,0
71.2394,-45.2049,-2.88422,0
71.1932,-45.0459,-2.87124,0
71.1433,-44.8867,-2.85765,0
71.0897,-44.7271,-2.84341,0
71.038,-44.5627,-2.82799,0
70.9825,-44.3978,-2.81191,0
70.9228,-44.2327,-2.79511,0
70.8591,-44.0673,-2.77765,0
70.0318,-44.6519,-2.84294,174
69.9044,-44.5779,-2.83429,174
70.6425,-43.5712,-2.72095,0
70.5691,-43.3979,-2.69968,0
70.5024,-43.2108,-2.67609,0
70.4307,-43.023,-2.65159,0
70.3448,-42.8461,-2.62751,0
70.2482,-42.6772,-2.60344,0
70.1465,-42.5094,-2.57867,0
69.3551,-43.3653,-2.67188,174
69.2061,-43.3096,-2.65948,174
69.8083,-42.0182,-2.50033,0
69.6827,-41.8625,-2.4733,0
69.5519,-41.7096,-2.44565,0
69.416,-41.5598,-2.41739,0
69.2631,-41.4374,-2.39153,0
70.0047,-54.981,-2.43167,174
70.8373,-55.7476,-2.31676,0
70.9541,-55.5905,-2.3448,0
71.0662,-55.4311,-2.37234,0
71.1735,-55.2696,-2.39936,0
71.2762,-55.1063,-2.42585,0
71.3741,-54.9411,-2.45179,0
71.4673,-54.7744,-2.47718,0
71.5558,-54.6063,-2.502,0
71.6395,-54.4369,-2.52625,0
71.7188,-54.2665,-2.5499,0
71.7932,-54.095,-2.57298,0
71.8631,-53.9228,-2.59545,0
71.9275,-53.7492,-2.61741,0
71.9845,-53.5733,-2.63908,0
72.0368,-53.3971,-2.66012,0
72.065,-53.2086,-2.6825,0
72.082,-53.0175,-2.70476,0
72.0944,-52.828,-2.7262,0
72.1022,-52.6403,-2.74687,0
72.1058,-52.4545,-2.76674,0
72.1052,-52.2707,-2.78585,0
72.1006,-52.0889,-2.80419,0
72.0921,-51.9093,-2.82177,0
72.0797,-51.7319,-2.83861,0
72.0638,-51.5569,-2.85471,0
72.0444,-51.3842,-2.87008,0
72.0216,-51.2139,-2.88476,0
72.0141,-51.0515,-2.89745,0
72.0035,-50.8908,-2.90954,0
72.0216,-50.7395,-2.91894,0
72.0384,-50.5887,-2.92774,0
72.0521,-50.4381,-2.93606,0
72.0626,-50.2876,-2.94387,0
72.0701,-50.1374,-2.95121,0
72.0745,-49.9874,-2.95805,0
72.0758,-49.8378,-2.96441,0
72.0741,-49.6885,-2.97028,0
72.0695,-49.5397,-2.97567,0
72.0618,-49.3914,-2.98058,0
72.0512,-49.2437,-2.98502,0
72.0377,-49.0966,-2.98896,0
72.0211,-48.9501,-2.99243,0
72.0018,-48.8042,-2.99543,0
71.9833,-48.6589,-2.99776,0
71.9631,-48.5141,-2.99955,0
71.9452,-48.3693,-3.00061,0
71.9363,-48.2232,-3.00057,0
71.9245,-48.0771,-3.00006,0
71.9099,-47.931,-2.99909,0
71.8923,-47.7849,-2.99764,0
71.8719,-47.6389,-2.99572,0
71.8484,-47.493,-2.99334,0
71.8221,-47.3474,-2.99046,0
71.7927,-47.2019,-2.98711,0
71.7605,-47.0568,-2.98328,0
71.7252,-46.912,-2.97897,0
71.687,-46.7677,-2.97417,0
71.6458,-46.6238,-2.96889,0
71.6016,-46.4804,-2.96313,0
71.5545,-46.3375,-2.95688,0
71.5043,-46.1953,-2.95013,0
71.451,-46.0538,-2.9429,0
71.4009,-45.9097,-2.93477,0
71.3709,-45.7528,-2.92447,0
71.3373,-45.5953,-2.91359,0
71.3002,-45.4372,-2.90211,0
71.2595,-45.2787,-2.89003,0
71.2152,-45.1198,-2.87735,0
71.167,-44.9606,-2.86403,0
71.1149,-44.8013,-2.8501,0
71.0625,-44.6391,-2.83524,0
71.0088,-44.4744,-2.81946,0
70.951,-44.3094,-2.803,0
70.8892,-44.1441,-2.78585,0
70.8232,-43.9787,-2.76799,0
69.9577,-44.6178,-2.839,174
70.6785,-43.6479,-2.73015,0
70.5998,-43.4828,-2.71015,0
70.534,-43.2978,-2.68715,0
70.4646,-43.1103,-2.66309,0
70.3879,-42.9249,-2.63841,0
70.2937,-42.7555,-2.6147,0
70.1944,-42.5871,-2.59027,0
70.0898,-42.4201,-2.56508,0
69.2522,-43.3704,-2.6694,174
69.1662,-43.2167,-2.64515,174
69.7416,-41.9345,-2.48592,0
69.6134,-41.7803,-2.45857,0
69.4798,-41.629,-2.43058,0
69.3374,-41.4883,-2.40293,0
71.8095,-52.1386,-2.75943,0
71.8086,-51.9665,-2.77725,0
71.8037,-51.7962,-2.79436,0
71.7953,-51.6279,-2.81079,0
71.7834,-51.4616,-2.82651,0
71.7836,-51.3027,-2.84031,0
71.7816,-51.1456,-2.85341,0
71.7766,-50.9898,-2.86591,0
71.7779,-50.8381,-2.87713,0
71.798,-50.6927,-2.88621,0
71.815,-50.5474,-2.89482,0
71.8289,-50.4021,-2.90296,0
71.8398,-50.257,-2.91063,0
71.8479,-50.112,-2.91782,0
71.8528,-49.9673,-2.92454,0
71.8548,-49.8229,-2.93079,0
71.854,-49.6788,-2.93658,0
71.8502,-49.5351,-2.9419,0
71.8435,-49.3919,-2.94674,0
71.8339,-49.2492,-2.95112,0
71.8215,-49.107,-2.95505,0
71.8063,-48.9655,-2.9585,0
71.7925,-48.8244,-2.96124,0
71.7762,-48.6837,-2.9635,0
71.7572,-48.5436,-2.96531,0
71.7363,-48.404,-2.9666,0
71.7277,-48.2628,-2.96654,0
71.7162,-48.1217,-2.96603,0
71.7019,-47.9805,-2.96507,0
71.6848,-47.8394,-2.96364,0
71.6648,-47.6984,-2.96176,0
71.642,-47.5575,-2.95942,0
71.6163,-47.4168,-2.95662,0
71.5878,-47.2764,-2.95335,0
71.5564,-47.1363,-2.94962,0
71.5222,-46.9966,-2.94541,0
71.485,-46.8573,-2.94074,0
71.4449,-46.7184,-2.93561,0
71.402,-46.58,-2.92999,0
71.3562,-46.4422,-2.92392,0
71.3075,-46.3051,-2.91736,0
71.2559,-46.1686,-2.91034,0
71.2014,-46.0329,-2.90283,0
71.1527,-45.893,-2.89418,0
71.1191,-45.7425,-2.88352,0
71.0821,-45.5917,-2.87231,0
71.0416,-45.4405,-2.86051,0
70.9976,-45.289,-2.84815,0
70.9499,-45.1375,-2.83518,0
70.8986,-44.9858,-2.82164,0
70.8476,-44.831,-2.80711,0
70.7944,-44.6746,-2.79177,0
70.7374,-44.518,-2.77578,0
70.6766,-44.3613,-2.75914,0
70.6117,-44.2046,-2.74183,0
69.9638,-44.6313,-2.79473,174
69.8779,-44.5154,-2.78096,174
70.393,-43.7356,-2.6859,0
70.3119,-43.58,-2.66589,0
70.2313,-43.4191,-2.64449,0
70.158,-43.244,-2.62056,0
70.0692,-43.0825,-2.59749,0
69.973,-42.9254,-2.57415,0
69.8718,-42.7701,-2.55018,0
69.2678,-43.3758,-2.62066,174
69.1632,-43.2522,-2.59966,174
69.532,-42.3263,-2.47584,0
69.4091,-42.1832,-2.44988,0
69.2816,-42.043,-2.42337,0
69.1491,-41.9058,-2.39632,0
69.9285,-55.0167,-2.37002,174
70.1109,-54.9813,-2.3792,174
70.6516,-55.373,-2.31757,0
70.7623,-55.2237,-2.34418,0
70.8685,-55.0723,-2.37031,0
70.9704,-54.9189,-2.39596,0
71.0677,-54.7637,-2.42111,0
71.1607,-54.6068,-2.44575,0
71.249,-54.4481,-2.4699,0
71.3307,-54.2863,-2.49381,0
71.4079,-54.1233,-2.51719,0
71.4804,-53.9592,-2.54002,0
71.5482,-53.7942,-2.5623,0
71.6116,-53.6284,-2.58401,0
71.6704,-53.4621,-2.60515,0
71.7166,-53.2899,-2.62665,0
71.743,-53.1081,-2.64921,0
71.7648,-52.9275,-2.67103,0
71.7821,-52.7482,-2.69209,0
71.7952,-52.5703,-2.71243,0
71.804,-52.3939,-2.73203,0
71.8087,-52.2192,-2.7509,0
71.8094,-52.0462,-2.76906,0
71.8065,-51.8751,-2.78651,0
71.7997,-51.7058,-2.80325,0
71.7894,-51.5385,-2.81929,0
71.7835,-51.3762,-2.83401,0
71.783,-51.2184,-2.8474,0
71.7793,-51.062,-2.86019,0
71.7726,-50.907,-2.87237,0
71.789,-50.7602,-2.88205,0
71.8074,-50.6149,-2.89088,0
71.8228,-50.4696,-2.89924,0
71.8352,-50.3244,-2.90712,0
71.8445,-50.1793,-2.91454,0
71.8509,-50.0345,-2.92148,0
71.8544,-49.8899,-2.92796,0
71.8548,-49.7457,-2.93396,0
71.8523,-49.6018,-2.93948,0
71.847,-49.4584,-2.94455,0
71.8387,-49.3154,-2.94915,0
71.8276,-49.173,-2.95328,0
71.8137,-49.0312,-2.95695,0
71.7991,-48.8898,-2.96003,0
71.7841,-48.749,-2.96251,0
71.7663,-48.6086,-2.96453,0
71.7459,-48.4688,-2.96609,0
71.732,-48.3284,-2.96662,0
71.7219,-48.1872,-2.96633,0
71.7089,-48.046,-2.96558,0
71.693,-47.9049,-2.96436,0
71.6745,-47.7638,-2.9627,0
71.653,-47.6229,-2.96057,0
71.6286,-47.4821,-2.95798,0
71.6014,-47.3416,-2.95492,0
71.5713,-47.2013,-2.95141,0
71.5384,-47.0614,-2.94743,0
71.5027,-46.9219,-2.94297,0
71.4639,-46.7828,-2.93805,0
71.4223,-46.6442,-2.93267,0
71.3778,-46.5061,-2.9268,0
71.3305,-46.3687,-2.92047,0
71.2802,-46.2319,-2.91366,0
71.227,-46.0958,-2.90637,0
71.171,-45.9605,-2.89862,0
71.1352,-45.8124,-2.88854,0
71.0997,-45.6618,-2.87758,0
71.0609,-45.5107,-2.86606,0
71.0184,-45.3594,-2.85397,0
70.9725,-45.2079,-2.84128,0
70.9229,-45.0562,-2.828,0
70.8709,-44.9035,-2.814,0
70.8196,-44.7472,-2.79896,0
70.7645,-44.5907,-2.78328,0
70.7053,-44.434,-2.76695,0
70.6423,-44.2773,-2.74995,0
70.0333,-44.6554,-2.7973,174
69.9021,-44.5856,-2.78942,174
70.4293,-43.808,-2.69495,0
70.3501,-43.6522,-2.67526,0
70.2666,-43.4969,-2.6549,0
70.1927,-43.3253,-2.63178,0
70.1122,-43.1558,-2.60811,0
70.0182,-42.9982,-2.58507,0
69.9195,-42.8418,-2.56136,0
69.3517,-43.3792,-2.62341,174
69.2047,-43.3211,-2.61096,174
69.5875,-42.3936,-2.48769,0
69.4669,-42.2493,-2.462,0
69.3414,-42.1077,-2.43575,0
69.2111,-41.9691,-2.40894,0
69.0762,-41.8337,-2.3816,0
69.9886,-54.9499,-2.38291,174
70.5987,-55.4415,-2.30506,0
70.7114,-55.2933,-2.33189,0
70.8198,-55.1429,-2.35824,0
70.9237,-54.9904,-2.38412,0
71.0231,-54.836,-2.4095,0
71.1181,-54.6798,-2.43437,0
71.2087,-54.5221,-2.45874,0
71.2934,-54.3616,-2.48278,0
71.3727,-54.1991,-2.5064,0
71.4473,-54.0355,-2.52949,0
71.5173,-53.8709,-2.55202,0
71.5827,-53.7055,-2.57401,0
71.6436,-53.5394,-2.59541,0
71.7,-53.3727,-2.61625,0
71.7313,-53.1923,-2.63883,0
71.7552,-53.0112,-2.66099,0
71.7747,-52.8312,-2.6824,0
71.7897,-52.6527,-2.70308,0
71.8005,-52.4756,-2.72302,0
71.807,-52.3001,-2.74223,0
71.8096,-52.1263,-2.76072,0
71.8084,-51.9543,-2.7785,0
71.8033,-51.7841,-2.79557,0
71.7945,-51.6159,-2.81193,0
71.7827,-51.4499,-2.82759,0
71.7836,-51.2915,-2.84126,0
71.7813,-51.1344,-2.85433,0
71.7761,-50.9788,-2.86679,0
71.7794,-50.8277,-2.87779,0
71.7992,-50.6823,-2.88684,0
71.816,-50.537,-2.89542,0
71.8298,-50.3917,-2.90352,0
71.8405,-50.2466,-2.91115,0
71.8483,-50.1017,-2.91831,0
71.8531,-49.957,-2.925,0
71.8549,-49.8126,-2.93122,0
71.8538,-49.6685,-2.93698,0
71.8498,-49.5249,-2.94225,0
71.8429,-49.3817,-2.94707,0
71.8331,-49.239,-2.95142,0
71.8205,-49.0969,-2.95531,0
71.8052,-48.9554,-2.95872,0
71.7914,-48.8143,-2.96141,0
71.7749,-48.6737,-2.96364,0
71.7557,-48.5336,-2.96542,0
71.7359,-48.3939,-2.96661,0
71.727,-48.2528,-2.96653,0
71.7152,-48.1116,-2.96598,0
71.7008,-47.9704,-2.96498,0
71.6834,-47.8293,-2.96353,0
71.6633,-47.6883,-2.96161,0
71.6402,-47.5474,-2.95924,0
71.6144,-47.4068,-2.9564,0
71.5856,-47.2664,-2.9531,0
71.5541,-47.1263,-2.94933,0
71.5196,-46.9866,-2.94509,0
71.4822,-46.8473,-2.94039,0
71.442,-46.7085,-2.93523,0
71.3989,-46.5702,-2.92957,0
71.3528,-46.4324,-2.92346,0
71.304,-46.2953,-2.91687,0
71.2521,-46.1589,-2.90981,0
71.1974,-46.0232,-2.90227,0
71.1505,-45.8822,-2.89342,0
71.1166,-45.7318,-2.88274,0
71.0794,-45.5809,-2.87148,0
71.0386,-45.4297,-2.85966,0
70.9943,-45.2782,-2.84725,0
70.9464,-45.1266,-2.83424,0
70.8948,-44.9749,-2.82065,0
70.8439,-44.8198,-2.80603,0
70.7905,-44.6634,-2.79064,0
70.7332,-44.5068,-2.77461,0
70.672,-44.3501,-2.75793,0
70.6069,-44.1934,-2.74058,0
69.955,-44.6258,-2.7941,174
69.8802,-44.4981,-2.77886,174
70.3873,-43.7245,-2.68448,0
70.3059,-43.5689,-2.66444,0
70.2263,-43.4066,-2.6428,0
70.1526,-43.2315,-2.61882,0
70.0625,-43.0713,-2.59586,0
69.9659,-42.9143,-2.57246,0
69.8642,-42.7593,-2.54847,0
69.2588,-43.3695,-2.6195,174
69.161,-43.2347,-2.59703,174
69.5234,-42.316,-2.474,0
69.4002,-42.1731,-2.448,0
69.2722,-42.0331,-2.42145,0
69.1394,-41.8962,-2.39436,0
71.5389,-52.0059,-2.73648,0
71.5407,-51.8426,-2.75376,0
71.5402,-51.6815,-2.77025,0
71.5495,-51.5272,-2.78486,0
71.5555,-51.3741,-2.79887,0
71.5584,-51.2221,-2.8123,0
71.5583,-51.0713,-2.82514,0
71.5549,-50.9217,-2.83741,0
71.5702,-50.7792,-2.84736,0
71.5901,-50.639,-2.85621,0
71.607,-50.4987,-2.86461,0
71.6211,-50.3584,-2.87255,0
71.6322,-50.2183,-2.88003,0
71.6404,-50.0783,-2.88706,0
71.6457,-49.9385,-2.89362,0
71.6481,-49.799,-2.89974,0
71.6477,-49.6598,-2.9054,0
71.6445,-49.5209,-2.91061,0
71.6385,-49.3825,-2.91537,0
71.6297,-49.2445,-2.91967,0
71.6192,-49.1071,-2.92345,0
71.609,-48.97,-2.92657,0
71.5961,-48.8334,-2.92925,0
71.5805,-48.6973,-2.93148,0
71.5624,-48.5616,-2.93326,0
71.5416,-48.4266,-2.93461,0
71.5312,-48.2902,-2.93462,0
71.5199,-48.1537,-2.93407,0
71.5058,-48.0171,-2.93309,0
71.4889,-47.8807,-2.93166,0
71.4692,-47.7443,-2.92979,0
71.4468,-47.6082,-2.92746,0
71.4216,-47.4722,-2.9247,0
71.3937,-47.3365,-2.92147,0
71.363,-47.2011,-2.9178,0
71.3295,-47.0661,-2.91368,0
71.2931,-46.9315,-2.9091,0
71.2541,-46.7974,-2.90406,0
71.2121,-46.6638,-2.89857,0
71.1674,-46.5308,-2.89262,0
71.1199,-46.3984,-2.88622,0
71.0696,-46.2667,-2.87935,0
71.0165,-46.1357,-2.87203,0
70.9606,-46.0055,-2.86425,0
70.9144,-45.8687,-2.85488,0
70.8773,-45.7244,-2.84389,0
70.8369,-45.5799,-2.83235,0
70.793,-45.4353,-2.82025,0
70.7458,-45.2906,-2.80759,0
70.695,-45.1459,-2.79437,0
70.6455,-44.9975,-2.78007,0
70.5927,-44.8487,-2.76511,0
70.5362,-44.6997,-2.74954,0
70.4762,-44.5508,-2.73334,0
70.4123,-44.402,-2.71652,0
69.9659,-44.6345,-2.74923,174
69.8758,-44.5231,-2.73588,174
70.1975,-43.9573,-2.66225,0
70.1181,-43.8101,-2.64288,0
70.0347,-43.6635,-2.62287,0
69.9472,-43.5178,-2.60222,0
69.8585,-43.3692,-2.58042,0
69.7628,-43.2254,-2.55846,0
69.6626,-43.0833,-2.53593,0
69.2805,-43.3655,-2.56938,174
69.1581,-43.27,-2.5518,174
69.335,-42.6695,-2.465,0
69.2168,-42.5363,-2.44028,0
69.0942,-42.406,-2.41506,0
68.9673,-42.2786,-2.38933,0
70.2021,-55.3683,-2.25481,0
70.3168,-55.2312,-2.28125,0
70.4272,-55.0915,-2.3073,0
70.5332,-54.9494,-2.33295,0
70.6349,-54.805,-2.35819,0
70.7322,-54.6585,-2.383,0
70.825,-54.5101,-2.40736,0
70.9135,-54.36,-2.43126,0
70.9976,-54.2083,-2.45468,0
71.0773,-54.0552,-2.47761,0
71.1525,-53.9008,-2.50005,0
71.2234,-53.7453,-2.52198,0
71.2898,-53.5889,-2.54339,0
71.352,-53.4317,-2.56428,0
71.3995,-53.2664,-2.58598,0
71.432,-53.0942,-2.60837,0
71.4599,-52.9228,-2.63006,0
71.4836,-52.7524,-2.65107,0
71.503,-52.583,-2.67138,0
71.5183,-52.4147,-2.69101,0
71.5295,-52.2478,-2.70995,0
71.5369,-52.0823,-2.72822,0
71.5403,-51.9182,-2.74582,0
71.5401,-51.7558,-2.76275,0
71.5456,-51.5987,-2.77815,0
71.5531,-51.4451,-2.79244,0
71.5575,-51.2925,-2.80614,0
71.5587,-51.1411,-2.81925,0
71.5568,-50.991,-2.83178,0
71.5599,-50.8444,-2.84309,0
71.5812,-50.7041,-2.85215,0
71.5995,-50.5638,-2.86077,0
71.6149,-50.4235,-2.86892,0
71.6274,-50.2833,-2.87661,0
71.6369,-50.1432,-2.88385,0
71.6436,-50.0034,-2.89064,0
71.6474,-49.8637,-2.89696,0
71.6483,-49.7244,-2.90283,0
71.6464,-49.5853,-2.90825,0
71.6416,-49.4467,-2.91321,0
71.6341,-49.3085,-2.91773,0
71.6237,-49.1708,-2.92179,0
71.6141,-49.0336,-2.92518,0
71.6024,-48.8968,-2.92807,0
71.5881,-48.7604,-2.93051,0
71.5712,-48.6246,-2.93249,0
71.5516,-48.4892,-2.93404,0
71.5356,-48.3536,-2.93472,0
71.5255,-48.2171,-2.93438,0
71.5127,-48.0805,-2.93361,0
71.497,-47.944,-2.93238,0
71.4788,-47.8076,-2.93071,0
71.4576,-47.6714,-2.9286,0
71.4337,-47.5353,-2.92604,0
71.407,-47.3995,-2.92302,0
71.3777,-47.2639,-2.91956,0
71.3453,-47.1287,-2.91566,0
71.3104,-46.9939,-2.91128,0
71.2725,-46.8596,-2.90645,0
71.2319,-46.7257,-2.90118,0
71.1885,-46.5925,-2.89545,0
71.1423,-46.4598,-2.88925,0
71.0933,-46.3277,-2.8826,0
71.0415,-46.1964,-2.87549,0
70.987,-46.0659,-2.86793,0
70.9305,-45.9356,-2.85981,0
70.8949,-45.7915,-2.84906,0
70.856,-45.647,-2.83778,0
70.8138,-45.5025,-2.82593,0
70.7682,-45.3578,-2.81354,0
70.7191,-45.2131,-2.80058,0
70.6687,-45.0666,-2.78681,0
70.6177,-44.9178,-2.77214,0
70.5629,-44.7689,-2.75684,0
70.5045,-44.6199,-2.74093,0
70.4424,-44.4711,-2.72441,0
70.0488,-44.6453,-2.74981,174
69.8998,-44.5933,-2.74459,174
70.2331,-44.0259,-2.67102,0
70.1555,-43.8784,-2.65196,0
70.0738,-43.7315,-2.63224,0
69.9883,-43.5854,-2.61188,0
69.901,-43.4371,-2.5905,0
69.8078,-43.2919,-2.56873,0
69.7097,-43.149,-2.54646,0
69.3604,-43.3753,-2.57266,174
69.2094,-43.3233,-2.56125,174
69.3884,-42.7321,-2.4763,0
69.2723,-42.5978,-2.45182,0
69.1518,-42.4662,-2.42683,0
69.0268,-42.3374,-2.40133,0
68.8975,-42.2117,-2.37537,0
70.2641,-55.2952,-2.26903,0
70.3764,-55.1567,-2.29525,0
70.4845,-55.0156,-2.3211,0
70.5882,-54.8723,-2.34653,0
70.6875,-54.7267,-2.37154,0
70.7824,-54.5792,-2.39611,0
70.873,-54.4299,-2.42022,0
70.9591,-54.2789,-2.44387,0
71.0408,-54.1264,-2.46703,0
71.1181,-53.9726,-2.48969,0
71.191,-53.8177,-2.51186,0
71.2595,-53.6616,-2.53352,0
71.3237,-53.5047,-2.55466,0
71.3829,-53.3466,-2.57535,0
71.4174,-53.1741,-2.59806,0
71.4475,-53.0023,-2.62007,0
71.4732,-52.8314,-2.6414,0
71.4945,-52.6615,-2.66203,0
71.5117,-52.4927,-2.68198,0
71.5248,-52.3251,-2.70125,0
71.5339,-52.1589,-2.71983,0
71.5392,-51.9942,-2.73774,0
71.5407,-51.831,-2.75497,0
71.541,-51.6704,-2.77131,0
71.5501,-51.5163,-2.78588,0
71.5559,-51.3632,-2.79986,0
71.5586,-51.2113,-2.81324,0
71.5581,-51.0605,-2.82604,0
71.5547,-50.9111,-2.83827,0
71.5717,-50.7692,-2.848,0
71.5913,-50.6289,-2.85683,0
71.6082,-50.4886,-2.86519,0
71.6219,-50.3484,-2.87309,0
71.6328,-50.2083,-2.88054,0
71.6409,-50.0683,-2.88754,0
71.6459,-49.9285,-2.89408,0
71.6482,-49.789,-2.90016,0
71.6476,-49.6498,-2.90579,0
71.6442,-49.511,-2.91096,0
71.638,-49.3726,-2.91569,0
71.6289,-49.2347,-2.91996,0
71.6185,-49.0972,-2.92369,0
71.6082,-48.9603,-2.92678,0
71.5952,-48.8237,-2.92943,0
71.5794,-48.6876,-2.93163,0
71.561,-48.552,-2.93338,0
71.54,-48.4169,-2.93469,0
71.5306,-48.2805,-2.9346,0
71.519,-48.1439,-2.93403,0
71.5047,-48.0074,-2.933,0
71.4876,-47.8709,-2.93154,0
71.4677,-47.7346,-2.92964,0
71.4451,-47.5984,-2.92728,0
71.4198,-47.4625,-2.92449,0
71.3916,-47.3268,-2.92123,0
71.3606,-47.1915,-2.91752,0
71.327,-47.0565,-2.91337,0
71.2905,-46.9219,-2.90876,0
71.2511,-46.7878,-2.90369,0
71.2091,-46.6543,-2.89816,0
71.1641,-46.5213,-2.89218,0
71.1164,-46.3889,-2.88575,0
71.0659,-46.2573,-2.87885,0
71.0126,-46.1264,-2.87149,0
70.9565,-45.9963,-2.86368,0
70.9118,-45.8584,-2.85412,0
70.8745,-45.7141,-2.84308,0
70.8338,-45.5696,-2.8315,0
70.7898,-45.425,-2.81937,0
70.7423,-45.2802,-2.80667,0
70.6912,-45.1356,-2.79341,0
70.6417,-44.9869,-2.77902,0
70.5887,-44.838,-2.76402,0
70.5321,-44.6891,-2.7484,0
70.4717,-44.5402,-2.73216,0
70.4076,-44.3914,-2.71529,0
69.954,-44.632,-2.74902,174
69.8735,-44.5107,-2.73432,174
70.192,-43.9468,-2.66088,0
70.1123,-43.7996,-2.64147,0
70.0285,-43.6531,-2.62142,0
69.9408,-43.5074,-2.60072,0
69.8518,-43.3589,-2.57887,0
69.7558,-43.2152,-2.55687,0
69.6552,-43.0732,-2.53429,0
69.2711,-43.3599,-2.56831,174
69.1571,-43.2508,-2.54884,174
69.3267,-42.6599,-2.46325,0
69.2082,-42.527,-2.43849,0
69.0853,-42.3968,-2.41324,0
68.958,-42.2696,-2.38749,0
71.2955,-51.8864,-2.71484,0
71.3126,-51.7368,-2.73026,0
71.3263,-51.5879,-2.7451,0
71.3369,-51.4399,-2.75937,0
71.3443,-51.2929,-2.77307,0
71.3487,-51.1469,-2.7862,0
71.3499,-51.002,-2.79879,0
71.3529,-50.8595,-2.8104,0
71.3755,-50.7241,-2.81946,0
71.3952,-50.5886,-2.8281,0
71.4122,-50.453,-2.83629,0
71.4262,-50.3175,-2.84404,0
71.4374,-50.182,-2.85135,0
71.4459,-50.0466,-2.85821,0
71.4514,-49.9115,-2.86464,0
71.4542,-49.7765,-2.87062,0
71.4543,-49.6419,-2.87616,0
71.4516,-49.5076,-2.88127,0
71.4462,-49.3736,-2.88592,0
71.4403,-49.2401,-2.88998,0
71.4334,-49.107,-2.89348,0
71.4237,-48.9743,-2.89654,0
71.4115,-48.8419,-2.89918,0
71.3966,-48.71,-2.90137,0
71.3792,-48.5786,-2.90313,0
71.3592,-48.4477,-2.90446,0
71.3467,-48.3159,-2.90461,0
71.3355,-48.1837,-2.90404,0
71.3215,-48.0516,-2.90304,0
71.3048,-47.9195,-2.90162,0
71.2855,-47.7875,-2.89975,0
71.2634,-47.6557,-2.89745,0
71.2388,-47.5242,-2.89471,0
71.2114,-47.3929,-2.89155,0
71.1813,-47.2619,-2.88794,0
71.1486,-47.1314,-2.88388,0
71.113,-47.0012,-2.8794,0
71.0748,-46.8715,-2.87445,0
71.0339,-46.7424,-2.86908,0
70.9902,-46.6138,-2.86326,0
70.9438,-46.4859,-2.857,0
70.8948,-46.3586,-2.85029,0
70.843,-46.2321,-2.84314,0
70.7885,-46.1064,-2.83556,0
70.7313,-45.9816,-2.82751,0
70.6869,-45.8479,-2.81747,0
70.6466,-45.7095,-2.80617,0
70.603,-45.5711,-2.79433,0
70.5563,-45.4327,-2.78196,0
70.5066,-45.294,-2.769,0
70.4579,-45.1521,-2.75499,0
70.4056,-45.0101,-2.7404,0
70.3499,-44.8681,-2.72521,0
70.2906,-44.7263,-2.70945,0
70.2277,-44.5846,-2.69309,0
69.988,-44.6174,-2.70081,174
69.8819,-44.5223,-2.68963,174
70.017,-44.1621,-2.64041,0
69.9393,-44.0224,-2.62164,0
69.856,-43.8856,-2.60256,0
69.7649,-43.755,-2.58364,0
69.6698,-43.6261,-2.56422,0
69.5709,-43.4991,-2.5443,0
69.4726,-43.3678,-2.52299,0
69.309,-43.3313,-2.51438,174
69.1657,-43.2675,-2.5012,174
69.1564,-42.9805,-2.45517,0
69.0427,-42.8561,-2.43159,0
68.9249,-42.7344,-2.40755,0
68.803,-42.6157,-2.38303,0
69.9973,-55.0866,-2.24924,0
70.1079,-54.957,-2.27451,0
70.2144,-54.825,-2.29944,0
70.3169,-54.6905,-2.32401,0
70.4152,-54.5539,-2.34817,0
70.5095,-54.4152,-2.37195,0
70.5994,-54.2747,-2.3953,0
70.6854,-54.1324,-2.41823,0
70.7671,-53.9885,-2.44072,0
70.8447,-53.8433,-2.46276,0
70.9181,-53.6967,-2.48432,0
70.9873,-53.549,-2.50542,0
71.0526,-53.4003,-2.52603,0
71.1008,-53.2414,-2.54797,0
71.1386,-53.0783,-2.57014,0
71.1721,-52.9156,-2.59167,0
71.2013,-52.7535,-2.61256,0
71.2265,-52.5922,-2.6328,0
71.2475,-52.4317,-2.65241,0
71.2645,-52.2722,-2.67138,0
71.2777,-52.1138,-2.68971,0
71.2872,-51.9566,-2.7074,0
71.3051,-51.8062,-2.72317,0
71.3203,-51.6569,-2.73828,0
71.3323,-51.5085,-2.75282,0
71.3412,-51.3611,-2.76678,0
71.347,-51.2146,-2.78018,0
71.3497,-51.0691,-2.79301,0
71.3494,-50.9248,-2.80529,0
71.3654,-50.787,-2.81531,0
71.3864,-50.6515,-2.82415,0
71.4047,-50.5159,-2.83255,0
71.4201,-50.3804,-2.84049,0
71.4326,-50.2449,-2.848,0
71.4423,-50.1095,-2.85508,0
71.4491,-49.9742,-2.86171,0
71.4533,-49.8392,-2.86789,0
71.4546,-49.7044,-2.87364,0
71.4532,-49.5699,-2.87895,0
71.449,-49.4357,-2.88382,0
71.4427,-49.3021,-2.8882,0
71.4369,-49.1688,-2.89191,0
71.4285,-49.0359,-2.89518,0
71.4175,-48.9033,-2.89801,0
71.4038,-48.7712,-2.90041,0
71.3877,-48.6396,-2.90237,0
71.3688,-48.5084,-2.9039,0
71.3511,-48.3773,-2.90473,0
71.341,-48.2451,-2.90437,0
71.3283,-48.1129,-2.90356,0
71.3129,-47.9808,-2.90233,0
71.2948,-47.8488,-2.90067,0
71.2741,-47.7169,-2.89857,0
71.2505,-47.5852,-2.89604,0
71.2244,-47.4538,-2.89307,0
71.1956,-47.3227,-2.88966,0
71.1641,-47.1919,-2.88582,0
71.1298,-47.0616,-2.88153,0
71.0929,-46.9317,-2.8768,0
71.0533,-46.8023,-2.87163,0
71.0108,-46.6734,-2.86603,0
70.9657,-46.5452,-2.85997,0
70.9179,-46.4176,-2.85346,0
70.8674,-46.2908,-2.84653,0
70.8142,-46.1647,-2.83914,0
70.7582,-46.0394,-2.8313,0
70.7044,-45.9121,-2.82253,0
70.6656,-45.7738,-2.81148,0
70.6237,-45.6354,-2.79989,0
70.5784,-45.497,-2.78778,0
70.5298,-45.3587,-2.77512,0
70.4809,-45.218,-2.76156,0
70.4303,-45.076,-2.74725,0
70.3762,-44.934,-2.73235,0
70.3186,-44.7921,-2.71685,0
70.2573,-44.6503,-2.70076,0
70.1925,-44.5089,-2.68408,0
69.8985,-44.6,-2.69966,174
69.8715,-44.4213,-2.67631,174
69.9759,-44.0872,-2.63043,0
69.8962,-43.9479,-2.61134,0
69.8077,-43.8154,-2.59249,0
69.7145,-43.6857,-2.5733,0
69.6173,-43.5579,-2.55361,0
69.5181,-43.4294,-2.53306,0
69.4189,-43.2972,-2.51121,0
69.2295,-43.3012,-2.50798,174
69.2078,-43.0391,-2.46596,0
69.0959,-42.9135,-2.44259,0
68.9801,-42.7906,-2.41876,0
68.8601,-42.6704,-2.39446,0
68.736,-42.5533,-2.36973,0
70.057,-55.0175,-2.26282,0
70.1655,-54.8866,-2.28791,0
70.2698,-54.7532,-2.31264,0
70.3701,-54.6176,-2.33699,0
70.4662,-54.4798,-2.36096,0
70.5582,-54.3401,-2.38451,0
70.646,-54.1986,-2.40764,0
70.7298,-54.0555,-2.43034,0
70.8092,-53.9109,-2.45258,0
70.8845,-53.7649,-2.47437,0
70.9558,-53.6177,-2.49569,0
71.0228,-53.4695,-2.51652,0
71.0817,-53.3173,-2.53746,0
71.1216,-53.154,-2.55992,0
71.1571,-52.9911,-2.58175,0
71.1883,-52.8287,-2.60294,0
71.2153,-52.667,-2.62349,0
71.2382,-52.5061,-2.6434,0
71.2571,-52.3461,-2.66265,0
71.272,-52.1872,-2.68128,0
71.2833,-52.0294,-2.69926,0
71.2969,-51.8757,-2.71596,0
71.3137,-51.7261,-2.73133,0
71.3272,-51.5773,-2.74614,0
71.3375,-51.4294,-2.76037,0
71.3448,-51.2825,-2.77403,0
71.3488,-51.1365,-2.78713,0
