85.3618,-53.3359,-4.85462,0
85.2934,-53.1734,-4.86842,0
85.2225,-53.0131,-4.88143,0
85.1512,-52.8549,-4.8937,0
85.0833,-52.6978,-4.90531,0
85.013,-52.5427,-4.91619,0
84.9405,-52.3896,-4.92636,0
84.8658,-52.2386,-4.93581,0
84.789,-52.0897,-4.94456,0
84.7099,-51.9429,-4.95261,0
84.6211,-51.8007,-4.95978,0
84.5298,-51.6612,-4.96623,0
84.4366,-51.5242,-4.972,0
84.3414,-51.3897,-4.97706,0
84.2558,-51.2526,-4.98179,0
84.1868,-51.1088,-4.98643,0
84.1152,-50.9663,-4.99043,0
84.0373,-50.8272,-4.99368,0
77.6261,-63.8323,-2.21214,0
77.8398,-63.8666,-2.23723,0
78.0547,-63.8971,-2.2628,0
78.271,-63.9237,-2.28882,0
78.4886,-63.9465,-2.3153,0
78.7073,-63.9653,-2.34224,0
78.9273,-63.9801,-2.36963,0
79.1491,-63.9956,-2.39629,0
79.3729,-64.0102,-2.42268,0
79.598,-64.0206,-2.44959,0
79.8222,-64.0177,-2.47912,0
80.0407,-63.9853,-2.51495,0
79.787,-62.2745,-2.93615,174
79.8643,-61.9039,-3.04279,174
80.0238,-61.8296,-3.08048,174
80.1907,-61.7795,-3.11204,174
80.3603,-61.736,-3.14152,174
80.5389,-61.7129,-3.16605,174
81.5549,-63.6373,-2.7734,0
81.7681,-63.5701,-2.81128,0
81.9811,-63.5002,-2.84904,0
82.2045,-63.4487,-2.88231,0
82.4196,-63.377,-2.91911,0
82.6322,-63.2976,-2.9568,0
82.8434,-63.2132,-2.99478,0
83.0537,-63.1249,-3.03287,0
83.2621,-63.0313,-3.07128,0
83.4688,-62.9325,-3.11,0
83.6734,-62.8286,-3.149,0
83.8759,-62.7195,-3.18826,0
84.0761,-62.6053,-3.22775,0
84.2738,-62.4861,-3.26746,0
84.469,-62.3618,-3.30736,0
84.6614,-62.2326,-3.34742,0
84.8531,-62.1007,-3.3872,0
85.0427,-61.9646,-3.42701,0
85.2291,-61.8236,-3.46693,0
85.4123,-61.6776,-3.50697,0
85.5923,-61.5267,-3.54708,0
85.7687,-61.3711,-3.58724,0
85.9414,-61.2108,-3.62742,0
86.1104,-61.0458,-3.6676,0
86.2754,-60.8763,-3.70775,0
86.398,-60.6745,-3.75228,0
86.4446,-60.421,-3.80415,0
86.4832,-60.1678,-3.85493,0
86.5141,-59.9151,-3.90458,0
86.5376,-59.6634,-3.95306,0
86.5537,-59.4129,-4.00036,0
86.5627,-59.1639,-4.04644,0
86.5649,-58.9167,-4.09129,0
86.5875,-58.6848,-4.13294,0
86.6054,-58.4546,-4.17345,0
86.6145,-58.2243,-4.21312,0
86.6107,-57.9925,-4.25214,0
86.6016,-57.7629,-4.29,0
86.5873,-57.5355,-4.3267,0
86.568,-57.3105,-4.36226,0
86.5439,-57.088,-4.39667,0
86.5151,-56.868,-4.42994,0
86.4818,-56.6508,-4.46207,0
86.4441,-56.4364,-4.49309,0
86.4022,-56.2248,-4.52299,0
86.3562,-56.0162,-4.55179,0
86.3049,-55.8103,-4.57952,0
86.2284,-55.6042,-4.60661,0
86.1491,-55.4023,-4.63249,0
86.067,-55.2046,-4.65718,0
85.9825,-55.0111,-4.68071,0
85.8955,-54.8217,-4.70313,0
85.819,-54.6371,-4.72434,0
85.7671,-54.4568,-4.74439,0
85.7123,-54.2788,-4.76357,0
85.6549,-54.1033,-4.78189,0
85.5948,-53.9301,-4.79937,0
85.5321,-53.7593,-4.816,0
85.4669,-53.591,-4.83181,0
85.3993,-53.4251,-4.84681,0
85.3309,-53.2614,-4.86102,0
85.2612,-53.0998,-4.87446,0
85.1894,-52.9407,-4.88712,0
85.1204,-52.7828,-4.8991,0
85.0514,-52.6266,-4.91037,0
84.9802,-52.4725,-4.92093,0
84.9066,-52.3204,-4.93077,0
84.8309,-52.1703,-4.9399,0
84.753,-52.0223,-4.94832,0
84.6698,-51.8775,-4.95597,0
84.5796,-51.7367,-4.9628,0
84.4875,-51.5983,-4.96895,0
84.3933,-51.4624,-4.9744,0
84.2973,-51.329,-4.97915,0
84.2245,-51.1867,-4.98399,0
84.1544,-51.0435,-4.98833,0
84.0817,-50.9016,-4.99206,0
83.9984,-50.7655,-4.99487,0
77.6505,-63.4665,-2.24306,0
77.8562,-63.4981,-2.26734,0
78.0632,-63.526,-2.29205,0
78.2712,-63.5501,-2.31721,0
78.4805,-63.5704,-2.3428,0
78.691,-63.5869,-2.36883,0
78.9025,-63.5995,-2.39529,0
79.1149,-63.6082,-2.42217,0
79.3283,-63.6129,-2.44949,0
79.5437,-63.6187,-2.47594,0
79.7607,-63.6224,-2.5024,0
79.9706,-63.5911,-2.53673,0
79.7579,-62.0753,-2.92296,174
79.8731,-61.8457,-2.99837,174
80.0295,-61.7657,-3.03741,174
80.1929,-61.7094,-3.07019,174
80.3633,-61.6716,-3.09811,174
80.5427,-61.6536,-3.12104,174
81.4234,-63.2506,-2.78524,0
81.6246,-63.1782,-2.82317,0
81.8232,-63.0991,-2.86181,0
82.0199,-63.0154,-2.90067,0
82.2148,-62.9272,-2.93974,0
82.4162,-62.8496,-2.97579,0
82.6173,-62.7689,-3.0118,0
82.8167,-62.6833,-3.04812,0
83.0145,-62.5928,-3.08474,0
83.2103,-62.4973,-3.12164,0
83.4042,-62.397,-3.1588,0
83.5961,-62.2919,-3.19619,0
83.7858,-62.1819,-3.2338,0
83.973,-62.0671,-3.27159,0
84.1577,-61.9477,-3.30956,0
84.3398,-61.8235,-3.34768,0
84.5192,-61.6947,-3.38591,0
84.6956,-61.5612,-3.42426,0
84.8716,-61.4257,-3.46222,0
85.0445,-61.2858,-3.50024,0
85.2144,-61.1413,-3.53834,0
85.3808,-60.9923,-3.57645,0
85.5437,-60.8388,-3.61459,0
85.656,-60.6441,-3.65922,0
85.7194,-60.4142,-3.70906,0
85.7752,-60.1836,-3.75806,0
85.8237,-59.9526,-3.80614,0
85.8652,-59.7216,-3.85327,0
85.9079,-59.4961,-3.89853,0
85.9567,-59.2784,-3.94157,0
85.9996,-59.0609,-3.98374,0
86.0368,-58.8436,-4.02498,0
86.0683,-58.6268,-4.06531,0
86.0941,-58.4107,-4.1047,0
86.1103,-58.1934,-4.14347,0
86.116,-57.9751,-4.18159,0
86.1166,-57.7584,-4.21867,0
86.112,-57.5435,-4.25469,0
86.1026,-57.3305,-4.28966,0
86.0884,-57.1195,-4.32358,0
86.0697,-56.9107,-4.35645,0
86.0463,-56.7041,-4.38827,0
86.0187,-56.4999,-4.41904,0
85.987,-56.2981,-4.44877,0
85.9512,-56.0987,-4.47748,0
85.9113,-55.902,-4.50516,0
85.8552,-55.7057,-4.53222,0
85.7876,-55.5114,-4.5584,0
85.7171,-55.3209,-4.58347,0
85.6439,-55.1341,-4.60743,0
85.5695,-54.9512,-4.63029,0
85.5275,-54.7743,-4.65151,0
85.4826,-54.5996,-4.67188,0
85.4348,-54.427,-4.69141,0
85.3842,-54.2565,-4.71011,0
85.3311,-54.0883,-4.72799,0
85.2752,-53.9222,-4.74506,0
85.2169,-53.7584,-4.76132,0
85.156,-53.5968,-4.77679,0
85.0927,-53.4375,-4.79149,0
85.0284,-53.2803,-4.80542,0
84.963,-53.125,-4.8186,0
84.9014,-52.9709,-4.83106,0
84.8384,-52.8186,-4.84282,0
84.773,-52.6682,-4.85388,0
84.7054,-52.5197,-4.86423,0
84.6285,-52.375,-4.87381,0
84.5495,-52.2325,-4.88269,0
84.4682,-52.0923,-4.89087,0
84.3849,-51.9545,-4.89834,0
84.2995,-51.819,-4.90515,0
84.2122,-51.6858,-4.91127,0
84.1229,-51.555,-4.91673,0
84.0484,-51.4194,-4.92187,0
83.9831,-51.2802,-4.92664,0
83.9154,-51.1423,-4.9308,0
83.8452,-51.0056,-4.93435,0
83.7719,-50.8707,-4.93727,0
77.7443,-63.4814,-2.2541,0
77.9506,-63.5113,-2.27858,0
78.1581,-63.5375,-2.30349,0
78.3668,-63.5599,-2.32884,0
78.5766,-63.5784,-2.35464,0
78.7875,-63.5931,-2.38087,0
78.9995,-63.604,-2.40752,0
79.2123,-63.6108,-2.43461,0
79.4264,-63.615,-2.46178,0
79.6427,-63.6209,-2.48798,0
79.8568,-63.6089,-2.51797,0
80.0664,-63.5751,-2.55258,0
79.7964,-61.9191,-2.96974,174
79.9445,-61.8083,-3.01651,174
80.144,-61.8558,-3.02574,174
80.2707,-61.6923,-3.08299,174
80.4414,-61.6541,-3.11074,174
80.6432,-61.6878,-3.1219,174
80.8681,-61.7621,-3.12391,174
81.7155,-63.1426,-2.8408,0
81.9133,-63.0614,-2.87955,0
82.1092,-62.9756,-2.9185,0
82.3065,-62.8913,-2.95638,0
82.5083,-62.8133,-2.9922,0
82.7086,-62.7304,-3.02836,0
82.9073,-62.6426,-3.06482,0
83.1041,-62.5498,-3.10157,0
83.2992,-62.4521,-3.13859,0
83.4923,-62.3496,-3.17586,0
83.683,-62.2422,-3.21335,0
83.8716,-62.13,-3.25105,0
84.0577,-62.0131,-3.28893,0
84.2413,-61.8915,-3.32697,0
84.4222,-61.7652,-3.36514,0
84.6002,-61.6343,-3.40342,0
84.7764,-61.4998,-3.44161,0
84.951,-61.3623,-3.47959,0
85.1226,-61.2203,-3.51764,0
85.2908,-61.0737,-3.55574,0
85.4557,-60.9227,-3.59388,0
85.617,-60.7673,-3.63201,0
85.6859,-60.5391,-3.6821,0
85.7459,-60.3089,-3.73156,0
85.7983,-60.078,-3.78014,0
85.8436,-59.847,-3.8278,0
85.8817,-59.6161,-3.87448,0
85.9309,-59.3966,-3.91831,0
85.977,-59.179,-3.96095,0
86.0173,-58.9615,-4.0027,0
86.0519,-58.7445,-4.04353,0
86.0808,-58.528,-4.08343,0
86.1042,-58.3122,-4.12239,0
86.1136,-58.0934,-4.16103,0
86.117,-57.8758,-4.19867,0
86.1152,-57.66,-4.23527,0
86.1084,-57.4459,-4.27081,0
86.0967,-57.2339,-4.30529,0
86.0805,-57.0239,-4.33873,0
86.0595,-56.816,-4.37112,0
86.0343,-56.6105,-4.40246,0
86.0048,-56.4073,-4.43276,0
85.971,-56.2066,-4.46202,0
85.9334,-56.0085,-4.49027,0
85.8907,-55.8128,-4.51752,0
85.8247,-55.6165,-4.54432,0
85.7557,-55.4239,-4.57,0
85.6839,-55.2351,-4.59456,0
85.6095,-55.05,-4.61803,0
85.5507,-54.8701,-4.64009,0
85.5073,-54.6942,-4.66092,0
85.4611,-54.5205,-4.6809,0
85.412,-54.3488,-4.70006,0
85.3602,-54.1794,-4.71838,0
85.3059,-54.0121,-4.73589,0
85.2488,-53.8471,-4.75258,0
85.1893,-53.6843,-4.76848,0
85.1273,-53.5237,-4.78361,0
85.063,-53.3654,-4.79795,0
84.9987,-53.2091,-4.81153,0
84.9346,-53.0545,-4.82438,0
84.8729,-52.9011,-4.83652,0
84.8088,-52.7496,-4.84797,0
84.7423,-52.6001,-4.8587,0
84.6705,-52.4533,-4.8687,0
84.5927,-52.3096,-4.87796,0
84.5126,-52.1682,-4.88651,0
84.4304,-52.0291,-4.89436,0
84.3462,-51.8923,-4.90154,0
84.2598,-51.7579,-4.90803,0
84.1716,-51.6258,-4.91385,0
84.0829,-51.4954,-4.91903,0
84.0189,-51.3556,-4.92413,0
83.9524,-51.217,-4.92862,0
83.8836,-51.0797,-4.9325,0
83.8123,-50.9436,-4.93576,0
77.6329,-63.4636,-2.24099,0
77.8384,-63.4955,-2.26523,0
78.0453,-63.5237,-2.28991,0
78.2533,-63.5482,-2.31503,0
78.4626,-63.5688,-2.34058,0
78.6728,-63.5856,-2.36657,0
78.8842,-63.5986,-2.39299,0
79.0966,-63.6076,-2.41985,0
79.3099,-63.6126,-2.44712,0
79.5251,-63.6182,-2.47368,0
79.742,-63.6222,-2.5001,0
79.9526,-63.594,-2.53375,0
79.7585,-62.1336,-2.90723,174
79.8604,-61.8553,-2.99434,174
80.016,-61.7724,-3.03412,174
80.1783,-61.7126,-3.06777,174
80.3486,-61.6749,-3.09572,174
80.5257,-61.6514,-3.11993,174
80.7483,-61.7291,-3.12118,174
80.958,-61.7622,-3.13226,174
81.8062,-63.106,-2.85848,0
82.003,-63.0228,-2.89732,0
82.198,-62.9349,-2.93637,0
82.3988,-62.8563,-2.97271,0
82.6,-62.7761,-3.00869,0
82.7995,-62.6909,-3.04498,0
82.9975,-62.6008,-3.08158,0
83.1935,-62.5057,-3.11845,0
83.3877,-62.4059,-3.15559,0
83.5797,-62.3011,-3.19296,0
83.7695,-62.1916,-3.23055,0
83.957,-62.0772,-3.26834,0
84.142,-61.9581,-3.30629,0
84.3243,-61.8343,-3.34439,0
84.5039,-61.7059,-3.38262,0
84.6806,-61.5729,-3.42094,0
84.8566,-61.4376,-3.45895,0
85.0298,-61.298,-3.49697,0
85.1999,-61.1539,-3.53505,0
85.3666,-61.0053,-3.57317,0
85.5298,-60.8522,-3.61131,0
85.6502,-60.6638,-3.65489,0
85.7142,-60.434,-3.70482,0
85.7707,-60.2034,-3.75387,0
85.8199,-59.9725,-3.80204,0
85.8619,-59.7414,-3.84925,0
85.9034,-59.5148,-3.89479,0
85.9527,-59.2972,-3.93791,0
85.9962,-59.0796,-3.98014,0
86.0338,-58.8623,-4.02147,0
86.0658,-58.6454,-4.06187,0
86.0922,-58.4292,-4.10135,0
86.1095,-58.2122,-4.14014,0
86.1157,-57.9938,-4.17836,0
86.1167,-57.777,-4.21552,0
86.1127,-57.5619,-4.25164,0
86.1037,-57.3488,-4.28669,0
86.0898,-57.1376,-4.3207,0
86.0715,-56.9286,-4.35366,0
86.0485,-56.7218,-4.38557,0
86.0213,-56.5174,-4.41643,0
85.9899,-56.3153,-4.44625,0
85.9544,-56.1158,-4.47505,0
85.9148,-55.9188,-4.50282,0
85.8609,-55.7226,-4.52991,0
85.7936,-55.528,-4.55619,0
85.7233,-55.3372,-4.58135,0
85.6503,-55.1501,-4.60542,0
85.5747,-54.9667,-4.62839,0
85.5312,-54.7895,-4.64971,0
85.4866,-54.6146,-4.67015,0
85.4391,-54.4417,-4.68976,0
85.3887,-54.2711,-4.70852,0
85.3358,-54.1027,-4.72648,0
85.2801,-53.9364,-4.74361,0
85.222,-53.7724,-4.75995,0
85.1613,-53.6107,-4.7755,0
85.0983,-53.4511,-4.79026,0
85.0338,-53.2937,-4.80424,0
84.9688,-53.1383,-4.81749,0
84.9066,-52.9841,-4.83002,0
84.8438,-52.8316,-4.84184,0
84.7787,-52.6811,-4.85296,0
84.7113,-52.5324,-4.86337,0
84.6352,-52.3873,-4.87301,0
84.5564,-52.2447,-4.88195,0
84.4753,-52.1043,-4.89018,0
84.3922,-51.9663,-4.89772,0
84.307,-51.8306,-4.90458,0
84.2198,-51.6972,-4.91077,0
84.1307,-51.5662,-4.91629,0
84.0539,-51.4314,-4.92144,0
83.9888,-51.2922,-4.92626,0
83.9213,-51.1541,-4.93046,0
83.8513,-51.0173,-4.93407,0
83.779,-50.8819,-4.93706,0
77.6559,-63.1125,-2.27296,0
77.854,-63.1449,-2.29558,0
78.0534,-63.1732,-2.31874,0
78.2539,-63.1976,-2.34242,0
78.4555,-63.218,-2.36663,0
78.6583,-63.2342,-2.39137,0
78.8618,-63.2453,-2.4169,0
79.0662,-63.2524,-2.44286,0
79.2715,-63.2557,-2.46922,0
79.4775,-63.2551,-2.49599,0
79.6844,-63.2506,-2.52314,0
79.888,-63.2277,-2.55427,0
79.7571,-62.0337,-2.87201,174
79.8695,-61.7985,-2.95015,174
80.0246,-61.7179,-2.98949,174
80.1829,-61.6502,-3.02491,174
80.3521,-61.6126,-3.05254,174
80.5318,-61.5983,-3.07416,174
80.7877,-61.7539,-3.05623,174
80.9136,-61.6021,-3.10866,174
81.0957,-61.5746,-3.13198,174
81.8343,-62.6249,-2.91448,0
82.0205,-62.5403,-2.95185,0
82.2049,-62.4515,-2.98938,0
82.3948,-62.371,-3.02432,0
82.5845,-62.2884,-3.05901,0
82.7727,-62.2012,-3.09397,0
82.9591,-62.1092,-3.12919,0
83.1434,-62.0127,-3.16465,0
83.3259,-61.9116,-3.20032,0
83.5061,-61.8059,-3.2362,0
83.6841,-61.6957,-3.27224,0
83.8596,-61.5811,-3.30844,0
84.0327,-61.4619,-3.34478,0
84.203,-61.3384,-3.38122,0
84.3706,-61.2106,-3.41775,0
84.5353,-61.0785,-3.45435,0
84.697,-60.9422,-3.491,0
84.8578,-60.8037,-3.52727,0
84.9623,-60.6155,-3.57223,0
85.042,-60.4094,-3.61966,0
85.1258,-60.2104,-3.66484,0
85.2038,-60.01,-3.70936,0
85.2758,-59.8086,-3.7532,0
85.3421,-59.6063,-3.79632,0
85.4027,-59.4034,-3.8387,0
85.4577,-59.2,-3.88031,0
85.507,-58.9963,-3.92114,0
85.5509,-58.7926,-3.96117,0
85.5895,-58.589,-4.00036,0
85.6226,-58.3856,-4.03872,0
85.6459,-58.1805,-4.07663,0
85.6602,-57.9745,-4.11394,0
85.6694,-57.7697,-4.1503,0
85.6738,-57.5662,-4.1857,0
85.6734,-57.3642,-4.22012,0
85.6684,-57.1638,-4.25359,0
85.6587,-56.9651,-4.28608,0
85.6446,-56.7682,-4.31761,0
85.6263,-56.5733,-4.34817,0
85.6037,-56.3804,-4.37776,0
85.5772,-56.1896,-4.40639,0
85.5467,-56.0011,-4.43406,0
85.5115,-55.8146,-4.46082,0
85.4546,-55.6273,-4.4873,0
85.3948,-55.4434,-4.51272,0
85.332,-55.2627,-4.53709,0
85.2907,-55.0882,-4.55971,0
85.2554,-54.9166,-4.58124,0
85.2172,-54.747,-4.60194,0
85.1761,-54.5794,-4.62183,0
85.1321,-54.4137,-4.64092,0
85.0855,-54.25,-4.65921,0
85.0362,-54.0883,-4.67671,0
84.9845,-53.9287,-4.69345,0
84.9301,-53.7711,-4.70941,0
84.8734,-53.6156,-4.72462,0
84.8141,-53.4622,-4.73906,0
84.7534,-53.3107,-4.75278,0
84.6976,-53.1604,-4.76573,0
84.6345,-53.0126,-4.778,0
84.5691,-52.8668,-4.78956,0
84.5012,-52.7232,-4.80043,0
84.431,-52.5817,-4.81058,0
84.3586,-52.4423,-4.82007,0
84.284,-52.305,-4.82886,0
84.2072,-52.1699,-4.83699,0
84.1284,-52.037,-4.84445,0
84.0475,-51.9063,-4.85125,0
83.9648,-51.7778,-4.8574,0
83.8871,-51.6487,-4.86299,0
83.8266,-51.5132,-4.86821,0
83.7636,-51.3789,-4.87283,0
83.6984,-51.2458,-4.87686,0
83.6307,-51.1139,-4.8803,0
83.5608,-50.9832,-4.88314,0
77.7462,-63.1278,-2.28323,0
77.9449,-63.1583,-2.30609,0
78.1448,-63.1849,-2.32949,0
78.3459,-63.2074,-2.35341,0
78.548,-63.2259,-2.37787,0
78.7512,-63.2398,-2.40297,0
78.955,-63.249,-2.4287,0
79.1598,-63.2544,-2.45486,0
79.3655,-63.2559,-2.4814,0
79.572,-63.2535,-2.50835,0
79.7788,-63.246,-2.53598,0
79.9795,-63.21,-2.57006,0
79.7944,-61.8752,-2.92039,174
79.9401,-61.7602,-2.96859,174
80.095,-61.6809,-3.00722,174
80.2602,-61.6331,-3.03759,174
80.4322,-61.6017,-3.0635,174
80.6259,-61.6184,-3.07772,174
80.8195,-61.6257,-3.09378,174
80.9966,-61.5897,-3.11933,174
81.1895,-61.5816,-3.13809,174
81.9196,-62.5868,-2.93154,0
82.105,-62.5003,-2.96898,0
82.291,-62.4139,-3.00561,0
82.4817,-62.3338,-3.04014,0
82.6707,-62.2491,-3.07496,0
82.858,-62.1597,-3.11004,0
83.0435,-62.0657,-3.14536,0
83.227,-61.9671,-3.18092,0
83.4084,-61.8639,-3.2167,0
83.5877,-61.7561,-3.25265,0
83.7645,-61.6439,-3.28877,0
83.9391,-61.5272,-3.32503,0
84.1109,-61.4061,-3.36142,0
84.28,-61.2806,-3.39791,0
84.4463,-61.1508,-3.43447,0
84.6096,-61.0167,-3.4711,0
84.7708,-60.8794,-3.50758,0
84.9172,-60.7276,-3.54603,0
84.9986,-60.5208,-3.59413,0
85.081,-60.3187,-3.64038,0
85.1621,-60.119,-3.68527,0
85.2373,-59.9181,-3.72948,0
85.3068,-59.7163,-3.77299,0
85.3705,-59.5136,-3.81578,0
85.4286,-59.3105,-3.85781,0
85.4809,-59.1069,-3.89908,0
85.5278,-58.9032,-3.93953,0
85.5691,-58.6995,-3.97919,0
85.6052,-58.496,-4.018,0
85.6359,-58.2928,-4.05597,0
85.653,-58.0862,-4.0938,0
85.665,-57.8807,-4.13068,0
85.672,-57.6765,-4.16659,0
85.6742,-57.4737,-4.20154,0
85.6716,-57.2724,-4.23553,0
85.6645,-57.0728,-4.26855,0
85.6528,-56.8749,-4.3006,0
85.6367,-56.6789,-4.33169,0
85.6165,-56.4849,-4.36181,0
85.5921,-56.293,-4.39096,0
85.5638,-56.1032,-4.41915,0
85.5315,-55.9156,-4.44638,0
85.4859,-55.7286,-4.47305,0
85.4277,-55.5428,-4.49905,0
85.3664,-55.3604,-4.52399,0
85.3086,-55.1821,-4.54769,0
85.275,-55.0095,-4.56965,0
85.2383,-54.8389,-4.59079,0
85.1987,-54.6702,-4.61112,0
85.1563,-54.5034,-4.63065,0
85.1112,-54.3386,-4.64938,0
85.0634,-54.1758,-4.66731,0
85.0129,-54.0151,-4.68446,0
84.96,-53.8564,-4.70084,0
84.9044,-53.6998,-4.71645,0
84.8466,-53.5452,-4.73132,0
84.7864,-53.3927,-4.74543,0
84.7284,-53.2418,-4.75879,0
84.6691,-53.0926,-4.77143,0
84.6049,-52.9457,-4.78338,0
84.5384,-52.801,-4.79461,0
84.4695,-52.6583,-4.80515,0
84.3982,-52.5177,-4.815,0
84.3248,-52.3793,-4.82417,0
84.2491,-52.243,-4.83266,0
84.1715,-52.1089,-4.84048,0
84.0917,-51.977,-4.84763,0
84.0099,-51.8473,-4.85414,0
83.9262,-51.7198,-4.85999,0
83.8597,-51.5866,-4.86545,0
83.7981,-51.4517,-4.87039,0
83.7341,-51.3179,-4.87475,0
83.6677,-51.1854,-4.8785,0
83.5991,-51.054,-4.88167,0
77.6389,-63.1096,-2.27105,0
77.8369,-63.1422,-2.29361,0
78.0362,-63.171,-2.31672,0
78.2366,-63.1957,-2.34035,0
78.4381,-63.2164,-2.36453,0
78.6408,-63.233,-2.38922,0
78.8442,-63.2445,-2.41468,0
79.0485,-63.252,-2.4406,0
79.2537,-63.2556,-2.46694,0
79.4598,-63.2553,-2.49366,0
79.6666,-63.2511,-2.52079,0
79.8709,-63.2309,-2.55131,0
79.7562,-62.086,-2.85733,174
79.8566,-61.8071,-2.94631,174
80.0113,-61.7246,-2.9862,174
80.1684,-61.6534,-3.02252,174
80.3375,-61.6159,-3.05018,174
80.516,-61.5988,-3.07247,174
80.729,-61.6567,-3.07705,174
80.898,-61.6043,-3.10664,174
81.0799,-61.577,-3.12998,174
81.8182,-62.632,-2.91128,0
82.0046,-62.5478,-2.94862,0
82.1891,-62.4593,-2.98614,0
82.3784,-62.3779,-3.02135,0
82.5683,-62.2957,-3.05602,0
82.7565,-62.2089,-3.09095,0
82.943,-62.1173,-3.12615,0
83.1276,-62.0212,-3.16159,0
83.3102,-61.9205,-3.19724,0
83.4906,-61.8152,-3.2331,0
83.6688,-61.7054,-3.26913,0
83.8445,-61.5911,-3.30532,0
84.0179,-61.4724,-3.34165,0
84.1884,-61.3493,-3.37808,0
84.3562,-61.2218,-3.41461,0
84.5212,-61.09,-3.4512,0
84.6832,-60.9541,-3.48784,0
84.8441,-60.8158,-3.52414,0
84.9553,-60.6333,-3.56809,0
85.0345,-60.4265,-3.61573,0
85.1188,-60.2276,-3.66098,0
85.1973,-60.0273,-3.70556,0
85.2698,-59.826,-3.74945,0
85.3366,-59.6237,-3.79264,0
85.3977,-59.4208,-3.83508,0
85.4532,-59.2175,-3.87676,0
85.503,-59.0138,-3.91767,0
85.5474,-58.8101,-3.95776,0
85.5863,-58.6065,-3.99702,0
85.6199,-58.4031,-4.03546,0
85.6444,-58.1983,-4.07337,0
85.6591,-57.9922,-4.11076,0
85.6688,-57.7873,-4.1472,0
85.6737,-57.5837,-4.18269,0
85.6736,-57.3815,-4.2172,0
85.6689,-57.181,-4.25074,0
85.6597,-56.9821,-4.28332,0
85.646,-56.7851,-4.31493,0
85.628,-56.59,-4.34557,0
85.6058,-56.397,-4.37525,0
85.5797,-56.206,-4.40396,0
85.5495,-56.0172,-4.43172,0
85.5155,-55.8307,-4.45852,0
85.4597,-55.6433,-4.48506,0
85.4001,-55.4591,-4.51057,0
85.3375,-55.2782,-4.53503,0
85.2936,-55.103,-4.55782,0
85.2585,-54.9313,-4.57942,0
85.2205,-54.7616,-4.60019,0
85.1797,-54.5937,-4.62015,0
85.136,-54.4278,-4.63931,0
85.0897,-54.264,-4.65767,0
85.0406,-54.1021,-4.67525,0
84.989,-53.9423,-4.69204,0
84.9348,-53.7846,-4.70807,0
84.8783,-53.6289,-4.72334,0
84.8194,-53.4753,-4.73785,0
84.7586,-53.3237,-4.75163,0
84.7029,-53.1732,-4.76465,0
84.6401,-53.0252,-4.77697,0
84.5748,-52.8793,-4.7886,0
84.5071,-52.7355,-4.79951,0
84.4372,-52.5938,-4.80974,0
84.3649,-52.4542,-4.81928,0
84.2905,-52.3168,-4.82813,0
84.2139,-52.1815,-4.83631,0
84.1353,-52.0484,-4.84383,0
84.0545,-51.9175,-4.85069,0
83.9719,-51.7888,-4.8569,0
83.8922,-51.6604,-4.86251,0
83.8318,-51.5248,-4.86777,0
83.7691,-51.3904,-4.87245,0
83.704,-51.2572,-4.87653,0
83.6366,-51.1252,-4.88003,0
83.5669,-50.9944,-4.88292,0
77.6605,-62.7515,-2.31003,0
77.8511,-62.7928,-2.3286,0
78.0427,-62.8189,-2.35095,0
78.2353,-62.8412,-2.37382,0
78.429,-62.8596,-2.39719,0
78.6237,-62.874,-2.42106,0
78.8192,-62.8845,-2.44542,0
79.0155,-62.8908,-2.47027,0
79.2127,-62.8931,-2.49561,0
79.4103,-62.8913,-2.52141,0
79.6087,-62.8853,-2.54769,0
79.8054,-62.8678,-2.57629,0
79.7637,-62.0179,-2.81494,174
79.866,-61.7517,-2.90234,174
80.0198,-61.6705,-2.94198,174
80.1731,-61.5917,-2.98017,174
80.341,-61.5542,-3.0075,174
80.5221,-61.5462,-3.02713,174
80.7842,-61.718,-3.00348,174
80.873,-61.4879,-3.07501,174
81.0622,-61.4806,-3.09302,174
81.6638,-62.2662,-2.92716,0
81.8422,-62.185,-2.96297,0
82.0187,-62.0998,-2.99893,0
82.1932,-62.0104,-3.03503,0
82.3722,-61.9273,-3.06897,0
82.5516,-61.8431,-3.10241,0
82.7293,-61.7545,-3.1361,0
82.9051,-61.6615,-3.16999,0
83.0789,-61.5641,-3.2041,0
83.2506,-61.4625,-3.23839,0
83.4202,-61.3565,-3.27283,0
83.5873,-61.2463,-3.30742,0
83.7522,-61.1319,-3.34212,0
83.9144,-61.0133,-3.37694,0
84.074,-60.8906,-3.41182,0
84.2305,-60.7636,-3.44681,0
84.3412,-60.5927,-3.48998,0
84.4464,-60.4189,-3.53286,0
84.5458,-60.2424,-3.5754,0
84.6395,-60.0635,-3.61757,0
84.7259,-59.8811,-3.65956,0
84.8023,-59.6936,-3.70173,0
84.873,-59.5049,-3.74328,0
84.9385,-59.3153,-3.78419,0
84.9987,-59.125,-3.82442,0
85.0534,-58.9341,-3.86396,0
85.103,-58.7428,-3.90278,0
85.1474,-58.5513,-3.94086,0
85.1868,-58.3598,-3.9782,0
85.2161,-58.1658,-4.01526,0
85.2379,-57.9712,-4.05174,0
85.2548,-57.7774,-4.08735,0
85.267,-57.5846,-4.12209,0
85.2745,-57.3928,-4.15594,0
85.2774,-57.2023,-4.1889,0
85.2758,-57.0131,-4.22098,0
85.2699,-56.8254,-4.25216,0
85.2598,-56.6393,-4.28244,0
85.2455,-56.4548,-4.31182,0
85.2273,-56.2721,-4.34031,0
85.2052,-56.0912,-4.3679,0
85.1793,-55.9123,-4.39461,0
85.141,-55.7337,-4.42083,0
85.0907,-55.5561,-4.4465,0
85.0521,-55.3837,-4.47056,0
85.0259,-55.2156,-4.49312,0
84.9969,-55.0493,-4.51488,0
84.9648,-54.8846,-4.53586,0
84.9299,-54.7217,-4.55606,0
84.8922,-54.5606,-4.57547,0
84.8517,-54.4013,-4.59413,0
84.8086,-54.2439,-4.61202,0
84.7629,-54.0883,-4.62917,0
84.7146,-53.9346,-4.64557,0
84.664,-53.7828,-4.66123,0
84.6108,-53.633,-4.67615,0
84.5542,-53.4852,-4.69037,0
84.4846,-53.3408,-4.704,0
84.4278,-53.1966,-4.71673,0
84.3687,-53.0543,-4.72878,0
84.307,-52.914,-4.74014,0
84.2431,-52.7756,-4.75084,0
84.1768,-52.6392,-4.76087,0
84.1084,-52.5047,-4.77024,0
84.0378,-52.3723,-4.77895,0
83.9651,-52.242,-4.787,0
83.8903,-52.1136,-4.79443,0
83.8136,-51.9874,-4.80121,0
83.7348,-51.8633,-4.80737,0
83.6777,-51.7317,-4.81299,0
83.6192,-51.6009,-4.81806,0
83.5585,-51.4711,-4.82255,0
83.4955,-51.3425,-4.82647,0
83.4302,-51.215,-4.8298,0
83.3628,-51.0888,-4.83255,0
77.7475,-62.7764,-2.31683,0
77.9384,-62.8052,-2.33875,0
78.1305,-62.8296,-2.36134,0
78.3237,-62.8501,-2.38444,0
78.5179,-62.8667,-2.40803,0
78.713,-62.8793,-2.43214,0
78.9088,-62.8879,-2.45672,0
79.1055,-62.8924,-2.48178,0
79.3029,-62.8928,-2.50734,0
79.5009,-62.889,-2.53337,0
79.6994,-62.8811,-2.55986,0
79.892,-62.8462,-2.59258,0
79.7924,-61.8316,-2.87141,174
79.9358,-61.7124,-2.92109,174
80.0879,-61.6283,-2.96108,174
80.2498,-61.5747,-2.99271,174
80.4231,-61.5498,-3.01672,174
80.6088,-61.5499,-3.03418,174
80.7832,-61.5177,-3.05892,174
80.9547,-61.4754,-3.08544,174
81.1667,-61.5112,-3.09323,174
81.7455,-62.2296,-2.94351,0
81.923,-62.1466,-2.97938,0
82.0987,-62.0594,-3.01542,0
82.2741,-61.9712,-3.05091,0
82.4544,-61.8894,-3.08422,0
82.633,-61.8032,-3.11778,0
82.8098,-61.7126,-3.15155,0
82.9848,-61.6176,-3.18556,0
83.1577,-61.5182,-3.21975,0
83.3284,-61.4146,-3.25411,0
83.4969,-61.3067,-3.28862,0
83.663,-61.1945,-3.32327,0
83.8266,-61.0782,-3.35802,0
83.9877,-60.9577,-3.39287,0
84.146,-60.8332,-3.42778,0
84.2818,-60.6859,-3.46658,0
84.39,-60.5136,-3.50961,0
84.4925,-60.3386,-3.55235,0
84.5893,-60.1609,-3.59472,0
84.6805,-59.981,-3.6367,0
84.7615,-59.7956,-3.67891,0
84.8352,-59.6075,-3.72079,0
84.9037,-59.4184,-3.76205,0
84.9666,-59.2284,-3.80266,0
85.0243,-59.0378,-3.84258,0
85.0768,-58.8467,-3.88179,0
85.124,-58.6553,-3.92027,0
85.166,-58.4638,-3.95802,0
85.2021,-58.2718,-3.9951,0
85.2266,-58.0768,-4.03204,0
85.2462,-57.8825,-4.06812,0
85.2609,-57.6891,-4.10334,0
85.271,-57.4968,-4.13767,0
85.2763,-57.3056,-4.17112,0
85.2772,-57.1157,-4.20368,0
85.2736,-56.9272,-4.23533,0
85.2658,-56.7401,-4.26611,0
85.2538,-56.5547,-4.29598,0
85.2377,-56.3711,-4.32495,0
85.2177,-56.1892,-4.35303,0
85.1937,-56.0092,-4.38021,0
85.1662,-55.8312,-4.40651,0
85.1184,-55.6522,-4.43269,0
85.0667,-55.4759,-4.4579,0
85.0405,-55.3067,-4.48096,0
85.013,-55.1394,-4.50316,0
84.9826,-54.9738,-4.52456,0
84.9492,-54.81,-4.54518,0
84.913,-54.6479,-4.56503,0
84.874,-54.4876,-4.5841,0
84.8323,-54.3292,-4.60241,0
84.788,-54.1726,-4.61995,0
84.7412,-54.0178,-4.63675,0
84.6918,-53.865,-4.65281,0
84.64,-53.7141,-4.66814,0
84.5858,-53.5651,-4.68274,0
84.522,-53.419,-4.69671,0
84.459,-53.2747,-4.70991,0
84.4011,-53.1314,-4.72232,0
84.3407,-52.9899,-4.73406,0
84.2781,-52.8505,-4.74512,0
84.2131,-52.713,-4.7555,0
84.1459,-52.5775,-4.76523,0
84.0764,-52.444,-4.77429,0
84.0048,-52.3125,-4.78271,0
83.9312,-52.1831,-4.79048,0
83.8555,-52.0557,-4.79761,0
83.7778,-51.9304,-4.8041,0
83.7084,-51.8033,-4.81001,0
83.6512,-51.6718,-4.81539,0
83.5917,-51.5414,-4.82018,0
83.53,-51.4122,-4.82442,0
83.466,-51.2841,-4.82806,0
83.3997,-51.1572,-4.83112,0
77.6441,-62.7467,-2.30876,0
77.8346,-62.7903,-2.3267,0
78.0261,-62.8168,-2.34902,0
78.2187,-62.8395,-2.37183,0
78.4123,-62.8582,-2.39515,0
78.6069,-62.873,-2.41898,0
78.8023,-62.8837,-2.44331,0
78.9986,-62.8904,-2.46812,0
79.1956,-62.8931,-2.4934,0
79.3933,-62.8916,-2.51917,0
79.5916,-62.8859,-2.54541,0
79.7891,-62.8717,-2.57323,0
79.7608,-62.0628,-2.80176,174
79.8529,-61.7594,-2.89869,174
80.0066,-61.6771,-2.93869,174
80.1587,-61.595,-2.97777,174
80.3266,-61.5575,-3.00517,174
80.5063,-61.5468,-3.02549,174
80.7205,-61.6094,-3.02787,174
80.8576,-61.4902,-3.07304,174
81.0427,-61.4749,-3.09297,174
81.6484,-62.273,-2.9241,0
81.8269,-62.1922,-2.95988,0
82.0035,-62.1073,-2.99583,0
82.1783,-62.0183,-3.03191,0
82.3567,-61.9344,-3.0661,0
82.5362,-61.8505,-3.09953,0
82.7141,-61.7623,-3.13318,0
82.89,-61.6697,-3.16707,0
83.064,-61.5727,-3.20116,0
83.2359,-61.4714,-3.23542,0
83.4057,-61.3658,-3.26986,0
83.573,-61.256,-3.30443,0
83.7381,-61.1419,-3.33913,0
83.9005,-61.0237,-3.37394,0
84.0603,-60.9013,-3.40882,0
84.2174,-60.7749,-3.44376,0
84.332,-60.6075,-3.48628,0
84.4376,-60.434,-3.52918,0
84.5374,-60.2577,-3.57175,0
84.6317,-60.079,-3.61396,0
84.7191,-59.8972,-3.65591,0
84.7959,-59.7098,-3.69812,0
84.8672,-59.5212,-3.73973,0
84.933,-59.3317,-3.78069,0
84.9937,-59.1414,-3.82098,0
85.0489,-58.9505,-3.86059,0
85.0989,-58.7593,-3.89947,0
85.1437,-58.5678,-3.93762,0
85.1835,-58.3762,-3.97502,0
85.214,-58.1826,-4.01209,0
85.2363,-57.9879,-4.04863,0
85.2536,-57.7941,-4.08432,0
85.2661,-57.6011,-4.11914,0
85.274,-57.4093,-4.15306,0
85.2773,-57.2186,-4.1861,0
85.2761,-57.0294,-4.21825,0
85.2706,-56.8415,-4.24951,0
85.2608,-56.6552,-4.27987,0
85.2469,-56.4706,-4.30933,0
85.2291,-56.2877,-4.3379,0
85.2073,-56.1067,-4.36556,0
85.1816,-55.9277,-4.39234,0
85.1452,-55.7491,-4.41858,0
85.0952,-55.5713,-4.44433,0
85.0542,-55.3982,-4.46858,0
85.0284,-55.23,-4.49121,0
84.9995,-55.0635,-4.51304,0
84.9677,-54.8987,-4.53408,0
84.933,-54.7357,-4.55434,0
84.8955,-54.5744,-4.57384,0
84.8553,-54.415,-4.59256,0
84.8124,-54.2574,-4.61052,0
84.767,-54.1016,-4.62772,0
84.7189,-53.9478,-4.64418,0
84.6684,-53.7958,-4.65991,0
84.6155,-53.6458,-4.6749,0
84.5602,-53.4977,-4.68917,0
84.4894,-53.3533,-4.70288,0
84.4328,-53.2089,-4.71567,0
84.3738,-53.0665,-4.72777,0
84.3124,-52.926,-4.7392,0
84.2487,-52.7874,-4.74995,0
84.1827,-52.6508,-4.76004,0
84.1144,-52.5162,-4.76945,0
84.044,-52.3836,-4.77822,0
83.9715,-52.2531,-4.78634,0
83.8968,-52.1246,-4.79382,0
83.8203,-51.9982,-4.80065,0
83.7417,-51.8739,-4.80686,0
83.6825,-51.7431,-4.81254,0
83.6243,-51.6121,-4.81765,0
83.5638,-51.4822,-4.82219,0
83.501,-51.3535,-4.82615,0
83.436,-51.226,-4.82953,0
83.3687,-51.0996,-4.83233,0
77.6642,-62.3949,-2.35105,0
77.8474,-62.4441,-2.36572,0
78.0327,-62.4897,-2.38103,0
78.2181,-62.5108,-2.40294,0
78.4044,-62.5274,-2.42552,0
78.5916,-62.5403,-2.44857,0
78.7797,-62.5493,-2.47209,0
78.9684,-62.5543,-2.49608,0
79.1577,-62.5554,-2.52052,0
79.3477,-62.5526,-2.54543,0
79.5381,-62.5457,-2.57077,0
79.7291,-62.5347,-2.59655,0
79.7703,-62.002,-2.75788,174
79.8624,-61.7052,-2.85491,174
80.0151,-61.6235,-2.89487,174
80.1645,-61.537,-2.93516,174
80.332,-61.5014,-2.96176,174
80.5124,-61.4947,-2.98057,174
80.7808,-61.6824,-2.951,174
80.8334,-61.3767,-3.04226,174
81.0479,-61.4264,-3.04574,174
81.5066,-61.9356,-2.93886,0
81.6777,-61.8575,-2.97322,0
81.8471,-61.7756,-3.00773,0
82.0145,-61.6897,-3.04238,0
82.1799,-61.6,-3.07715,0
82.3487,-61.5145,-3.11016,0
82.5184,-61.429,-3.14243,0
82.6863,-61.3393,-3.17491,0
82.8523,-61.2454,-3.20757,0
83.0163,-61.1475,-3.24039,0
83.1782,-61.0454,-3.27338,0
83.3378,-60.9394,-3.30648,0
83.495,-60.8293,-3.3397,0
83.6352,-60.6998,-3.37637,0
83.7517,-60.5463,-3.41745,0
83.863,-60.3896,-3.45836,0
83.9692,-60.2299,-3.49906,0
84.0702,-60.0674,-3.5395,0
84.1659,-59.9023,-3.57966,0
84.2562,-59.7349,-3.61947,0
84.3412,-59.5654,-3.65891,0
84.421,-59.394,-3.69795,0
84.4955,-59.2208,-3.73654,0
84.5646,-59.0462,-3.77466,0
84.6284,-58.8702,-3.81228,0
84.687,-58.6931,-3.84936,0
84.7379,-58.5137,-3.88618,0
84.7825,-58.3331,-3.92251,0
84.817,-58.1495,-3.95874,0
84.8454,-57.9655,-3.99438,0
84.869,-57.7819,-4.02924,0
84.8879,-57.599,-4.06329,0
84.9023,-57.4168,-4.09653,0
84.9123,-57.2356,-4.12897,0
84.9179,-57.0554,-4.16058,0
84.9193,-56.8763,-4.19136,0
84.9166,-56.6984,-4.22132,0
84.9097,-56.5219,-4.25045,0
84.8989,-56.3469,-4.27874,0
84.8843,-56.1734,-4.30618,0
84.8659,-56.0015,-4.33281,0
84.8439,-55.8313,-4.35859,0
84.8116,-55.6616,-4.38391,0
84.7943,-55.4973,-4.4074,0
84.774,-55.3344,-4.43013,0
84.7506,-55.1731,-4.4521,0
84.7244,-55.0132,-4.47331,0
84.6952,-54.8549,-4.49376,0
84.6632,-54.6983,-4.51346,0
84.6285,-54.5432,-4.53243,0
84.5912,-54.3899,-4.55066,0
84.5512,-54.2382,-4.56817,0
84.5087,-54.0883,-4.58494,0
84.4636,-53.9402,-4.601,0
84.4162,-53.7938,-4.61636,0
84.3636,-53.6494,-4.63108,0
84.2992,-53.508,-4.64528,0
84.2327,-53.369,-4.65875,0
84.1776,-53.2302,-4.67128,0
84.1218,-53.0931,-4.68309,0
84.0637,-52.9577,-4.69427,0
84.0033,-52.8242,-4.70479,0
83.9406,-52.6926,-4.71466,0
83.8758,-52.5628,-4.72391,0
83.8088,-52.4349,-4.73253,0
83.7398,-52.3089,-4.74051,0
83.6687,-52.1849,-4.74788,0
83.5958,-52.0629,-4.75463,0
83.5355,-51.9372,-4.76071,0
83.4815,-51.8096,-4.76619,0
83.4252,-51.683,-4.77111,0
83.3665,-51.5574,-4.77546,0
83.3056,-51.433,-4.77926,0
83.2426,-51.3098,-4.7825,0
83.1773,-51.1877,-4.78517,0
77.7477,-62.4178,-2.35767,0
77.9318,-62.4654,-2.37263,0
78.1173,-62.5001,-2.39088,0
78.3031,-62.5188,-2.4132,0
78.4899,-62.5338,-2.43599,0
78.6775,-62.5449,-2.45925,0
78.8659,-62.552,-2.483,0
79.0548,-62.5553,-2.50719,0
79.2445,-62.5546,-2.53185,0
79.4347,-62.5499,-2.55695,0
79.6253,-62.5412,-2.5825,0
79.814,-62.5199,-2.6107,0
79.7904,-61.7883,-2.82278,174
79.9318,-61.6661,-2.87373,174
80.0811,-61.5768,-2.91521,174
80.2395,-61.5169,-2.94835,174
80.4142,-61.4984,-2.9704,174
80.5957,-61.4913,-2.98907,174
80.7561,-61.4309,-3.02034,174
80.925,-61.3875,-3.04676,174
81.1605,-61.4738,-3.04132,174
81.585,-61.9004,-2.95454,0
81.7553,-61.8205,-2.98898,0
81.9238,-61.7368,-3.02355,0
82.0904,-61.6492,-3.05825,0
82.2559,-61.5592,-3.09273,0
82.4265,-61.4759,-3.12488,0
82.5954,-61.3885,-3.15724,0
82.7625,-61.2969,-3.18981,0
82.9275,-61.2012,-3.22255,0
83.0905,-61.1013,-3.25545,0
83.2514,-60.9975,-3.28848,0
83.41,-60.8895,-3.32165,0
83.5661,-60.7777,-3.35491,0
83.6891,-60.6301,-3.39516,0
83.8032,-60.4751,-3.43617,0
83.9122,-60.3169,-3.47699,0
84.016,-60.1559,-3.51758,0
84.1145,-59.9922,-3.55789,0
84.2078,-59.8261,-3.59789,0
84.2957,-59.6577,-3.63754,0
84.3784,-59.4873,-3.67681,0
84.4557,-59.315,-3.71564,0
84.5277,-59.1412,-3.75403,0
84.5945,-58.9659,-3.79192,0
84.6559,-58.7894,-3.82929,0
84.7116,-58.6116,-3.86618,0
84.7589,-58.4312,-3.90287,0
84.7997,-58.2496,-3.93907,0
84.8306,-58.0654,-3.97513,0
84.8567,-57.8815,-4.0104,0
84.8782,-57.6982,-4.04489,0
84.8951,-57.5157,-4.07858,0
84.9074,-57.3339,-4.11146,0
84.9154,-57.1531,-4.14351,0
84.9191,-56.9734,-4.17475,0
84.9186,-56.7948,-4.20516,0
84.9139,-56.6176,-4.23474,0
84.9052,-56.4417,-4.26348,0
84.8927,-56.2674,-4.29138,0
84.8763,-56.0946,-4.31846,0
84.8563,-55.9235,-4.34469,0
84.8261,-55.7528,-4.37047,0
84.8041,-55.5864,-4.39474,0
84.7855,-55.4227,-4.41789,0
84.7637,-55.2605,-4.44027,0
84.739,-55.0998,-4.46188,0
84.7114,-54.9407,-4.48274,0
84.6809,-54.7831,-4.50285,0
84.6477,-54.6272,-4.52222,0
84.6118,-54.473,-4.54085,0
84.5732,-54.3204,-4.55875,0
84.532,-54.1695,-4.57591,0
84.4884,-54.0204,-4.59237,0
84.4422,-53.873,-4.60811,0
84.3937,-53.7275,-4.62314,0
84.3344,-53.5845,-4.63767,0
84.2691,-53.4442,-4.65153,0
84.2069,-53.3055,-4.66457,0
84.1524,-53.1673,-4.67676,0
84.0955,-53.031,-4.68828,0
84.0363,-52.8965,-4.69915,0
83.9749,-52.7638,-4.70938,0
83.9112,-52.633,-4.71897,0
83.8455,-52.5041,-4.72793,0
83.7775,-52.3771,-4.73626,0
83.7076,-52.252,-4.74395,0
83.6356,-52.1289,-4.75103,0
83.564,-52.007,-4.7575,0
83.5112,-51.8787,-4.76329,0
83.4559,-51.7516,-4.7685,0
83.3986,-51.6255,-4.77317,0
83.339,-51.5005,-4.77727,0
83.277,-51.3766,-4.78081,0
83.213,-51.2538,-4.78379,0
77.6487,-62.3905,-2.34981,0
77.8316,-62.44,-2.36443,0
78.0166,-62.4859,-2.37969,0
78.2021,-62.5092,-2.40102,0
78.3884,-62.5261,-2.42356,0
78.5755,-62.5393,-2.44656,0
78.7634,-62.5486,-2.47005,0
78.9521,-62.554,-2.494,0
79.1415,-62.5555,-2.51841,0
79.3313,-62.553,-2.54327,0
79.5218,-62.5464,-2.56858,0
79.7126,-62.5358,-2.59432,0
79.7674,-62.0468,-2.7444,174
79.8493,-61.7126,-2.85134,174
80.0019,-61.6301,-2.89158,174
80.1513,-61.5432,-2.93204,174
80.3166,-61.5019,-2.96013,174
80.4968,-61.4953,-2.97897,174
80.7141,-61.5673,-2.97792,174
80.8194,-61.3814,-3.03975,174
81.0282,-61.4202,-3.04591,174
81.4918,-61.9421,-2.93591,0
81.663,-61.8644,-2.97026,0
81.8325,-61.7828,-3.00476,0
82.0002,-61.6972,-3.0394,0
82.1658,-61.6078,-3.07415,0
82.3341,-61.5216,-3.10739,0
82.5038,-61.4365,-3.13964,0
82.672,-61.3472,-3.1721,0
82.8381,-61.2537,-3.20475,0
83.0023,-61.1561,-3.23756,0
83.1643,-61.0544,-3.27052,0
83.3241,-60.9487,-3.30362,0
83.4816,-60.8389,-3.33684,0
83.625,-60.7129,-3.37283,0
83.7419,-60.5597,-3.41392,0
83.8537,-60.4032,-3.45485,0
83.9603,-60.2437,-3.49557,0
84.0616,-60.0815,-3.53603,0
84.1578,-59.9166,-3.57621,0
84.2486,-59.7494,-3.61606,0
84.3342,-59.5801,-3.65553,0
84.4144,-59.4088,-3.69461,0
84.4893,-59.2358,-3.73324,0
84.5588,-59.0612,-3.77141,0
84.6232,-58.8854,-3.80906,0
84.6822,-58.7084,-3.84619,0
84.7337,-58.5292,-3.88303,0
84.7789,-58.3486,-3.91941,0
84.8144,-58.1654,-3.95565,0
84.8431,-57.9813,-3.99134,0
84.8671,-57.7977,-4.02627,0
84.8865,-57.6147,-4.06038,0
84.9012,-57.4325,-4.0937,0
84.9116,-57.2512,-4.12621,0
84.9176,-57.0708,-4.15789,0
84.9193,-56.8916,-4.18875,0
84.917,-56.7137,-4.21878,0
84.9105,-56.537,-4.24797,0
84.9,-56.3619,-4.27633,0
84.8857,-56.1882,-4.30386,0
84.8677,-56.0162,-4.33055,0
84.8459,-55.8459,-4.3564,0
84.813,-55.6758,-4.38186,0
84.796,-55.5114,-4.40541,0
84.7759,-55.3484,-4.42821,0
84.7528,-55.1869,-4.45024,0
84.7267,-55.0269,-4.47151,0
84.6978,-54.8685,-4.49202,0
84.6661,-54.7117,-4.51179,0
84.6316,-54.5565,-4.53083,0
84.5945,-54.403,-4.54912,0
84.5547,-54.2512,-4.56669,0
84.5123,-54.1012,-4.58353,0
84.4676,-53.9528,-4.59966,0
84.4204,-53.8063,-4.61507,0
84.369,-53.6617,-4.62982,0
84.3048,-53.5201,-4.6441,0
84.2385,-53.3808,-4.65762,0
84.1823,-53.2421,-4.67022,0
84.1267,-53.1048,-4.6821,0
84.0687,-52.9693,-4.69333,0
84.0085,-52.8356,-4.70391,0
83.9461,-52.7038,-4.71384,0
83.8814,-52.5739,-4.72314,0
83.8147,-52.4458,-4.7318,0
83.7459,-52.3197,-4.73985,0
83.675,-52.1955,-4.74726,0
83.6022,-52.0733,-4.75408,0
83.5401,-51.9482,-4.76021,0
83.4862,-51.8205,-4.76573,0
83.43,-51.6938,-4.7707,0
83.3716,-51.5682,-4.77511,0
83.311,-51.4437,-4.77896,0
83.2481,-51.3203,-4.78224,0
83.183,-51.1982,-4.78496,0
77.6678,-62.0655,-2.38893,0
77.8437,-62.111,-2.40322,0
78.0215,-62.153,-2.41812,0
78.2011,-62.1912,-2.43364,0
78.3816,-62.2186,-2.45185,0
78.5619,-62.2301,-2.47414,0
78.743,-62.2378,-2.49687,0
78.9245,-62.2417,-2.52006,0
79.1068,-62.2418,-2.54367,0
79.2895,-62.2381,-2.56772,0
79.4728,-62.2304,-2.5922,0
79.6563,-62.2189,-2.61709,0
79.7776,-61.9885,-2.70018,174
79.8589,-61.6591,-2.80787,174
80.0104,-61.5769,-2.84815,174
80.1571,-61.4858,-2.88982,174
80.3236,-61.4507,-2.91609,174
80.5029,-61.4436,-2.93447,174
80.7773,-61.6469,-2.89881,174
80.8138,-61.309,-3.00011,174
81.0458,-61.3973,-2.99283,174
81.3616,-61.6303,-2.94956,0
81.5257,-61.5546,-2.9827,0
81.6883,-61.4757,-3.01589,0
81.8492,-61.3931,-3.04918,0
82.0081,-61.3067,-3.08259,0
82.1652,-61.2168,-3.1161,0
82.3243,-61.1291,-3.14826,0
82.4849,-61.0425,-3.17942,0
82.6437,-60.952,-3.21075,0
82.8006,-60.8575,-3.24224,0
82.954,-60.7574,-3.27427,0
83.0791,-60.6236,-3.31329,0
83.1998,-60.4863,-3.35228,0
83.3158,-60.3455,-3.39121,0
83.4273,-60.2015,-3.43003,0
83.5339,-60.0545,-3.46871,0
83.6358,-59.9047,-3.50719,0
83.7328,-59.7522,-3.54547,0
83.8248,-59.5972,-3.58347,0
83.9121,-59.44,-3.62118,0
83.9945,-59.2807,-3.65856,0
84.0717,-59.1196,-3.69557,0
84.1441,-58.9568,-3.73218,0
84.2115,-58.7925,-3.76837,0
84.2831,-58.6329,-3.80276,0
84.3509,-58.4722,-3.83662,0
84.4145,-58.3105,-3.87001,0
84.4541,-58.1366,-3.90542,0
84.487,-57.9616,-3.9404,0
84.5155,-57.7869,-3.97463,0
84.5395,-57.6127,-4.00811,0
84.5594,-57.4391,-4.04084,0
84.5751,-57.2662,-4.07279,0
84.5867,-57.0941,-4.10398,0
84.5943,-56.9229,-4.13438,0
84.5979,-56.7528,-4.16401,0
84.5977,-56.5837,-4.19284,0
84.5938,-56.4159,-4.2209,0
84.5863,-56.2494,-4.24815,0
84.5751,-56.0842,-4.27462,0
84.5649,-55.9216,-4.3,0
84.5606,-55.7623,-4.32401,0
84.5486,-55.6032,-4.34759,0
84.5336,-55.4453,-4.37045,0
84.5156,-55.2887,-4.39257,0
84.4946,-55.1335,-4.41396,0
84.4709,-54.9797,-4.43462,0
84.4443,-54.8273,-4.45458,0
84.4149,-54.6764,-4.47381,0
84.383,-54.527,-4.49233,0
84.3484,-54.3792,-4.51015,0
84.3112,-54.233,-4.52727,0
84.2715,-54.0883,-4.5437,0
84.2294,-53.9453,-4.55944,0
84.1805,-53.8043,-4.57463,0
84.1223,-53.6657,-4.58934,0
84.062,-53.5293,-4.60333,0
83.9996,-53.395,-4.61662,0
83.9448,-53.2616,-4.62897,0
83.892,-53.1292,-4.64057,0
83.8371,-52.9985,-4.65154,0
83.7799,-52.8695,-4.66189,0
83.7205,-52.7423,-4.67162,0
83.659,-52.6169,-4.68073,0
83.5954,-52.4932,-4.68924,0
83.5297,-52.3714,-4.69714,0
83.4621,-52.2514,-4.70444,0
83.3996,-52.1308,-4.71106,0
83.3497,-52.0062,-4.71693,0
83.2974,-51.8826,-4.72226,0
83.2429,-51.76,-4.72703,0
83.1862,-51.6385,-4.73128,0
83.1274,-51.518,-4.73496,0
83.0664,-51.3987,-4.7381,0
83.0032,-51.2805,-4.74069,0
77.748,-62.0868,-2.39538,0
77.9248,-62.1307,-2.40995,0
78.1034,-62.1709,-2.42514,0
78.2837,-62.2074,-2.44094,0
78.4639,-62.2243,-2.46197,0
78.6445,-62.2341,-2.48448,0
78.8259,-62.24,-2.50741,0
79.0078,-62.2422,-2.53079,0
79.1902,-62.2406,-2.55461,0
79.3733,-62.2351,-2.57885,0
79.5566,-62.2257,-2.60352,0
79.7403,-62.2123,-2.6286,0
79.7919,-61.7566,-2.77146,174
79.9279,-61.6204,-2.8267,174
80.0745,-61.5261,-2.86971,174
80.2293,-61.4598,-2.9045,174
80.4053,-61.4475,-2.92453,174
80.5856,-61.4402,-2.94276,174
80.7418,-61.3728,-2.97567,174
80.9156,-61.3427,-2.99846,174
81.158,-61.4442,-2.98783,174
81.4366,-61.5959,-2.96474,0
81.6002,-61.519,-2.99784,0
81.762,-61.4384,-3.03108,0
81.9221,-61.3541,-3.06444,0
82.0802,-61.2661,-3.09789,0
82.2363,-61.1745,-3.13141,0
82.3979,-61.09,-3.16248,0
82.5577,-61.0016,-3.19371,0
82.7156,-60.9093,-3.22512,0
82.8716,-60.813,-3.25668,0
83.0117,-60.6967,-3.2921,0
83.1348,-60.5613,-3.33111,0
83.2534,-60.4224,-3.37007,0
83.3673,-60.2801,-3.40896,0
83.4766,-60.1347,-3.44772,0
83.581,-59.9864,-3.48633,0
83.6807,-59.8353,-3.52471,0
83.7755,-59.6816,-3.56286,0
83.8654,-59.5256,-3.60074,0
83.9503,-59.3675,-3.6383,0
84.0303,-59.2073,-3.67552,0
84.1055,-59.0454,-3.71235,0
84.1755,-58.8819,-3.74877,0
84.2445,-58.7196,-3.78416,0
84.3147,-58.5596,-3.81829,0
84.3805,-58.3985,-3.85195,0
84.4344,-58.2317,-3.88612,0
84.4697,-58.0566,-3.92149,0
84.5005,-57.8817,-3.95613,0
84.527,-57.7073,-3.99003,0
84.5491,-57.5333,-4.02317,0
84.5671,-57.36,-4.05554,0
84.5809,-57.1875,-4.08714,0
84.5907,-57.0158,-4.11797,0
84.5964,-56.8451,-4.14801,0
84.5983,-56.6754,-4.17728,0
84.5964,-56.5069,-4.20575,0
84.5909,-56.3397,-4.23345,0
84.5816,-56.1737,-4.26035,0
84.5688,-56.0093,-4.28646,0
84.5646,-55.849,-4.31097,0
84.5555,-55.6894,-4.33487,0
84.5421,-55.5308,-4.35813,0
84.5258,-55.3736,-4.38065,0
84.5064,-55.2176,-4.40243,0
84.4841,-55.063,-4.42349,0
84.4591,-54.9099,-4.44383,0
84.4313,-54.7582,-4.46346,0
84.4007,-54.608,-4.48236,0
84.3674,-54.4593,-4.50057,0
84.3317,-54.3122,-4.51806,0
84.2933,-54.1667,-4.53486,0
84.2525,-54.0228,-4.55097,0
84.2093,-53.8805,-4.5664,0
84.1541,-53.7407,-4.58144,0
84.0949,-53.6031,-4.59582,0
84.0337,-53.4676,-4.60949,0
83.9723,-53.3341,-4.6224,0
83.9209,-53.2009,-4.63434,0
83.8673,-53.0692,-4.64567,0
83.8112,-52.9393,-4.65634,0
83.753,-52.8112,-4.66641,0
83.6927,-52.6848,-4.67586,0
83.6302,-52.5601,-4.6847,0
83.5656,-52.4373,-4.69293,0
83.499,-52.3164,-4.70055,0
83.4305,-52.1972,-4.70758,0
83.3771,-52.0737,-4.71381,0
83.3261,-51.9496,-4.71944,0
83.2727,-51.8264,-4.7245,0
83.2173,-51.7043,-4.72903,0
83.1596,-51.5833,-4.73302,0
83.0998,-51.4634,-4.73646,0
83.0378,-51.3446,-4.73935,0
77.6527,-62.0615,-2.38772,0
77.8284,-62.1073,-2.40196,0
78.0061,-62.1495,-2.41682,0
78.1855,-62.1881,-2.43228,0
78.3661,-62.2175,-2.44995,0
78.5463,-62.2292,-2.4722,0
78.7273,-62.2373,-2.4949,0
78.9089,-62.2415,-2.51804,0
79.0911,-62.242,-2.54162,0
79.2738,-62.2385,-2.56564,0
79.457,-62.2313,-2.59008,0
79.6405,-62.2201,-2.61493,0
79.7851,-62.0691,-2.67675,174
79.8459,-61.6664,-2.8043,174
79.9972,-61.5834,-2.84487,174
80.144,-61.4922,-2.88666,174
80.3083,-61.4512,-2.91449,174
80.4874,-61.4443,-2.9329,174
80.7102,-61.5311,-2.9269,174
80.8022,-61.3185,-2.99641,174
81.025,-61.3886,-2.99375,174
81.3058,-61.5562,-2.96666,174
81.5116,-61.5612,-2.97986,0
81.6745,-61.4827,-3.01301,0
81.8354,-61.4003,-3.04632,0
81.9945,-61.3143,-3.07971,0
82.1517,-61.2246,-3.11321,0
82.3103,-61.1364,-3.14558,0
82.4712,-61.0501,-3.17673,0
82.6302,-60.9599,-3.20805,0
82.7872,-60.8658,-3.23953,0
82.9422,-60.7677,-3.27113,0
83.0685,-60.6353,-3.30992,0
83.1896,-60.4982,-3.34893,0
83.306,-60.3577,-3.38786,0
83.4178,-60.214,-3.4267,0
83.5248,-60.0673,-3.46537,0
83.6272,-59.9177,-3.50389,0
83.7246,-59.7654,-3.54217,0
83.8172,-59.6106,-3.58021,0
83.9048,-59.4536,-3.61795,0
83.9875,-59.2945,-3.65535,0
84.0653,-59.1336,-3.69239,0
84.138,-58.9709,-3.72904,0
84.2059,-58.8067,-3.76526,0
84.2771,-58.6466,-3.79982,0
84.3452,-58.4861,-3.83373,0
84.4093,-58.3245,-3.86716,0
84.4511,-58.1517,-3.90237,0
84.4843,-57.9767,-3.93741,0
84.5132,-57.8019,-3.97172,0
84.5376,-57.6277,-4.00526,0
84.5579,-57.454,-4.03805,0
84.5739,-57.281,-4.07008,0
84.5859,-57.1089,-4.10133,0
84.5938,-56.9376,-4.1318,0
84.5977,-56.7674,-4.16149,0
84.5979,-56.5983,-4.19039,0
84.5943,-56.4303,-4.21851,0
84.587,-56.2637,-4.24583,0
84.5762,-56.0984,-4.27237,0
84.5649,-55.9353,-4.29792,0
84.5615,-55.7761,-4.32194,0
84.5498,-55.6168,-4.3456,0
84.535,-55.4588,-4.36851,0
84.5173,-55.3021,-4.39069,0
84.4966,-55.1468,-4.41215,0
84.473,-54.9929,-4.43288,0
84.4466,-54.8404,-4.45288,0
84.4176,-54.6893,-4.47219,0
84.3859,-54.5398,-4.49077,0
84.3515,-54.3919,-4.50864,0
84.3145,-54.2455,-4.52583,0
84.275,-54.1007,-4.54232,0
84.233,-53.9576,-4.55811,0
84.1854,-53.8163,-4.57332,0
84.1273,-53.6775,-4.5881,0
84.0672,-53.5409,-4.60216,0
84.005,-53.4065,-4.61549,0
83.9491,-53.273,-4.62794,0
83.8967,-53.1405,-4.63959,0
83.8419,-53.0097,-4.65062,0
83.7849,-52.8806,-4.66103,0
83.7257,-52.7532,-4.6708,0
83.6644,-52.6276,-4.67997,0
83.6009,-52.5038,-4.68853,0
83.5355,-52.3818,-4.69649,0
83.468,-52.2617,-4.70384,0
83.4038,-52.1415,-4.71052,0
83.3541,-52.0169,-4.71645,0
83.3019,-51.8932,-4.72182,0
83.2477,-51.7705,-4.72665,0
83.1912,-51.6489,-4.73093,0
83.1325,-51.5284,-4.73466,0
83.0717,-51.4089,-4.73786,0
83.0088,-51.2906,-4.74049,0
77.671,-61.7605,-2.42402,0
77.8402,-61.8027,-2.43794,0
78.0112,-61.8413,-2.45245,0
78.1837,-61.8765,-2.46755,0
78.3578,-61.908,-2.48324,0
78.5335,-61.9358,-2.49951,0
78.7087,-61.9476,-2.51997,0
78.8838,-61.9505,-2.54239,0
79.0594,-61.9497,-2.56523,0
79.2354,-61.9453,-2.58848,0
79.4119,-61.937,-2.61214,0
79.5887,-61.925,-2.6362,0
79.7655,-61.909,-2.66068,0
79.8554,-61.6134,-2.76119,174
80.0057,-61.5307,-2.80182,174
80.15,-61.436,-2.84471,174
80.3166,-61.4037,-2.86996,174
80.4975,-61.4028,-2.88622,174
80.7595,-61.5791,-2.85542,0
80.8158,-61.288,-2.94665,174
81.0438,-61.3683,-2.9401,174
81.2378,-61.3679,-2.9541,0
81.3941,-61.2909,-2.9871,0
81.5487,-61.2107,-3.02013,0
81.7014,-61.1271,-3.05318,0
81.8524,-61.0404,-3.08623,0
82.0015,-60.9506,-3.11926,0
82.1489,-60.8579,-3.15221,0
82.2988,-60.7683,-3.18359,0
82.4312,-60.6548,-3.22005,0
82.5587,-60.5363,-3.25688,0
82.6823,-60.414,-3.2938,0
82.8019,-60.2882,-3.33074,0
82.9172,-60.159,-3.36767,0
83.0283,-60.0265,-3.40456,0
83.135,-59.891,-3.44135,0
83.2381,-59.7534,-3.47784,0
83.3394,-59.6154,-3.5136,0
83.4369,-59.4753,-3.54909,0
83.5305,-59.3331,-3.58428,0
83.6202,-59.189,-3.61914,0
83.7061,-59.043,-3.65367,0
83.788,-58.8954,-3.68783,0
83.8659,-58.7462,-3.72161,0
83.9398,-58.5955,-3.75499,0
84.0098,-58.4435,-3.78796,0
84.0754,-58.29,-3.82055,0
84.1175,-58.1239,-3.85543,0
84.1552,-57.9577,-3.88965,0
84.1888,-57.7917,-3.9232,0
84.218,-57.6259,-3.95606,0
84.2433,-57.4604,-3.98822,0
84.2644,-57.2953,-4.01967,0
84.2815,-57.1309,-4.05041,0
84.2948,-56.967,-4.08044,0
84.3041,-56.804,-4.10973,0
84.3098,-56.6418,-4.13829,0
84.3116,-56.4807,-4.16611,0
84.31,-56.3205,-4.1932,0
84.3104,-56.1631,-4.21908,0
84.3165,-56.009,-4.24353,0
84.3194,-55.8556,-4.26733,0
84.3138,-55.7018,-4.29086,0
84.3038,-55.5487,-4.3138,0
84.2908,-55.3968,-4.33603,0
84.2748,-55.2461,-4.35757,0
84.2561,-55.0966,-4.37842,0
84.2345,-54.9484,-4.39856,0
84.2102,-54.8015,-4.41803,0
84.1832,-54.656,-4.4368,0
84.1537,-54.5119,-4.4549,0
84.1216,-54.3692,-4.47232,0
84.0869,-54.228,-4.48906,0
84.0498,-54.0883,-4.50515,0
84.0044,-53.9504,-4.5208,0
83.952,-53.8146,-4.53596,0
83.8973,-53.6808,-4.55042,0
83.8406,-53.5491,-4.5642,0
83.7819,-53.4194,-4.57728,0
83.7276,-53.2908,-4.5895,0
83.6777,-53.1628,-4.60088,0
83.6256,-53.0365,-4.61166,0
83.5713,-52.9118,-4.62183,0
83.5149,-52.7888,-4.63141,0
83.4563,-52.6674,-4.64038,0
83.3958,-52.5478,-4.64878,0
83.3332,-52.4298,-4.65658,0
83.2694,-52.3134,-4.6638,0
83.2231,-52.1918,-4.67005,0
83.1748,-52.071,-4.67575,0
83.1242,-51.9512,-4.68094,0
83.0715,-51.8325,-4.68558,0
83.0167,-51.7147,-4.68971,0
82.9597,-51.598,-4.69329,0
82.9007,-51.4823,-4.69635,0
82.8395,-51.3678,-4.69886,0
77.748,-61.7802,-2.4303,0
77.9181,-61.8208,-2.4445,0
78.0898,-61.8578,-2.45928,0
78.263,-61.8913,-2.47464,0
78.4379,-61.9211,-2.4906,0
78.6137,-61.9444,-2.50797,0
78.7886,-61.9493,-2.53016,0
78.9639,-61.9506,-2.55278,0
79.1398,-61.9481,-2.57581,0
79.316,-61.9419,-2.59925,0
79.4926,-61.932,-2.62308,0
79.6694,-61.9183,-2.64732,0
79.7983,-61.7414,-2.71583,174
79.9241,-61.575,-2.78005,174
80.0679,-61.476,-2.82464,174
80.2196,-61.4041,-2.86094,174
80.399,-61.4033,-2.87744,174
80.5815,-61.4031,-2.8933,174
80.7416,-61.3463,-2.92342,174
