66.8501,-51.5731,-2.12574,0
66.3528,-51.2577,-2.20068,174
66.3739,-51.1408,-2.21005,174
66.4568,-51.0435,-2.21143,174
66.9097,-51.0478,-2.16959,0
66.9181,-50.9176,-2.17933,0
66.9448,-50.7927,-2.18626,0
66.9767,-50.6691,-2.19195,0
67.0058,-50.5447,-2.19729,0
67.032,-50.4195,-2.20228,0
67.0554,-50.2937,-2.2069,0
67.0759,-50.1672,-2.21116,0
67.0936,-50.0403,-2.21507,0
67.1084,-49.9128,-2.2186,0
67.1204,-49.785,-2.22175,0
67.1293,-49.6569,-2.22455,0
67.1355,-49.5284,-2.22696,0
67.1386,-49.3998,-2.229,0
67.1388,-49.271,-2.23066,0
67.1361,-49.1422,-2.23193,0
67.1305,-49.0134,-2.23283,0
67.1219,-48.8846,-2.23335,0
67.1103,-48.756,-2.23348,0
67.093,-48.628,-2.23351,0
67.0716,-48.5007,-2.23328,0
67.0472,-48.3739,-2.23266,0
67.0198,-48.2477,-2.23168,0
66.9894,-48.1222,-2.23032,0
66.9562,-47.9974,-2.22858,0
66.9199,-47.8735,-2.22646,0
66.8809,-47.7505,-2.22398,0
66.8389,-47.6285,-2.22112,0
66.7941,-47.5075,-2.21789,0
66.7465,-47.3876,-2.21429,0
66.696,-47.2689,-2.21033,0
66.6429,-47.1514,-2.206,0
66.587,-47.0352,-2.20132,0
66.5284,-46.9204,-2.19627,0
66.4691,-46.8061,-2.19063,0
66.4095,-46.6918,-2.18435,0
66.3473,-46.5788,-2.17771,0
66.2823,-46.4673,-2.1707,0
66.2148,-46.3573,-2.16334,0
66.1448,-46.2488,-2.15562,0
66.072,-46.1419,-2.14756,0
65.9969,-46.0367,-2.13915,0
65.921,-45.9319,-2.13014,0
65.8628,-45.812,-2.11766,0
65.8012,-45.6931,-2.10478,0
65.7363,-45.5754,-2.09152,0
65.2914,-45.8193,-2.14238,174
65.1271,-45.8135,-2.14717,174
65.0328,-45.7417,-2.1395,174
65.4315,-45.1304,-2.03675,0
65.3435,-45.0279,-2.02294,0
65.2525,-44.9277,-2.00883,0
65.1584,-44.8299,-1.99444,0
65.0614,-44.7346,-1.97977,0
64.9616,-44.6419,-1.96485,0
64.8635,-44.5453,-1.94853,0
64.7636,-44.4494,-1.9316,0
64.6609,-44.3559,-1.91436,0
64.4624,-44.4215,-1.92382,174
64.3249,-44.3932,-1.91645,174
64.2269,-44.2952,-1.89629,174
64.2135,-44.026,-1.84549,0
65.2909,-54.5777,-1.72197,0
65.3963,-54.4792,-1.74119,0
65.4989,-54.3779,-1.76023,0
65.5984,-54.274,-1.77909,0
65.6946,-54.1676,-1.79772,0
65.7878,-54.0587,-1.81614,0
65.8777,-53.9476,-1.83433,0
65.3642,-53.2613,-1.97827,174
65.4232,-53.1492,-1.99627,174
66.1276,-53.6018,-1.88732,0
66.2041,-53.4827,-1.90443,0
66.2772,-53.3619,-1.92122,0
66.3423,-53.2362,-1.93852,0
66.4035,-53.1088,-1.95553,0
66.461,-52.9804,-1.97219,0
66.5148,-52.8509,-1.98849,0
66.5651,-52.7206,-2.00441,0
66.6116,-52.5895,-2.01995,0
66.6546,-52.4578,-2.03511,0
66.694,-52.3256,-2.04987,0
66.7298,-52.1929,-2.06424,0
66.762,-52.06,-2.0782,0
66.7906,-51.9269,-2.09175,0
66.8159,-51.7936,-2.1049,0
66.8377,-51.6605,-2.11762,0
66.4079,-51.3606,-2.18558,174
66.3625,-51.2183,-2.20367,174
66.3798,-51.1003,-2.21326,174
66.5667,-51.0337,-2.20227,174
66.913,-51.003,-2.17298,0
66.9224,-50.8734,-2.18234,0
66.9562,-50.7503,-2.18826,0
66.987,-50.6264,-2.19382,0
67.015,-50.5017,-2.19904,0
67.0403,-50.3763,-2.20391,0
67.0627,-50.2503,-2.20841,0
67.0823,-50.1237,-2.21255,0
67.0991,-49.9965,-2.21632,0
67.1128,-49.869,-2.21972,0
67.1237,-49.741,-2.22276,0
67.1317,-49.6128,-2.22542,0
67.1369,-49.4843,-2.2277,0
67.139,-49.3556,-2.22962,0
67.1382,-49.2268,-2.23114,0
67.1345,-49.098,-2.23228,0
67.1279,-48.9691,-2.23305,0
67.1183,-48.8404,-2.23344,0
67.1055,-48.7119,-2.23345,0
67.0861,-48.5842,-2.23347,0
67.0636,-48.457,-2.23311,0
67.0381,-48.3304,-2.23237,0
67.0097,-48.2045,-2.23126,0
66.9783,-48.0792,-2.22977,0
66.944,-47.9548,-2.2279,0
66.9069,-47.8312,-2.22565,0
66.8667,-47.7085,-2.22304,0
66.8238,-47.5868,-2.22005,0
66.778,-47.4662,-2.2167,0
66.7295,-47.3467,-2.21297,0
66.6781,-47.2284,-2.20889,0
66.6241,-47.1113,-2.20444,0
66.5672,-46.9956,-2.19963,0
66.5077,-46.8813,-2.19446,0
66.449,-46.7666,-2.18852,0
66.3884,-46.6528,-2.18211,0
66.3252,-46.5403,-2.17534,0
66.2594,-46.4293,-2.16821,0
66.191,-46.3198,-2.16073,0
66.1201,-46.2119,-2.15289,0
66.0466,-46.1056,-2.1447,0
65.9705,-46.001,-2.13618,0
65.9014,-45.8906,-2.1259,0
65.8421,-45.771,-2.11328,0
65.7793,-45.6525,-2.10027,0
65.7132,-45.5352,-2.08687,0
65.2067,-45.844,-2.14888,174
65.0865,-45.7971,-2.14607,174
65.0498,-45.6647,-2.1275,174
65.4016,-45.0949,-2.03204,0
65.3126,-44.9932,-2.01813,0
65.2205,-44.8938,-2.00391,0
65.1255,-44.7968,-1.98943,0
65.0274,-44.7024,-1.97466,0
64.9274,-44.6095,-1.95945,0
64.8295,-44.5121,-1.94275,0
64.7288,-44.417,-1.92571,0
64.625,-44.3244,-1.90836,0
64.4009,-44.4358,-1.92552,174
64.2953,-44.3526,-1.90841,174
64.2948,-44.0673,-1.85538,0
64.1707,-44.0049,-1.84028,0
66.932,-49.9419,-2.19535,0
66.9443,-49.8182,-2.19852,0
66.9539,-49.6942,-2.20133,0
66.9607,-49.5698,-2.20378,0
66.9646,-49.4453,-2.20587,0
66.9657,-49.3206,-2.20758,0
66.9639,-49.1958,-2.20894,0
66.9593,-49.071,-2.20991,0
66.9519,-48.9463,-2.21053,0
66.9399,-48.8219,-2.21094,0
66.923,-48.698,-2.21121,0
66.9033,-48.5746,-2.21111,0
66.8806,-48.4517,-2.21065,0
66.8551,-48.3293,-2.20982,0
66.8267,-48.2076,-2.20862,0
66.7954,-48.0866,-2.20707,0
66.7614,-47.9664,-2.20515,0
66.7245,-47.847,-2.20287,0
66.6848,-47.7286,-2.20024,0
66.6425,-47.6111,-2.19723,0
66.5973,-47.4947,-2.19387,0
66.5495,-47.3793,-2.19017,0
66.499,-47.2652,-2.1861,0
66.4459,-47.1523,-2.18168,0
66.3901,-47.0407,-2.17693,0
66.3339,-46.9294,-2.17154,0
66.277,-46.8183,-2.16556,0
66.2174,-46.7086,-2.15924,0
66.1554,-46.6002,-2.15256,0
66.0908,-46.4932,-2.14553,0
66.0237,-46.3877,-2.13817,0
65.9541,-46.2838,-2.13047,0
65.8821,-46.1814,-2.12242,0
65.8077,-46.0807,-2.11405,0
65.7309,-45.9818,-2.10535,0
65.6635,-45.8747,-2.09439,0
65.6012,-45.7617,-2.08167,0
65.3373,-45.8369,-2.10415,174
65.1326,-45.869,-2.11721,174
65.0344,-45.8024,-2.11076,174
65.3121,-45.3318,-2.02878,0
65.228,-45.233,-2.01555,0
65.1411,-45.1364,-2.00205,0
65.0512,-45.0421,-1.98826,0
64.9586,-44.9502,-1.97423,0
64.8675,-44.8548,-1.95887,0
64.7746,-44.7603,-1.94296,0
64.679,-44.6679,-1.92673,0
64.5805,-44.5779,-1.91019,0
64.4794,-44.4902,-1.89335,0
64.3715,-44.4124,-1.87753,174
64.2694,-44.3225,-1.85881,0
63.895,-44.756,-1.9349,174
64.0401,-44.1844,-1.82669,0
65.1141,-54.4155,-1.71151,0
65.2169,-54.3221,-1.73007,0
65.3169,-54.226,-1.74845,0
65.4139,-54.1273,-1.76668,0
65.5081,-54.0262,-1.78469,0
65.5991,-53.9228,-1.80251,0
65.6873,-53.8171,-1.82011,0
65.3653,-53.3152,-1.92808,174
65.854,-53.5994,-1.8546,0
65.9326,-53.4876,-1.87147,0
66.008,-53.3741,-1.88807,0
66.0765,-53.2559,-1.90508,0
66.1408,-53.1358,-1.92193,0
66.2017,-53.0143,-1.93846,0
66.2591,-52.8917,-1.95466,0
66.313,-52.768,-1.97052,0
66.3634,-52.6434,-1.98603,0
66.4103,-52.518,-2.00119,0
66.4537,-52.3919,-2.01598,0
66.4938,-52.2652,-2.0304,0
66.5303,-52.138,-2.04445,0
66.5635,-52.0105,-2.05811,0
66.5933,-51.8827,-2.07138,0
66.6198,-51.7548,-2.08427,0
66.6437,-51.6272,-2.09663,0
66.668,-51.5009,-2.10815,0
66.689,-51.3745,-2.11926,0
66.707,-51.2482,-2.12999,0
66.7219,-51.1221,-2.14031,0
66.7339,-50.9961,-2.15021,0
66.7454,-50.8711,-2.15941,0
66.7788,-50.7521,-2.16525,0
66.8096,-50.6322,-2.17075,0
66.8377,-50.5117,-2.17591,0
66.8629,-50.3904,-2.18072,0
66.8854,-50.2684,-2.18519,0
66.9052,-50.1459,-2.1893,0
66.9223,-50.0229,-2.19307,0
66.9366,-49.8995,-2.19647,0
66.948,-49.7756,-2.19953,0
66.9566,-49.6515,-2.20221,0
66.9623,-49.5271,-2.20453,0
66.9652,-49.4025,-2.2065,0
66.9654,-49.2777,-2.20809,0
66.9627,-49.1529,-2.20931,0
66.9571,-49.0282,-2.21017,0
66.9487,-48.9034,-2.21065,0
66.9344,-48.7793,-2.21107,0
66.9166,-48.6555,-2.21122,0
66.8959,-48.5323,-2.21099,0
66.8722,-48.4096,-2.2104,0
66.8456,-48.2874,-2.20946,0
66.8162,-48.166,-2.20813,0
66.784,-48.0452,-2.20645,0
66.7491,-47.9253,-2.20441,0
66.7112,-47.8062,-2.202,0
66.6706,-47.6881,-2.19924,0
66.6273,-47.571,-2.19612,0
66.5812,-47.4549,-2.19263,0
66.5325,-47.34,-2.18881,0
66.481,-47.2263,-2.18462,0
66.427,-47.1138,-2.18009,0
66.3703,-47.0027,-2.17521,0
66.3146,-46.8911,-2.16952,0
66.2568,-46.7805,-2.16343,0
66.1964,-46.6712,-2.15698,0
66.1334,-46.5632,-2.15018,0
66.068,-46.4568,-2.14304,0
66.0001,-46.3518,-2.13556,0
65.9296,-46.2484,-2.12774,0
65.8568,-46.1466,-2.11959,0
65.7816,-46.0465,-2.11111,0
65.7041,-45.9482,-2.10229,0
65.6424,-45.8357,-2.09007,0
65.5791,-45.7232,-2.07722,0
65.2451,-45.8676,-2.11249,174
65.0939,-45.8509,-2.11596,174
65.0383,-45.7404,-2.1011,174
65.2836,-45.2976,-2.02427,0
65.1985,-45.1996,-2.01094,0
65.1105,-45.1037,-1.99735,0
65.0198,-45.0102,-1.98348,0
64.9269,-44.918,-1.96915,0
64.8359,-44.8221,-1.95344,0
64.742,-44.7283,-1.93742,0
64.6454,-44.6367,-1.92108,0
64.5461,-44.5475,-1.90444,0
64.4441,-44.4607,-1.88749,0
64.3395,-44.3764,-1.87027,0
64.2323,-44.2947,-1.85278,0
63.8606,-44.732,-1.92941,174
65.1498,-54.3837,-1.7179,0
65.2516,-54.2893,-1.7364,0
65.3505,-54.1924,-1.75473,0
65.4466,-54.0929,-1.77289,0
65.5397,-53.9909,-1.79084,0
65.6298,-53.8867,-1.80859,0
65.7168,-53.7803,-1.82611,0
65.3769,-53.2677,-1.93657,174
65.8814,-53.5612,-1.86044,0
65.9588,-53.4488,-1.87721,0
66.0324,-53.3341,-1.89384,0
66.0991,-53.2148,-1.9109,0
66.1622,-53.0942,-1.92764,0
66.2218,-52.9723,-1.94405,0
66.278,-52.8493,-1.96015,0
66.3306,-52.7253,-1.97588,0
66.3799,-52.6004,-1.99128,0
66.4255,-52.4747,-2.00631,0
66.4679,-52.3484,-2.02098,0
66.5067,-52.2216,-2.03527,0
66.5421,-52.0943,-2.04919,0
66.5741,-51.9666,-2.06272,0
66.6027,-51.8388,-2.07586,0
66.628,-51.7108,-2.08861,0
66.6524,-51.5838,-2.10064,0
66.6755,-51.4575,-2.11201,0
66.6955,-51.3311,-2.123,0
66.7125,-51.2049,-2.13359,0
66.7263,-51.0788,-2.14375,0
66.7373,-50.9529,-2.15353,0
66.7572,-50.8303,-2.16146,0
66.7897,-50.711,-2.16718,0
66.8195,-50.5909,-2.17256,0
66.8466,-50.4701,-2.1776,0
66.8709,-50.3485,-2.1823,0
66.8926,-50.2264,-2.18664,0
66.9114,-50.1037,-2.19064,0
66.9275,-49.9806,-2.19428,0
66.9408,-49.857,-2.19757,0
66.9512,-49.733,-2.20049,0
66.9588,-49.6087,-2.20305,0
66.9637,-49.4842,-2.20526,0
66.9656,-49.3596,-2.20708,0
66.9648,-49.2348,-2.20855,0
66.961,-49.1101,-2.20965,0
66.9545,-48.9853,-2.21037,0
66.9446,-48.8607,-2.21078,0
66.9286,-48.7367,-2.21116,0
66.9098,-48.6131,-2.21118,0
66.888,-48.4901,-2.21083,0
66.8634,-48.3675,-2.21012,0
66.8359,-48.2456,-2.20904,0
66.8055,-48.1244,-2.20759,0
66.7723,-48.0039,-2.20579,0
66.7364,-47.8843,-2.20362,0
66.6976,-47.7655,-2.2011,0
66.656,-47.6477,-2.19821,0
66.6117,-47.531,-2.19496,0
66.5648,-47.4153,-2.19136,0
66.5151,-47.3008,-2.18741,0
66.4627,-47.1875,-2.1831,0
66.4078,-47.0755,-2.17845,0
66.3512,-46.9644,-2.17334,0
66.2951,-46.8529,-2.16747,0
66.2363,-46.7427,-2.16126,0
66.1751,-46.6339,-2.15469,0
66.1113,-46.5265,-2.14778,0
66.0449,-46.4205,-2.14051,0
65.9762,-46.3161,-2.13291,0
65.9049,-46.2132,-2.12498,0
65.8312,-46.112,-2.11671,0
65.7552,-46.0126,-2.10811,0
65.6823,-45.9102,-2.09829,0
65.621,-45.7969,-2.08569,0
65.5566,-45.6848,-2.07273,0
65.1756,-45.8782,-2.11688,174
65.0555,-45.8328,-2.11465,174
65.0563,-45.6623,-2.08843,174
65.2547,-45.2637,-2.01972,0
65.1686,-45.1664,-2.0063,0
65.0796,-45.0714,-1.9926,0
64.9878,-44.9786,-1.97865,0
64.896,-44.8848,-1.96379,0
64.804,-44.7896,-1.94797,0
64.7092,-44.6966,-1.93184,0
64.6116,-44.6058,-1.91539,0
64.5113,-44.5174,-1.89864,0
64.4084,-44.4314,-1.8816,0
64.3029,-44.348,-1.86429,0
63.9361,-44.7589,-1.93639,174
63.8365,-44.6871,-1.92001,174
66.7701,-49.928,-2.17454,0
66.782,-49.8081,-2.1776,0
66.7912,-49.6878,-2.18031,0
66.7977,-49.5672,-2.18267,0
66.8013,-49.4465,-2.18468,0
66.8023,-49.3256,-2.18633,0
66.8005,-49.2046,-2.18763,0
66.7959,-49.0836,-2.18857,0
66.7866,-48.9629,-2.18937,0
66.7731,-48.8426,-2.18998,0
66.7568,-48.7226,-2.19024,0
66.7376,-48.603,-2.19014,0
66.7156,-48.4839,-2.18969,0
66.6909,-48.3654,-2.18889,0
66.6634,-48.2475,-2.18774,0
66.6331,-48.1303,-2.18624,0
66.6002,-48.0138,-2.18437,0
66.5645,-47.8981,-2.18217,0
66.5261,-47.7834,-2.17962,0
66.4851,-47.6696,-2.1767,0
66.4413,-47.5568,-2.17346,0
66.3951,-47.445,-2.16986,0
66.3461,-47.3344,-2.16593,0
66.2946,-47.2251,-2.16166,0
66.2406,-47.1169,-2.15705,0
66.1878,-47.0082,-2.1516,0
66.1325,-46.9007,-2.14579,0
66.0748,-46.7943,-2.13966,0
66.0145,-46.6893,-2.13318,0
65.9519,-46.5857,-2.12635,0
65.8867,-46.4835,-2.11921,0
65.8192,-46.3829,-2.11174,0
65.7495,-46.2838,-2.10393,0
65.6773,-46.1863,-2.09581,0
65.6029,-46.0904,-2.08737,0
65.5262,-45.9964,-2.07861,0
65.4545,-45.8976,-2.06823,0
65.3907,-45.7906,-2.05556,0
65.1227,-45.8828,-2.08188,174
65.0388,-45.8021,-2.0728,174
65.1738,-45.4857,-2.01701,0
65.0924,-45.3911,-2.00425,0
65.0083,-45.2986,-1.99122,0
64.9225,-45.2068,-1.97766,0
64.8379,-45.1124,-1.9629,0
64.7505,-45.0199,-1.94781,0
64.6605,-44.9294,-1.93242,0
64.5677,-44.8411,-1.91673,0
64.4724,-44.7549,-1.90074,0
64.3746,-44.6711,-1.88448,0
64.2742,-44.5897,-1.86795,0
64.1715,-44.5108,-1.85115,0
63.876,-44.8016,-1.90418,174
63.819,-44.6461,-1.87143,174
64.9841,-54.2338,-1.70796,0
65.0834,-54.1442,-1.72583,0
65.18,-54.0521,-1.74357,0
65.2739,-53.9575,-1.76113,0
65.365,-53.8605,-1.77851,0
65.4531,-53.7612,-1.79569,0
65.5384,-53.6598,-1.81267,0
65.6207,-53.5564,-1.82943,0
65.7,-53.4509,-1.84596,0
65.7759,-53.3433,-1.86232,0
65.8451,-53.231,-1.87916,0
65.9111,-53.1172,-1.89572,0
65.9737,-53.002,-1.912,0
66.033,-52.8855,-1.92797,0
66.0891,-52.7679,-1.94363,0
66.1418,-52.6493,-1.95897,0
66.1912,-52.5297,-1.97397,0
66.2372,-52.4093,-1.98864,0
66.2799,-52.2882,-2.00296,0
66.3194,-52.1665,-2.01693,0
66.3555,-52.0443,-2.03054,0
66.3883,-51.9217,-2.0438,0
66.4209,-51.8002,-2.05623,0
66.451,-51.6787,-2.0682,0
66.478,-51.5569,-2.07981,0
66.5021,-51.435,-2.09102,0
66.5231,-51.3131,-2.10185,0
66.5413,-51.1911,-2.1123,0
66.5565,-51.0693,-2.12236,0
66.5687,-50.9476,-2.13202,0
66.5899,-50.8292,-2.13979,0
66.6223,-50.7137,-2.14544,0
66.652,-50.5975,-2.15076,0
66.6791,-50.4806,-2.15574,0
66.7035,-50.3629,-2.16041,0
66.7253,-50.2447,-2.16472,0
66.7444,-50.1259,-2.1687,0
66.7608,-50.0066,-2.17234,0
66.7745,-49.8869,-2.17563,0
66.7855,-49.7668,-2.17857,0
66.7937,-49.6464,-2.18116,0
66.7992,-49.5258,-2.1834,0
66.8019,-49.4049,-2.18529,0
66.8019,-49.284,-2.18682,0
66.7992,-49.163,-2.18799,0
66.7937,-49.0421,-2.18881,0
66.7823,-48.9215,-2.18961,0
66.7678,-48.8013,-2.19011,0
66.7505,-48.6814,-2.19024,0
66.7304,-48.562,-2.19002,0
66.7075,-48.4431,-2.18946,0
66.6818,-48.3248,-2.18853,0
66.6534,-48.2071,-2.18725,0
66.6221,-48.0902,-2.18563,0
66.5882,-47.974,-2.18365,0
66.5516,-47.8586,-2.18132,0
66.5123,-47.7442,-2.17865,0
66.4704,-47.6307,-2.17563,0
66.4257,-47.5182,-2.17226,0
66.3785,-47.4069,-2.16855,0
66.3287,-47.2967,-2.1645,0
66.2764,-47.1878,-2.16011,0
66.2227,-47.0795,-2.15523,0
66.1691,-46.9711,-2.14965,0
66.113,-46.864,-2.14372,0
66.0543,-46.7581,-2.13747,0
65.9933,-46.6536,-2.13087,0
65.9298,-46.5504,-2.12394,0
65.8638,-46.4488,-2.11667,0
65.7955,-46.3486,-2.10909,0
65.7249,-46.2501,-2.10117,0
65.652,-46.1532,-2.09295,0
65.5767,-46.0579,-2.08439,0
65.4993,-45.9644,-2.07554,0
65.4329,-45.8607,-2.06392,0
65.2529,-45.8642,-2.07314,174
65.0816,-45.8674,-2.08127,174
65.0529,-45.7295,-2.0607,174
65.1461,-45.453,-2.01267,0
65.0638,-45.3591,-1.9998,0
64.9788,-45.2673,-1.98668,0
64.8937,-45.1742,-1.97261,0
64.8082,-45.0804,-1.95775,0
64.7199,-44.9886,-1.94256,0
64.6289,-44.8988,-1.92706,0
64.5353,-44.8112,-1.91127,0
64.4391,-44.7259,-1.89519,0
64.3404,-44.6429,-1.87883,0
64.2391,-44.5623,-1.8622,0
63.9337,-44.8601,-1.91692,174
63.8395,-44.7829,-1.89964,174
65.0185,-54.2033,-1.71411,0
65.117,-54.1128,-1.73195,0
65.2126,-54.0198,-1.74962,0
65.3055,-53.9244,-1.76712,0
65.3956,-53.8266,-1.78443,0
65.4827,-53.7266,-1.80155,0
65.567,-53.6245,-1.81845,0
65.6483,-53.5203,-1.83514,0
65.7265,-53.4142,-1.85158,0
65.8,-53.3049,-1.86814,0
65.8682,-53.1921,-1.88488,0
65.933,-53.0778,-1.90135,0
65.9945,-52.9621,-1.91752,0
66.0527,-52.8452,-1.93339,0
66.1076,-52.7273,-1.94893,0
66.1591,-52.6083,-1.96416,0
66.2074,-52.4884,-1.97905,0
66.2523,-52.3678,-1.9936,0
66.2938,-52.2464,-2.0078,0
66.3321,-52.1246,-2.02164,0
66.3671,-52.0022,-2.03514,0
66.3995,-51.8798,-2.04817,0
66.4316,-51.7585,-2.06039,0
66.4605,-51.6369,-2.07224,0
66.4866,-51.5151,-2.08371,0
66.5097,-51.3931,-2.09479,0
66.5297,-51.2712,-2.10548,0
66.5468,-51.1492,-2.1158,0
66.561,-51.0275,-2.12572,0
66.5723,-50.9058,-2.13527,0
66.6014,-50.7896,-2.14177,0
66.6328,-50.6739,-2.1473,0
66.6616,-50.5574,-2.15251,0
66.6877,-50.4402,-2.15739,0
66.7113,-50.3223,-2.16193,0
66.7321,-50.2039,-2.16613,0
66.7503,-50.0849,-2.17,0
66.7658,-49.9655,-2.17351,0
66.7786,-49.8456,-2.17668,0
66.7886,-49.7254,-2.1795,0
66.7959,-49.6049,-2.18197,0
66.8005,-49.4842,-2.1841,0
66.8023,-49.3634,-2.18585,0
66.8013,-49.2425,-2.18726,0
66.7977,-49.1215,-2.18831,0
66.7904,-49.0006,-2.1891,0
66.7777,-48.8802,-2.18982,0
66.7622,-48.7601,-2.19019,0
66.7439,-48.6404,-2.19021,0
66.7228,-48.5211,-2.18987,0
66.699,-48.4024,-2.18918,0
66.6723,-48.2843,-2.18813,0
66.643,-48.1669,-2.18674,0
66.6109,-48.0502,-2.18499,0
66.5759,-47.9342,-2.18289,0
66.5384,-47.8192,-2.18045,0
66.4982,-47.7051,-2.17765,0
66.4553,-47.5919,-2.17451,0
66.4098,-47.4799,-2.17102,0
66.3617,-47.3689,-2.16719,0
66.3111,-47.2592,-2.16303,0
66.2578,-47.1506,-2.15852,0
66.2046,-47.0421,-2.15335,0
66.1501,-46.9342,-2.14765,0
66.0931,-46.8274,-2.14161,0
66.0337,-46.722,-2.13524,0
65.9717,-46.618,-2.12853,0
65.9074,-46.5153,-2.12148,0
65.8406,-46.4142,-2.11411,0
65.7715,-46.3146,-2.1064,0
65.7001,-46.2166,-2.09839,0
65.6264,-46.1202,-2.09005,0
65.5504,-46.0256,-2.08138,0
65.4737,-45.9313,-2.07212,0
65.4109,-45.8239,-2.05956,0
65.1778,-45.8802,-2.07903,174
65.0533,-45.8393,-2.07807,174
65.1987,-45.5157,-2.02096,0
65.1181,-45.4205,-2.00828,0
65.0349,-45.3273,-1.99532,0
64.9489,-45.2362,-1.98211,0
64.8647,-45.1417,-1.96755,0
64.7781,-45.0486,-1.95257,0
64.6889,-44.9575,-1.93727,0
64.5971,-44.8685,-1.92167,0
64.5025,-44.7816,-1.90577,0
64.4055,-44.6971,-1.8896,0
64.3059,-44.6149,-1.87315,0
64.2039,-44.5352,-1.85643,0
63.8984,-44.8393,-1.91217,174
63.8186,-44.7327,-1.88902,174
66.6173,-49.9149,-2.15489,0
66.6287,-49.7985,-2.15785,0
66.6375,-49.6818,-2.16047,0
66.6437,-49.5648,-2.16274,0
66.6472,-49.4476,-2.16468,0
66.648,-49.3303,-2.16627,0
66.6461,-49.2129,-2.16752,0
66.6394,-49.0957,-2.16868,0
66.629,-48.9788,-2.16962,0
66.6159,-48.8621,-2.17021,0
66.6001,-48.7457,-2.17047,0
66.5814,-48.6298,-2.17038,0
66.5602,-48.5143,-2.16994,0
66.5362,-48.3994,-2.16916,0
66.5095,-48.2851,-2.16804,0
66.4802,-48.1714,-2.16659,0
66.4482,-48.0585,-2.16479,0
66.4137,-47.9464,-2.16264,0
66.3764,-47.8351,-2.16018,0
66.3366,-47.7247,-2.15736,0
66.2943,-47.6153,-2.15421,0
66.2494,-47.507,-2.15072,0
66.202,-47.3997,-2.14692,0
66.1521,-47.2937,-2.14278,0
66.1012,-47.1881,-2.13811,0
66.05,-47.0826,-2.13279,0
65.9963,-46.9783,-2.12716,0
65.9402,-46.8752,-2.12119,0
65.8817,-46.7734,-2.11489,0
65.8209,-46.673,-2.10827,0
65.7577,-46.5739,-2.10133,0
65.6921,-46.4764,-2.09406,0
65.6243,-46.3803,-2.08649,0
65.5542,-46.2858,-2.07861,0
65.482,-46.1929,-2.07041,0
65.4076,-46.1017,-2.06192,0
65.331,-46.0123,-2.05311,0
65.2555,-45.9217,-2.04341,0
65.1903,-45.8204,-2.03081,0
65.121,-45.7218,-2.01815,0
65.0448,-45.6291,-2.00606,0
64.9661,-45.5383,-1.99372,0
64.8877,-45.4458,-1.98038,0
64.8082,-45.3535,-1.96638,0
64.726,-45.2629,-1.95208,0
64.6412,-45.1741,-1.93748,0
64.5538,-45.0874,-1.92258,0
64.4639,-45.0027,-1.9074,0
64.3716,-44.9202,-1.89194,0
64.2768,-44.8399,-1.87621,0
64.1796,-44.762,-1.86023,0
64.0801,-44.6865,-1.84399,0
63.8577,-44.846,-1.87383,174
63.8743,-44.5431,-1.81083,0
64.863,-54.0644,-1.70465,0
64.9591,-53.9784,-1.7219,0
65.0525,-53.8899,-1.739,0
65.1433,-53.799,-1.75595,0
65.2315,-53.7059,-1.77273,0
65.3169,-53.6105,-1.78933,0
65.3995,-53.5131,-1.80573,0
65.4793,-53.4136,-1.82192,0
65.5548,-53.3111,-1.8382,0
65.6253,-53.2048,-1.85473,0
65.6927,-53.0971,-1.87101,0
65.7569,-52.9878,-1.88702,0
65.818,-52.8772,-1.90274,0
65.8759,-52.7654,-1.91819,0
65.9305,-52.6524,-1.93334,0
65.9821,-52.5384,-1.94818,0
66.0305,-52.4235,-1.96271,0
66.0755,-52.3078,-1.97691,0
66.1175,-52.1913,-1.9908,0
66.1586,-52.0755,-2.00395,0
66.1972,-51.9594,-2.01668,0
66.233,-51.8428,-2.02904,0
66.2657,-51.7258,-2.04105,0
66.2954,-51.6085,-2.05271,0
66.3223,-51.4909,-2.064,0
66.3462,-51.3731,-2.07492,0
66.3673,-51.2553,-2.08547,0
66.3855,-51.1374,-2.09566,0
66.4008,-51.0196,-2.10548,0
66.4134,-50.9019,-2.11492,0
66.4431,-50.7896,-2.12126,0
66.4744,-50.6775,-2.12672,0
66.5032,-50.5647,-2.13188,0
66.5293,-50.4512,-2.13671,0
66.553,-50.337,-2.14121,0
66.5741,-50.2222,-2.1454,0
66.5924,-50.1069,-2.14925,0
66.6083,-49.9911,-2.15277,0
66.6215,-49.875,-2.15594,0
66.632,-49.7584,-2.15879,0
66.6399,-49.6416,-2.16129,0
66.6452,-49.5245,-2.16345,0
66.6478,-49.4073,-2.16526,0
66.6477,-49.29,-2.16674,0
66.6448,-49.1726,-2.16788,0
66.6362,-49.0555,-2.16904,0
66.6248,-48.9386,-2.16987,0
66.6108,-48.8221,-2.17034,0
66.5939,-48.7059,-2.17047,0
66.5745,-48.5901,-2.17027,0
66.5523,-48.4748,-2.16971,0
66.5273,-48.3601,-2.16882,0
66.4998,-48.2459,-2.16758,0
66.4695,-48.1325,-2.16601,0
66.4366,-48.0199,-2.16409,0
66.4012,-47.908,-2.16183,0
66.363,-47.797,-2.15924,0
66.3223,-47.687,-2.15632,0
66.2791,-47.578,-2.15305,0
66.2334,-47.47,-2.14945,0
66.1852,-47.3632,-2.14552,0
66.1344,-47.2575,-2.14129,0
66.0839,-47.1517,-2.13632,0
66.0319,-47.0466,-2.1309,0
65.9773,-46.9427,-2.12514,0
65.9204,-46.8401,-2.11906,0
65.8611,-46.7388,-2.11265,0
65.7994,-46.6388,-2.10591,0
65.7353,-46.5403,-2.09886,0
65.6691,-46.4432,-2.0915,0
65.6005,-46.3476,-2.08381,0
65.5297,-46.2537,-2.07582,0
65.4566,-46.1614,-2.06752,0
65.3815,-46.0708,-2.05892,0
65.3042,-45.9819,-2.05003,0
65.2334,-45.8868,-2.03912,0
65.0847,-45.8684,-2.04357,174
65.0952,-45.6898,-2.01403,0
65.018,-45.5977,-2.00186,0
64.9384,-45.5074,-1.98938,0
64.8606,-45.4139,-1.9756,0
64.7802,-45.3221,-1.96151,0
64.6971,-45.2322,-1.9471,0
64.6115,-45.1441,-1.93238,0
64.5232,-45.0581,-1.9174,0
64.4325,-44.9741,-1.90212,0
64.3393,-44.8924,-1.88656,0
64.2437,-44.8129,-1.87074,0
64.1457,-44.7358,-1.85467,0
63.9198,-44.8946,-1.88479,174
63.8325,-44.8057,-1.86501,174
64.8963,-54.0352,-1.71059,0
64.9915,-53.9483,-1.72778,0
65.084,-53.859,-1.74484,0
65.1739,-53.7673,-1.76174,0
65.2612,-53.6734,-1.77845,0
65.3456,-53.5773,-1.79498,0
65.4273,-53.4791,-1.81132,0
65.506,-53.379,-1.82743,0
65.5794,-53.2747,-1.84392,0
65.6488,-53.168,-1.86036,0
65.7152,-53.0597,-1.87653,0
65.7782,-52.95,-1.89246,0
65.8383,-52.8389,-1.90809,0
65.895,-52.7267,-1.92343,0
65.9486,-52.6134,-1.93847,0
65.9991,-52.499,-1.9532,0
66.0462,-52.3838,-1.96763,0
66.0903,-52.2678,-1.98173,0
66.1316,-52.1514,-1.99542,0
66.1723,-52.0357,-2.00837,0
66.2098,-51.9194,-2.02096,0
66.2445,-51.8027,-2.03321,0
66.2762,-51.6855,-2.0451,0
66.3049,-51.5681,-2.05663,0
66.3308,-51.4505,-2.06779,0
66.3538,-51.3327,-2.07859,0
66.3738,-51.2148,-2.08902,0
66.391,-51.0969,-2.09907,0
66.4055,-50.9792,-2.10876,0
66.4212,-50.8627,-2.11749,0
66.4541,-50.7512,-2.12317,0
66.4846,-50.6388,-2.12853,0
66.5124,-50.5258,-2.13358,0
66.5378,-50.412,-2.1383,0
66.5605,-50.2976,-2.14269,0
66.5807,-50.1827,-2.14675,0
66.5982,-50.0672,-2.1505,0
66.6131,-49.9513,-2.15389,0
66.6254,-49.8349,-2.15696,0
66.635,-49.7183,-2.15968,0
66.642,-49.6014,-2.16207,0
66.6463,-49.4843,-2.16411,0
66.648,-49.367,-2.16581,0
66.647,-49.2496,-2.16716,0
66.6421,-49.1323,-2.16832,0
66.6326,-49.0153,-2.16936,0
66.6202,-48.8985,-2.17006,0
66.6052,-48.7821,-2.17042,0
66.5875,-48.666,-2.17045,0
66.5671,-48.5504,-2.17011,0
66.544,-48.4353,-2.16944,0
66.5182,-48.3208,-2.16843,0
66.4897,-48.2069,-2.16708,0
66.4585,-48.0937,-2.16539,0
66.4248,-47.9813,-2.16335,0
66.3884,-47.8698,-2.16098,0
66.3494,-47.7591,-2.15828,0
66.3078,-47.6494,-2.15523,0
66.2637,-47.5407,-2.15185,0
66.2171,-47.4332,-2.14814,0
66.168,-47.3267,-2.14411,0
66.1168,-47.2213,-2.13969,0
66.0663,-47.1155,-2.13449,0
66.0134,-47.0108,-2.12895,0
65.958,-46.9073,-2.12308,0
65.9003,-46.8051,-2.11689,0
65.8402,-46.7043,-2.11038,0
65.7777,-46.6048,-2.10353,0
65.7129,-46.5067,-2.09637,0
65.6458,-46.4102,-2.08889,0
65.5764,-46.3152,-2.0811,0
65.5048,-46.2218,-2.073,0
65.431,-46.1301,-2.0646,0
65.3552,-46.0401,-2.0559,0
65.2771,-45.9518,-2.0469,0
65.2109,-45.852,-2.03479,0
65.0671,-45.8295,-2.03812,174
65.069,-45.6579,-2.00987,0
64.9909,-45.5665,-1.99761,0
64.9121,-45.4751,-1.98468,0
64.8333,-45.3822,-1.97079,0
64.752,-45.291,-1.95659,0
64.668,-45.2017,-1.94208,0
64.5814,-45.1143,-1.92727,0
64.4923,-45.029,-1.91217,0
64.4007,-44.9458,-1.89681,0
64.3067,-44.8648,-1.88115,0
64.2103,-44.7861,-1.86525,0
64.1114,-44.7098,-1.84909,0
63.8812,-44.8808,-1.88141,174
63.8095,-44.7603,-1.85507,174
66.4727,-49.9025,-2.1363,0
66.4837,-49.7894,-2.13916,0
66.4922,-49.6761,-2.1417,0
66.4981,-49.5624,-2.1439,0
66.5013,-49.4487,-2.14576,0
66.5021,-49.3347,-2.1473,0
66.4977,-49.2209,-2.14883,0
66.4902,-49.1072,-2.15007,0
66.4801,-48.9937,-2.15097,0
66.4673,-48.8805,-2.15155,0
66.452,-48.7676,-2.1518,0
66.434,-48.6551,-2.15171,0
66.4133,-48.5431,-2.15129,0
66.3901,-48.4315,-2.15053,0
66.3642,-48.3206,-2.14945,0
66.3358,-48.2103,-2.14803,0
66.3047,-48.1007,-2.14629,0
66.2712,-47.9919,-2.14421,0
66.2351,-47.8839,-2.14181,0
66.1965,-47.7768,-2.13908,0
66.1555,-47.6706,-2.13604,0
66.1119,-47.5655,-2.13265,0
66.0659,-47.4614,-2.12896,0
66.0175,-47.3584,-2.12494,0
65.9696,-47.2553,-2.12018,0
65.9198,-47.1529,-2.11502,0
65.8676,-47.0517,-2.10954,0
65.813,-46.9517,-2.10373,0
65.7562,-46.8529,-2.09761,0
65.697,-46.7555,-2.09117,0
65.6355,-46.6594,-2.08442,0
65.572,-46.5647,-2.07736,0
65.506,-46.4715,-2.07,0
65.438,-46.3798,-2.06234,0
65.3678,-46.2897,-2.05437,0
65.2955,-46.2013,-2.04612,0
65.2212,-46.1145,-2.03758,0
65.1448,-46.0294,-2.02875,0
65.0664,-45.9462,-2.01965,0
64.9984,-45.8522,-2.00753,0
64.9253,-45.7621,-1.99561,0
64.8531,-45.6701,-1.98265,0
64.7784,-45.5796,-1.96939,0
64.7009,-45.4908,-1.95582,0
64.6211,-45.4038,-1.94195,0
64.5388,-45.3186,-1.9278,0
64.454,-45.2353,-1.91337,0
64.3667,-45.1541,-1.89866,0
64.2772,-45.0749,-1.8837,0
64.1852,-44.9979,-1.86847,0
64.0911,-44.9232,-1.853,0
63.9947,-44.8508,-1.8373,0
63.8961,-44.7808,-1.82138,0
63.7955,-44.7134,-1.80525,0
64.7498,-53.9062,-1.70155,0
64.8428,-53.8235,-1.71822,0
64.9333,-53.7383,-1.73474,0
65.0212,-53.6509,-1.75112,0
65.1066,-53.5613,-1.76733,0
65.1895,-53.4696,-1.78338,0
65.2696,-53.3758,-1.79923,0
65.3447,-53.2779,-1.81547,0
65.4162,-53.1775,-1.83168,0
65.4847,-53.0755,-1.84766,0
65.5503,-52.9719,-1.86339,0
65.6128,-52.8669,-1.87888,0
65.6723,-52.7606,-1.8941,0
65.7288,-52.6531,-1.90903,0
65.7823,-52.5444,-1.92371,0
65.8335,-52.4354,-1.93791,0
65.883,-52.3261,-1.95158,0
65.9296,-52.216,-1.96494,0
65.9734,-52.1051,-1.97797,0
66.0142,-51.9936,-1.99067,0
66.0521,-51.8815,-2.00304,0
66.0873,-51.7689,-2.01507,0
66.1195,-51.6558,-2.02676,0
66.1491,-51.5424,-2.0381,0
66.1755,-51.4287,-2.04911,0
66.1994,-51.3149,-2.05976,0
66.2204,-51.2009,-2.07005,0
66.2386,-51.0868,-2.07999,0
66.2541,-50.9728,-2.08956,0
66.2715,-50.8602,-2.09811,0
66.3042,-50.7521,-2.10372,0
66.3345,-50.6433,-2.10902,0
66.3623,-50.5337,-2.11402,0
66.3877,-50.4234,-2.1187,0
66.4105,-50.3125,-2.12306,0
66.4309,-50.201,-2.12711,0
66.4487,-50.089,-2.13084,0
66.4641,-49.9765,-2.13424,0
66.4768,-49.8637,-2.13732,0
66.4869,-49.7505,-2.14007,0
66.4945,-49.637,-2.14249,0
66.4995,-49.5234,-2.14458,0
66.502,-49.4095,-2.14633,0
66.5011,-49.2956,-2.14783,0
66.4954,-49.1818,-2.14929,0
66.487,-49.0682,-2.15041,0
66.476,-48.9548,-2.15121,0
66.4623,-48.8417,-2.15167,0
66.4461,-48.7289,-2.1518,0
66.4272,-48.6166,-2.1516,0
66.4056,-48.5047,-2.15107,0
66.3815,-48.3934,-2.15019,0
66.3547,-48.2826,-2.149,0
66.3254,-48.1725,-2.14748,0
66.2935,-48.0632,-2.14561,0
66.2591,-47.9547,-2.14342,0
66.2221,-47.847,-2.14092,0
66.1827,-47.7402,-2.13807,0
66.1407,-47.6344,-2.1349,0
66.0963,-47.5296,-2.13142,0
66.0495,-47.4259,-2.12761,0
66.0009,-47.323,-2.1234,0
65.9527,-47.22,-2.11844,0
65.9021,-47.118,-2.11317,0
65.8491,-47.0172,-2.10757,0
65.7937,-46.9176,-2.10167,0
65.7362,-46.8193,-2.09543,0
65.6762,-46.7223,-2.08889,0
65.614,-46.6267,-2.08203,0
65.5495,-46.5325,-2.07487,0
65.4829,-46.4398,-2.06741,0
65.4141,-46.3487,-2.05964,0
65.3432,-46.2591,-2.05157,0
65.2702,-46.1713,-2.04322,0
65.1951,-46.0851,-2.03458,0
65.118,-46.0006,-2.02566,0
65.043,-45.914,-2.01556,0
64.9732,-45.8214,-2.00354,0
64.9009,-45.7303,-1.9912,0
64.8277,-45.6388,-1.97813,0
64.7521,-45.5489,-1.96476,0
64.6738,-45.4607,-1.95109,0
64.5931,-45.3743,-1.93712,0
64.5099,-45.2898,-1.92287,0
64.4243,-45.2072,-1.90834,0
64.3363,-45.1266,-1.89355,0
64.2459,-45.0482,-1.87849,0
64.1531,-44.9719,-1.86319,0
64.0582,-44.898,-1.84763,0
63.9312,-44.882,-1.84335,174
63.8618,-44.7574,-1.81585,0
64.782,-53.878,-1.70729,0
64.8741,-53.7945,-1.72391,0
64.9638,-53.7086,-1.74038,0
65.0509,-53.6204,-1.75671,0
65.1354,-53.53,-1.77287,0
65.2173,-53.4376,-1.78884,0
65.2962,-53.3429,-1.80471,0
65.3697,-53.2436,-1.82106,0
65.4401,-53.1426,-1.8372,0
65.5077,-53.0401,-1.85309,0
65.5721,-52.936,-1.86874,0
65.6336,-52.8306,-1.88413,0
65.692,-52.7238,-1.89926,0
65.7476,-52.6159,-1.91412,0
65.7998,-52.5069,-1.92868,0
65.8509,-52.3979,-1.94265,0
65.8993,-52.2884,-1.95621,0
65.9449,-52.178,-1.96945,0
65.9877,-52.0669,-1.98237,0
66.0276,-51.9552,-1.99495,0
66.0646,-51.8428,-2.00721,0
66.0987,-51.7301,-2.01913,0
66.13,-51.6169,-2.0307,0
66.1584,-51.5034,-2.04193,0
66.1841,-51.3896,-2.05281,0
66.207,-51.2757,-2.06333,0
66.227,-51.1617,-2.07351,0
66.2442,-51.0476,-2.08332,0
66.2588,-50.9337,-2.09278,0
66.283,-50.8232,-2.10007,0
66.3149,-50.7148,-2.10557,0
66.3444,-50.6057,-2.11077,0
66.3714,-50.4958,-2.11566,0
66.3959,-50.3853,-2.12023,0
66.4178,-50.2742,-2.12449,0
66.4373,-50.1626,-2.12843,0
66.4543,-50.0504,-2.13205,0
66.4688,-49.9378,-2.13534,0
66.4805,-49.8248,-2.13831,0
66.4898,-49.7115,-2.14094,0
66.4966,-49.598,-2.14324,0
66.5006,-49.4843,-2.14522,0
66.5022,-49.3704,-2.14686,0
66.4995,-49.2565,-2.14837,0
66.4928,-49.1428,-2.14971,0
66.4836,-49.0292,-2.15073,0
66.4716,-48.9159,-2.1514,0
66.4571,-48.8029,-2.15175,0
66.4399,-48.6903,-2.15177,0
66.4201,-48.5781,-2.15145,0
66.3976,-48.4664,-2.1508,0
66.3726,-48.3552,-2.14983,0
66.3449,-48.2447,-2.14851,0
66.3148,-48.1349,-2.14687,0
66.282,-48.0258,-2.1449,0
66.2466,-47.9175,-2.1426,0
66.2088,-47.8102,-2.13998,0
66.1686,-47.7037,-2.13702,0
66.1257,-47.5982,-2.13375,0
66.0805,-47.4938,-2.13015,0
66.0328,-47.3905,-2.12624,0
65.9847,-47.2875,-2.12174,0
65.9355,-47.1848,-2.11667,0
65.8841,-47.0832,-2.11129,0
65.8303,-46.9828,-2.10558,0
65.7742,-46.8837,-2.09956,0
65.7158,-46.7858,-2.09322,0
65.655,-46.6893,-2.08657,0
65.5921,-46.5942,-2.07961,0
65.527,-46.5005,-2.07234,0
65.4595,-46.4083,-2.06477,0
65.39,-46.3177,-2.05691,0
65.3184,-46.2287,-2.04874,0
65.2447,-46.1414,-2.04028,0
65.1689,-46.0559,-2.03155,0
65.0912,-45.972,-2.02252,0
65.0202,-45.881,-2.01126,0
64.9478,-45.7908,-1.99952,0
64.876,-45.6987,-1.98674,0
64.802,-45.6077,-1.97357,0
64.7255,-45.5184,-1.96009,0
64.6464,-45.4308,-1.94632,0
64.5648,-45.3451,-1.93226,0
64.4807,-45.2612,-1.91791,0
64.3943,-45.1793,-1.90329,0
64.3055,-45.0994,-1.8884,0
64.2143,-45.0217,-1.87326,0
64.1208,-44.9463,-1.85786,0
64.0251,-44.8732,-1.84224,0
63.8932,-44.8668,-1.8397,174
63.8272,-44.7342,-1.8103,0
66.3357,-49.8907,-2.11869,0
66.3463,-49.7808,-2.12147,0
66.3545,-49.6707,-2.12391,0
66.3602,-49.5602,-2.12604,0
66.363,-49.4497,-2.12789,0
66.3609,-49.339,-2.12973,0
66.3563,-49.2285,-2.13125,0
66.3491,-49.1181,-2.13246,0
66.3392,-49.0079,-2.13333,0
66.3269,-48.8979,-2.1339,0
66.312,-48.7883,-2.13413,0
66.2944,-48.6791,-2.13404,0
66.2745,-48.5702,-2.13363,0
66.2518,-48.4619,-2.13291,0
66.2267,-48.3542,-2.13185,0
66.1991,-48.2471,-2.13049,0
66.169,-48.1406,-2.12879,0
66.1364,-48.0349,-2.12678,0
66.1014,-47.93,-2.12445,0
66.0639,-47.826,-2.1218,0
66.0241,-47.7229,-2.11883,0
65.9817,-47.6208,-2.11555,0
65.9371,-47.5197,-2.11197,0
65.8911,-47.4193,-2.10793,0
65.8449,-47.3188,-2.10321,0
65.7965,-47.2194,-2.0982,0
65.7457,-47.1212,-2.09286,0
65.6927,-47.024,-2.08721,0
65.6374,-46.9281,-2.08126,0
65.5798,-46.8335,-2.07499,0
65.5202,-46.7402,-2.06843,0
65.4583,-46.6483,-2.06157,0
65.3941,-46.5578,-2.05441,0
65.328,-46.4688,-2.04695,0
65.2598,-46.3813,-2.03921,0
65.1895,-46.2954,-2.03119,0
65.1173,-46.2112,-2.02288,0
65.043,-46.1287,-2.01431,0
64.9668,-46.0478,-2.00545,0
64.8894,-45.9682,-1.99618,0
64.8187,-45.881,-1.98453,0
64.7484,-45.7924,-1.97195,0
64.6756,-45.7053,-1.95907,0
64.6004,-45.6199,-1.9459,0
64.5227,-45.5361,-1.93244,0
64.4427,-45.4542,-1.91872,0
64.3602,-45.3741,-1.90472,0
64.2755,-45.296,-1.89047,0
64.1887,-45.2199,-1.87596,0
64.0994,-45.146,-1.86121,0
64.008,-45.0742,-1.84623,0
63.9147,-45.0047,-1.83103,0
63.8191,-44.9376,-1.81562,0
63.7216,-44.873,-1.8,0
64.6438,-53.758,-1.69865,0
64.7338,-53.6783,-1.71476,0
64.8216,-53.5964,-1.73075,0
64.9069,-53.5122,-1.74659,0
64.9898,-53.4259,-1.76227,0
65.0696,-53.337,-1.77793,0
65.1447,-53.244,-1.79401,0
65.2169,-53.1491,-1.80989,0
65.2864,-53.0526,-1.82557,0
65.353,-52.9544,-1.84103,0
65.4176,-52.8553,-1.8561,0
65.4798,-52.7553,-1.87081,0
65.5392,-52.654,-1.88525,0
65.5959,-52.5515,-1.8994,0
65.6499,-52.4479,-1.91327,0
65.7011,-52.3432,-1.92687,0
65.7495,-52.2377,-1.94015,0
65.7952,-52.1314,-1.95313,0
65.838,-52.0242,-1.9658,0
65.8781,-51.9165,-1.97816,0
65.9155,-51.8081,-1.99019,0
65.9501,-51.6991,-2.00191,0
65.9819,-51.5898,-2.01329,0
66.0109,-51.4801,-2.02434,0
66.0372,-51.3701,-2.03507,0
66.0609,-51.2599,-2.04545,0
66.0818,-51.1495,-2.05549,0
66.1,-51.0391,-2.06518,0
66.1155,-50.9286,-2.07453,0
66.1408,-50.8217,-2.08165,0
66.1726,-50.7166,-2.0871,0
66.202,-50.6108,-2.09224,0
66.229,-50.5042,-2.09709,0
66.2535,-50.397,-2.10163,0
66.2756,-50.2892,-2.10586,0
66.2953,-50.1809,-2.10979,0
66.3126,-50.072,-2.1134,0
66.3273,-49.9627,-2.1167,0
66.3396,-49.853,-2.11968,0
66.3494,-49.743,-2.12234,0
66.3567,-49.6327,-2.12468,0
66.3615,-49.5223,-2.1267,0
66.3627,-49.4116,-2.12856,0
66.3597,-49.3011,-2.13029,0
66.3541,-49.1906,-2.1317,0
66.346,-49.0802,-2.13279,0
66.3353,-48.9701,-2.13357,0
66.322,-48.8602,-2.13402,0
66.3063,-48.7507,-2.13414,0
66.2878,-48.6416,-2.13394,0
66.267,-48.533,-2.13342,0
66.2435,-48.4248,-2.13259,0
66.2175,-48.3173,-2.13142,0
66.1891,-48.2104,-2.12993,0
66.158,-48.1042,-2.12813,0
66.1247,-47.9988,-2.12602,0
66.0887,-47.8942,-2.12358,0
66.0505,-47.7905,-2.12081,0
66.0098,-47.6877,-2.11775,0
65.9666,-47.5859,-2.11437,0
65.9212,-47.4852,-2.11067,0
65.8755,-47.3847,-2.10634,0
65.8285,-47.2846,-2.10153,0
65.7793,-47.1856,-2.09639,0
65.7278,-47.0877,-2.09095,0
65.674,-46.991,-2.0852,0
65.6179,-46.8955,-2.07914,0
65.5596,-46.8013,-2.07277,0
65.4991,-46.7085,-2.06611,0
65.4365,-46.617,-2.05914,0
65.3717,-46.5271,-2.05188,0
65.3048,-46.4386,-2.04433,0
65.2359,-46.3516,-2.03649,0
65.1648,-46.2663,-2.02837,0
65.0919,-46.1826,-2.01997,0
65.017,-46.1007,-2.01129,0
64.9402,-46.0205,-2.00235,0
64.8636,-45.9399,-1.99263,0
64.7948,-45.8503,-1.98025,0
64.7237,-45.7623,-1.96756,0
64.6501,-45.6758,-1.95458,0
64.5739,-45.5909,-1.9413,0
64.4955,-45.5078,-1.92776,0
64.4146,-45.4265,-1.91394,0
64.3315,-45.3471,-1.89985,0
64.2459,-45.2696,-1.88551,0
64.1583,-45.1943,-1.87093,0
64.0683,-45.1211,-1.85609,0
63.9762,-45.0501,-1.84104,0
63.882,-44.9814,-1.82576,0
63.7858,-44.9151,-1.81028,0
64.675,-53.7309,-1.70421,0
64.7643,-53.6504,-1.72028,0
64.8512,-53.5677,-1.7362,0
64.9356,-53.4828,-1.752,0
65.0177,-53.3957,-1.76763,0
65.0957,-53.3052,-1.78347,0
65.1698,-53.2116,-1.79949,0
65.2412,-53.1161,-1.8153,0
65.3096,-53.019,-1.83091,0
65.3754,-52.9203,-1.84629,0
65.4392,-52.8211,-1.86118,0
65.5005,-52.7206,-1.8758,0
65.5591,-52.6189,-1.89014,0
65.6148,-52.516,-1.9042,0
65.6678,-52.412,-1.91798,0
65.718,-52.3071,-1.93146,0
65.7655,-52.2013,-1.94464,0
65.8102,-52.0946,-1.95752,0
65.8521,-51.9873,-1.97008,0
65.8913,-51.8793,-1.98233,0
65.9277,-51.7707,-1.99425,0
65.9613,-51.6616,-2.00586,0
65.9921,-51.5521,-2.01713,0
66.0202,-51.4423,-2.02807,0
66.0456,-51.3322,-2.03867,0
66.0684,-51.222,-2.04893,0
66.0884,-51.1116,-2.05886,0
66.1057,-51.0011,-2.06843,0
66.1203,-50.8907,-2.07766,0
66.152,-50.7857,-2.08356,0
66.183,-50.6804,-2.0889,0
66.2115,-50.5743,-2.09394,0
66.2377,-50.4675,-2.09868,0
66.2614,-50.36,-2.10312,0
66.2827,-50.252,-2.10724,0
66.3016,-50.1435,-2.11107,0
66.3179,-50.0345,-2.11457,0
66.3319,-49.925,-2.11777,0
66.3433,-49.8153,-2.12063,0
66.3522,-49.7051,-2.12319,0
66.3586,-49.5948,-2.12541,0
66.3626,-49.4843,-2.12732,0
66.3619,-49.3736,-2.12918,0
66.358,-49.2631,-2.1308,0
66.3516,-49.1526,-2.13211,0
66.3427,-49.0423,-2.1331,0
66.331,-48.9323,-2.13376,0
66.3169,-48.8226,-2.13409,0
66.3002,-48.7132,-2.1341,0
66.2809,-48.6042,-2.1338,0
66.2592,-48.4957,-2.13318,0
66.2348,-48.3878,-2.13222,0
66.208,-48.2805,-2.13095,0
66.1787,-48.1738,-2.12935,0
66.1469,-48.0679,-2.12744,0
66.1126,-47.9627,-2.12522,0
66.0759,-47.8584,-2.12266,0
66.0368,-47.7551,-2.1198,0
65.9952,-47.6526,-2.11661,0
65.9513,-47.5512,-2.11313,0
65.9051,-47.4509,-2.10933,0
65.8596,-47.3501,-2.10473,0
65.8119,-47.2504,-2.0998,0
65.7619,-47.1518,-2.09456,0
65.7095,-47.0543,-2.08901,0
65.6549,-46.958,-2.08315,0
65.5981,-46.863,-2.07699,0
65.5391,-46.7692,-2.07052,0
65.4779,-46.6769,-2.06375,0
65.4145,-46.5859,-2.05668,0
65.3489,-46.4965,-2.04931,0
65.2814,-46.4085,-2.04167,0
65.2117,-46.3221,-2.03373,0
65.1401,-46.2374,-2.02551,0
65.0664,-46.1543,-2.01702,0
64.9909,-46.0729,-2.00825,0
64.9134,-45.9933,-1.99922,0
64.8402,-45.909,-1.98841,0
64.7707,-45.8199,-1.97592,0
64.6986,-45.7324,-1.96312,0
64.6241,-45.6464,-1.95005,0
64.5473,-45.5621,-1.93668,0
64.468,-45.4796,-1.92304,0
64.3863,-45.399,-1.90912,0
64.3023,-45.3202,-1.89495,0
64.2161,-45.2435,-1.88052,0
64.1276,-45.1689,-1.86585,0
64.0369,-45.0964,-1.85094,0
63.9441,-45.0262,-1.83581,0
63.8492,-44.9584,-1.82046,0
63.7523,-44.8929,-1.80491,0
66.2057,-49.8796,-2.10198,0
66.216,-49.7727,-2.10467,0
66.2239,-49.6655,-2.10704,0
66.2284,-49.5581,-2.10923,0
66.229,-49.4506,-2.11133,0
66.227,-49.3432,-2.11312,0
66.2224,-49.2357,-2.1146,0
66.2154,-49.1284,-2.11577,0
66.2059,-49.0213,-2.11662,0
66.1938,-48.9145,-2.11716,0
66.1793,-48.8079,-2.11739,0
66.1623,-48.7017,-2.11731,0
66.1427,-48.596,-2.11692,0
66.1209,-48.4907,-2.11621,0
66.0965,-48.386,-2.11518,0
66.0696,-48.2819,-2.11385,0
66.0404,-48.1784,-2.11221,0
66.0088,-48.0757,-2.11025,0
65.9747,-47.9738,-2.108,0
65.9383,-47.8727,-2.10542,0
65.8995,-47.7725,-2.10254,0
65.8584,-47.6732,-2.09936,0
65.8151,-47.575,-2.09588,0
65.7716,-47.4767,-2.09173,0
65.7268,-47.3791,-2.08714,0
65.6796,-47.2825,-2.08225,0
65.6302,-47.187,-2.07705,0
65.5786,-47.0926,-2.07155,0
65.5248,-46.9995,-2.06575,0
65.4688,-46.9075,-2.05966,0
65.4107,-46.8168,-2.05327,0
65.3505,-46.7275,-2.04659,0
65.2881,-46.6396,-2.03962,0
65.2237,-46.5531,-2.03237,0
65.1574,-46.4682,-2.02484,0
65.0891,-46.3847,-2.01703,0
65.0187,-46.3029,-2.00896,0
64.9466,-46.2227,-2.00061,0
64.8724,-46.1442,-1.992,0
64.797,-46.0669,-1.98301,0
64.7229,-45.988,-1.97296,0
64.6498,-45.9075,-1.96187,0
64.5789,-45.8236,-1.94935,0
64.5057,-45.7413,-1.93656,0
64.4302,-45.6606,-1.92349,0
64.3523,-45.5817,-1.91017,0
64.2722,-45.5046,-1.89659,0
64.1898,-45.4295,-1.88276,0
64.1054,-45.3563,-1.86869,0
64.0188,-45.2851,-1.8544,0
63.9301,-45.2161,-1.83987,0
63.8394,-45.1494,-1.82514,0
63.7467,-45.0849,-1.81021,0
63.6522,-45.0227,-1.79508,0
64.5453,-53.6202,-1.69556,0
64.6326,-53.5433,-1.71119,0
64.7177,-53.4642,-1.72668,0
64.8004,-53.383,-1.74202,0
64.8804,-53.2992,-1.75736,0
64.9574,-53.2129,-1.77269,0
65.0309,-53.1237,-1.78814,0
65.1019,-53.0329,-1.80337,0
65.1702,-52.9404,-1.81838,0
65.2361,-52.8465,-1.83315,0
65.2994,-52.7512,-1.84769,0
65.36,-52.6546,-1.86196,0
65.418,-52.5567,-1.87599,0
65.4734,-52.4576,-1.88975,0
65.5262,-52.3575,-1.90323,0
65.5762,-52.2564,-1.91644,0
65.6236,-52.1544,-1.92936,0
65.6684,-52.0515,-1.94199,0
65.7104,-51.9479,-1.95432,0
65.7498,-51.8436,-1.96635,0
65.7865,-51.7387,-1.97806,0
65.8205,-51.6333,-1.98947,0
65.8517,-51.5274,-2.00057,0
65.8805,-51.4212,-2.01134,0
65.9066,-51.3147,-2.02179,0
65.9299,-51.2079,-2.03193,0
65.9507,-51.1009,-2.04173,0
65.9689,-50.9939,-2.05119,0
65.9846,-50.8868,-2.06032,0
66.0168,-50.7852,-2.06603,0
66.0477,-50.6829,-2.07133,0
66.0761,-50.58,-2.07632,0
66.1023,-50.4763,-2.08102,0
66.1261,-50.3721,-2.08543,0
66.1476,-50.2672,-2.08954,0
66.1666,-50.1618,-2.09335,0
66.1834,-50.0559,-2.09685,0
66.1977,-49.9496,-2.10005,0
66.2096,-49.8429,-2.10295,0
66.219,-49.7359,-2.10552,0
66.226,-49.6287,-2.10778,0
66.2289,-49.5212,-2.10998,0
66.2285,-49.4137,-2.11197,0
66.2256,-49.3062,-2.11366,0
66.2203,-49.1989,-2.11503,0
66.2123,-49.0916,-2.1161,0
66.202,-48.9846,-2.11685,0
66.1891,-48.8778,-2.11729,0
66.1738,-48.7714,-2.1174,0
66.1559,-48.6654,-2.11721,0
66.1355,-48.5598,-2.11671,0
66.1127,-48.4547,-2.1159,0
66.0875,-48.3502,-2.11476,0
66.0598,-48.2463,-2.11333,0
66.0298,-48.1431,-2.11157,0
65.9973,-48.0406,-2.10952,0
65.9624,-47.9389,-2.10714,0
65.9252,-47.8381,-2.10447,0
65.8857,-47.7382,-2.10149,0
65.8438,-47.6393,-2.0982,0
65.7999,-47.5413,-2.09457,0
65.7565,-47.4431,-2.09018,0
65.7109,-47.3458,-2.08549,0
65.6629,-47.2496,-2.08049,0
65.6127,-47.1545,-2.07519,0
65.5603,-47.0605,-2.06959,0
65.5058,-46.9677,-2.06369,0
65.4491,-46.8762,-2.05749,0
65.3902,-46.786,-2.05101,0
65.3292,-46.6972,-2.04423,0
65.2663,-46.6097,-2.03716,0
65.2012,-46.5238,-2.02982,0
65.1341,-46.4393,-2.02219,0
65.0652,-46.3564,-2.01429,0
64.9941,-46.2751,-2.00612,0
64.9212,-46.1955,-1.99767,0
64.8466,-46.1176,-1.98898,0
64.7718,-46.0396,-1.97959,0
64.697,-45.9613,-1.96945,0
64.6257,-45.8785,-1.9576,0
64.554,-45.7951,-1.94499,0
64.48,-45.7134,-1.9321,0
64.4036,-45.6333,-1.91895,0
64.3251,-45.555,-1.90553,0
64.2441,-45.4786,-1.89187,0
64.1611,-45.4041,-1.87796,0
64.0759,-45.3316,-1.86381,0
63.9885,-45.2612,-1.84944,0
63.8992,-45.1929,-1.83484,0
63.8078,-45.1269,-1.82004,0
63.7145,-45.0632,-1.80504,0
64.5755,-53.594,-1.70095,0
64.662,-53.5164,-1.71653,0
64.7463,-53.4365,-1.73197,0
64.8283,-53.3546,-1.74726,0
64.9073,-53.2699,-1.76262,0
64.983,-53.1825,-1.77801,0
65.0555,-53.0927,-1.7934,0
65.1257,-53.0013,-1.80855,0
65.1931,-52.9083,-1.82348,0
65.2581,-52.8139,-1.83818,0
65.3205,-52.7181,-1.85262,0
65.3803,-52.6211,-1.86681,0
65.4373,-52.5228,-1.88075,0
65.4919,-52.4233,-1.89442,0
65.5437,-52.3229,-1.9078,0
65.5928,-52.2215,-1.92091,0
65.6393,-52.1191,-1.93373,0
65.683,-52.016,-1.94625,0
65.7241,-51.9121,-1.95848,0
65.7627,-51.8076,-1.97041,0
65.7984,-51.7026,-1.98202,0
65.8316,-51.597,-1.99332,0
65.862,-51.491,-2.00431,0
65.8898,-51.3846,-2.01498,0
65.9148,-51.278,-2.02531,0
65.9374,-51.1711,-2.03533,0
65.9573,-51.0642,-2.04502,0
65.9745,-50.9571,-2.05437,0
65.9954,-50.8518,-2.0624,0
66.0277,-50.7501,-2.06788,0
66.0577,-50.6477,-2.07307,0
66.0854,-50.5444,-2.07797,0
66.1107,-50.4406,-2.08257,0
66.1338,-50.3361,-2.08688,0
66.1544,-50.231,-2.09089,0
66.1727,-50.1254,-2.09459,0
66.1885,-50.0194,-2.09799,0
66.202,-49.9129,-2.10108,0
66.213,-49.8062,-2.10386,0
66.2217,-49.6991,-2.10633,0
66.2277,-49.5918,-2.10851,0
66.2291,-49.4843,-2.1107,0
66.2278,-49.3768,-2.11259,0
66.2241,-49.2693,-2.11417,0
66.2179,-49.162,-2.11544,0
66.2091,-49.0548,-2.11638,0
66.1978,-48.9479,-2.11703,0
66.1841,-48.8412,-2.11736,0
66.1679,-48.7349,-2.11737,0
66.1492,-48.629,-2.11708,0
66.128,-48.5236,-2.11647,0
66.1043,-48.4187,-2.11554,0
66.0783,-48.3144,-2.11431,0
66.0498,-48.2107,-2.11276,0
66.0189,-48.1078,-2.1109,0
65.9855,-48.0056,-2.10874,0
65.9499,-47.9042,-2.10626,0
65.9119,-47.8037,-2.10347,0
65.8716,-47.7042,-2.10039,0
65.8289,-47.6056,-2.097,0
65.7852,-47.5075,-2.0931,0
65.7411,-47.4095,-2.08861,0
65.6946,-47.3126,-2.08381,0
65.6459,-47.2168,-2.07871,0
65.5949,-47.122,-2.0733,0
65.5419,-47.0285,-2.06759,0
65.4865,-46.9361,-2.06159,0
65.4291,-46.8451,-2.05529,0
65.3695,-46.7553,-2.04871,0
65.3078,-46.667,-2.04183,0
65.2441,-46.58,-2.03467,0
65.1784,-46.4946,-2.02723,0
65.1106,-46.4106,-2.0195,0
65.0409,-46.3283,-2.01151,0
64.9693,-46.2476,-2.00324,0
64.8958,-46.1686,-1.99471,0
64.8205,-46.0912,-1.98592,0
64.7462,-46.0125,-1.97613,0
64.6715,-45.934,-1.96572,0
64.6014,-45.8497,-1.9533,0
64.5288,-45.7668,-1.94059,0
64.454,-45.6857,-1.9276,0
64.3769,-45.6062,-1.91436,0
64.2974,-45.5286,-1.90086,0
64.2159,-45.4528,-1.88711,0
64.1321,-45.3789,-1.87312,0
64.0462,-45.3072,-1.85889,0
63.9581,-45.2375,-1.84445,0
63.868,-45.17,-1.82978,0
63.776,-45.1048,-1.8149,0
63.682,-45.0419,-1.79983,0
66.0823,-49.869,-2.08611,0
66.0922,-49.765,-2.08871,0
66.0983,-49.6606,-2.09123,0
66.1012,-49.5561,-2.09357,0
66.1017,-49.4516,-2.09561,0
66.0997,-49.3471,-2.09736,0
66.0953,-49.2426,-2.0988,0
66.0885,-49.1382,-2.09993,0
66.0792,-49.0341,-2.10077,0
66.0675,-48.9301,-2.10129,0
66.0534,-48.8265,-2.10152,0
66.0369,-48.7233,-2.10144,0
66.0179,-48.6204,-2.10106,0
65.9966,-48.518,-2.10037,0
65.9728,-48.4162,-2.09937,0
65.9467,-48.3149,-2.09807,0
65.9183,-48.2143,-2.09648,0
65.8876,-48.1144,-2.09458,0
65.8545,-48.0153,-2.09237,0
65.8191,-47.917,-2.08987,0
65.7814,-47.8195,-2.08708,0
65.7414,-47.723,-2.08399,0
65.6998,-47.6272,-2.08051,0
65.6584,-47.5313,-2.07634,0
65.6146,-47.4364,-2.07187,0
65.5686,-47.3424,-2.06711,0
65.5205,-47.2496,-2.06203,0
65.4702,-47.1578,-2.05668,0
65.4178,-47.0672,-2.05103,0
65.3634,-46.9777,-2.04509,0
65.3068,-46.8896,-2.03887,0
65.2481,-46.8028,-2.03237,0
65.1874,-46.7173,-2.02559,0
65.1248,-46.6332,-2.01853,0
65.0602,-46.5506,-2.01119,0
64.9937,-46.4695,-2.0036,0
64.9252,-46.3899,-1.99573,0
64.8549,-46.3119,-1.98761,0
64.7828,-46.2356,-1.97923,0
64.7093,-46.1607,-1.97051,0
64.6371,-46.084,-1.96072,0
64.5631,-46.009,-1.95066,0
64.4877,-45.9351,-1.9402,0
64.4164,-45.8557,-1.92776,0
64.3428,-45.778,-1.91507,0
64.2671,-45.7019,-1.90213,0
64.1891,-45.6276,-1.88894,0
64.1092,-45.5552,-1.8755,0
64.0271,-45.4847,-1.86184,0
63.943,-45.4162,-1.84798,0
63.8567,-45.3497,-1.83389,0
63.7687,-45.2855,-1.8196,0
63.6787,-45.2234,-1.80512,0
63.5869,-45.1636,-1.79046,0
64.4534,-53.4916,-1.69237,0
64.5382,-53.4173,-1.70751,0
64.6207,-53.3408,-1.72257,0
64.7005,-53.2616,-1.73766,0
64.778,-53.1805,-1.75261,0
64.8531,-53.0975,-1.76738,0
64.9259,-53.0126,-1.78199,0
64.9952,-52.9251,-1.7967,0
65.0619,-52.8358,-1.81128,0
65.1261,-52.7451,-1.82563,0
65.1878,-52.6529,-1.83975,0
65.2469,-52.5595,-1.85362,0
65.3036,-52.4648,-1.86726,0
65.3577,-52.3691,-1.88063,0
65.4093,-52.2722,-1.89375,0
65.4583,-52.1744,-1.90659,0
65.5047,-52.0756,-1.91916,0
65.5485,-51.9761,-1.93145,0
65.5898,-51.8758,-1.94346,0
65.6284,-51.7748,-1.95518,0
65.6644,-51.6732,-1.9666,0
65.6979,-51.571,-1.97772,0
65.7287,-51.4685,-1.98853,0
65.757,-51.3655,-1.99904,0
65.7827,-51.2622,-2.00924,0
65.806,-51.1587,-2.01912,0
65.8266,-51.055,-2.02869,0
65.8448,-50.9511,-2.03794,0
65.8668,-50.8492,-2.04577,0
65.8989,-50.7504,-2.05119,0
65.9289,-50.6509,-2.05633,0
65.9566,-50.5507,-2.06119,0
65.9819,-50.4498,-2.06576,0
66.0051,-50.3483,-2.07004,0
66.0259,-50.2462,-2.07403,0
66.0444,-50.1436,-2.07773,0
66.0606,-50.0406,-2.08112,0
66.0744,-49.9371,-2.08423,0
66.0859,-49.8333,-2.08703,0
66.0951,-49.7291,-2.08953,0
66.0996,-49.6247,-2.09207,0
66.1017,-49.5202,-2.09431,0
