46.2969,-37.5368,0.129671,0
46.3649,-37.4983,0.126165,0
46.432,-37.4583,0.122718,0
46.4983,-37.417,0.119339,0
46.5635,-37.3743,0.116029,0
46.6278,-37.3302,0.112786,0
46.6911,-37.2849,0.109622,0
46.7533,-37.2382,0.106517,0
46.8145,-37.1903,0.103489,0
46.8746,-37.1411,0.10054,0
46.9337,-37.0907,0.0976594,0
46.9915,-37.039,0.0948469,0
47.0483,-36.9862,0.0921223,0
47.1038,-36.9323,0.0894758,0
47.1582,-36.8772,0.0868977,0
47.2113,-36.8211,0.0844074,0
47.2632,-36.7638,0.0819953,0
47.3139,-36.7055,0.0796613,0
47.3634,-36.6462,0.0774152,0
47.4115,-36.5859,0.0752473,0
47.4582,-36.5246,0.0731672,0
47.5037,-36.4624,0.0711652,0
47.5478,-36.3993,0.0692512,0
47.5906,-36.3353,0.067425,0
47.632,-36.2704,0.065677,0
47.6716,-36.2046,0.0638898,0
47.7096,-36.1378,0.062132,0
47.7463,-36.0702,0.0604523,0
47.782,-36.0022,0.0590266,0
47.8162,-35.9336,0.0577277,0
47.8491,-35.8642,0.0565168,0
47.8804,-35.7942,0.055423,0
47.9103,-35.7237,0.054427,0
47.9388,-35.6525,0.0535285,0
47.9659,-35.5808,0.0527277,0
47.9914,-35.5085,0.0520148,0
48.0154,-35.4358,0.0514191,0
48.0379,-35.3625,0.0509211,0
48.059,-35.2889,0.0505305,0
48.0784,-35.2148,0.0502277,0
48.0964,-35.1403,0.0500422,0
48.1128,-35.0655,0.0499445,0
48.1277,-34.9903,0.0499543,0
48.1411,-34.9149,0.0500617,0
48.1528,-34.8392,0.0502766,0
48.163,-34.7632,0.0505891,0
48.1717,-34.687,0.0509992,0
48.1788,-34.6107,0.0515168,0
42.7173,-37.3991,0.300042,0
42.7854,-37.4417,0.296761,0
42.8544,-37.4827,0.293441,0
42.9241,-37.5221,0.290111,0
42.9948,-37.56,0.286741,0
43.0662,-37.5962,0.283353,0
43.1385,-37.6309,0.279925,0
43.2115,-37.6639,0.276497,0
43.2851,-37.6953,0.27303,0
43.3595,-37.725,0.269564,0
43.4343,-37.753,0.266068,0
43.5098,-37.7794,0.262552,0
43.5859,-37.8041,0.259027,0
43.6623,-37.827,0.255501,0
43.7394,-37.8483,0.251956,0
43.8168,-37.8678,0.248411,0
43.8946,-37.8856,0.244847,0
43.9727,-37.9016,0.241292,0
44.0512,-37.9159,0.237728,0
44.1299,-37.9285,0.234154,0
44.2088,-37.9393,0.230589,0
44.288,-37.9484,0.227034,0
44.3673,-37.9557,0.22348,0
44.4467,-37.9612,0.219925,0
44.5261,-37.965,0.21638,0
44.6056,-37.967,0.212855,0
44.6852,-37.9672,0.209329,0
44.7646,-37.9657,0.205823,0
44.844,-37.9625,0.202327,0
44.9232,-37.9575,0.198851,0
45.0023,-37.9507,0.195394,0
45.0812,-37.9422,0.191956,0
45.1599,-37.932,0.188538,0
45.238,-37.9184,0.184583,0
45.3156,-37.9027,0.180511,0
45.393,-37.8853,0.176458,0
45.4697,-37.8663,0.172454,0
45.5459,-37.8456,0.168499,0
45.6216,-37.8232,0.164564,0
45.6968,-37.7992,0.160677,0
45.7712,-37.7736,0.156829,0
45.8452,-37.7465,0.15303,0
45.9184,-37.7177,0.149271,0
45.9909,-37.6874,0.14557,0
46.0626,-37.6554,0.141878,0
46.1335,-37.6218,0.138167,0
46.2035,-37.5866,0.134505,0
46.2727,-37.55,0.130911,0
46.3411,-37.512,0.127386,0
46.4086,-37.4725,0.123919,0
46.4751,-37.4317,0.120521,0
46.5407,-37.3894,0.117181,0
46.6054,-37.3459,0.113919,0
46.669,-37.3009,0.110726,0
46.7316,-37.2547,0.107601,0
46.7931,-37.2073,0.104554,0
46.8537,-37.1585,0.101566,0
46.913,-37.1085,0.0986652,0
46.9712,-37.0573,0.0958234,0
47.0284,-37.0049,0.0930695,0
47.0845,-36.9514,0.0903938,0
47.1392,-36.8967,0.0877961,0
47.1928,-36.8409,0.0852766,0
47.2452,-36.784,0.0828254,0
47.2962,-36.7261,0.0804719,0
47.3461,-36.6672,0.0781965,0
47.3947,-36.6072,0.0759992,0
47.4419,-36.5463,0.0738898,0
47.4879,-36.4844,0.0718586,0
47.5324,-36.4216,0.0699152,0
47.5757,-36.3579,0.0680598,0
47.6176,-36.2933,0.0662824,0
47.6579,-36.2278,0.0645441,0
47.6965,-36.1613,0.0627375,0
47.7336,-36.094,0.0610285,0
47.7695,-36.0262,0.0595051,0
47.8044,-35.9577,0.058177,0
47.8377,-35.8886,0.0569367,0
47.8695,-35.8189,0.0557941,0
47.9,-35.7485,0.054759,0
47.9291,-35.6775,0.0538313,0
47.9566,-35.606,0.0529914,0
47.9826,-35.5339,0.052259,0
48.0072,-35.4614,0.0516145,0
48.0302,-35.3883,0.0510871,0
48.0517,-35.3148,0.0506477,0
48.0718,-35.2408,0.0503254,0
48.0902,-35.1665,0.050091,0
48.1072,-35.0918,0.0499641,0
48.1227,-35.0168,0.0499445,0
48.1366,-34.9414,0.0500129,0
48.1489,-34.8658,0.0501887,0
48.1596,-34.7899,0.0504719,0
48.1689,-34.7138,0.0508527,0
48.1765,-34.6375,0.0513313,0
42.8087,-37.3609,0.296243,0
42.8759,-37.4015,0.293011,0
42.9438,-37.4405,0.289749,0
43.0127,-37.478,0.286468,0
43.0823,-37.5139,0.283157,0
43.1527,-37.5483,0.279827,0
43.2237,-37.5811,0.276468,0
43.2955,-37.6123,0.273089,0
43.368,-37.6418,0.2697,0
43.4411,-37.6698,0.266282,0
43.5148,-37.6961,0.262864,0
43.5889,-37.7207,0.259417,0
43.6636,-37.7437,0.25597,0
43.7388,-37.765,0.252503,0
43.8143,-37.7846,0.249046,0
43.8902,-37.8025,0.24556,0
43.9666,-37.8187,0.242083,0
44.0432,-37.8333,0.238607,0
44.1201,-37.8461,0.235111,0
44.1973,-37.8572,0.231634,0
44.2745,-37.8666,0.228148,0
44.352,-37.8743,0.224671,0
44.4297,-37.8802,0.221195,0
44.5073,-37.8845,0.217728,0
44.5851,-37.887,0.214271,0
44.6628,-37.8878,0.210823,0
44.7405,-37.8868,0.207386,0
44.8182,-37.8842,0.203968,0
44.8958,-37.8798,0.20056,0
44.9731,-37.8738,0.197171,0
45.0503,-37.866,0.193812,0
45.1273,-37.8565,0.190462,0
45.204,-37.8446,0.186878,0
45.2801,-37.8298,0.182874,0
45.3558,-37.8134,0.178909,0
45.431,-37.7953,0.174984,0
45.5057,-37.7756,0.171087,0
45.58,-37.7543,0.167239,0
45.6537,-37.7314,0.163411,0
45.7268,-37.7069,0.159642,0
45.7992,-37.6808,0.155911,0
45.8711,-37.6532,0.15222,0
45.9423,-37.6241,0.148587,0
46.0127,-37.5934,0.144993,0
46.0823,-37.5613,0.141439,0
46.1513,-37.5277,0.137952,0
46.2195,-37.4925,0.134495,0
46.2866,-37.4558,0.131019,0
46.3529,-37.4176,0.127601,0
46.4184,-37.3781,0.124251,0
46.4829,-37.3373,0.12098,0
46.5464,-37.2951,0.117757,0
46.609,-37.2516,0.114612,0
46.6706,-37.2068,0.111527,0
46.7313,-37.1607,0.108509,0
46.7908,-37.1134,0.10557,0
46.8492,-37.0649,0.102708,0
46.9066,-37.0151,0.0999055,0
46.9629,-36.9643,0.0971906,0
47.0181,-36.9122,0.0945441,0
47.0721,-36.8591,0.0919758,0
47.1249,-36.8049,0.0894855,0
47.1766,-36.7495,0.0870637,0
47.227,-36.6932,0.0847297,0
47.2762,-36.6358,0.0824738,0
47.3241,-36.5774,0.0802961,0
47.3708,-36.5181,0.0782062,0
47.4162,-36.4578,0.0761945,0
47.4603,-36.3966,0.0742609,0
47.503,-36.3345,0.072425,0
47.5445,-36.2716,0.0706574,0
47.5845,-36.2078,0.0689777,0
47.6232,-36.1433,0.0673957,0
47.6604,-36.0779,0.0658137,0
47.6962,-36.0117,0.0643293,0
47.7306,-35.9449,0.0629914,0
47.7637,-35.8774,0.0617609,0
47.7955,-35.8093,0.0606086,0
47.8257,-35.7406,0.0595637,0
47.8545,-35.6712,0.0586164,0
47.882,-35.6014,0.0577668,0
47.9079,-35.5309,0.0570148,0
47.9323,-35.46,0.0563703,0
47.9554,-35.3886,0.0558137,0
47.977,-35.3167,0.0553645,0
47.997,-35.2444,0.0550129,0
48.0155,-35.1717,0.0547492,0
48.0327,-35.0987,0.054593,0
48.0482,-35.0253,0.0545344,0
48.0622,-34.9516,0.0545832,0
48.0747,-34.8776,0.0547297,0
48.0857,-34.8033,0.0549738,0
48.0952,-34.7289,0.0553156,0
48.1031,-34.6542,0.0557551,0
42.7853,-37.3463,0.297366,0
42.8522,-37.3874,0.294144,0
42.9198,-37.427,0.290902,0
42.9884,-37.465,0.28762,0
43.0577,-37.5015,0.28432,0
43.1279,-37.5364,0.280999,0
43.1987,-37.5698,0.27765,0
43.2703,-37.6015,0.27428,0
43.3425,-37.6316,0.270892,0
43.4154,-37.6601,0.267484,0
43.4888,-37.687,0.264075,0
43.5627,-37.7122,0.260628,0
43.6373,-37.7358,0.257181,0
43.7123,-37.7577,0.253724,0
43.7877,-37.7779,0.250257,0
43.8635,-37.7964,0.24679,0
43.9398,-37.8133,0.243304,0
44.0162,-37.8284,0.239818,0
44.093,-37.8418,0.236341,0
44.1701,-37.8535,0.232855,0
44.2473,-37.8635,0.229368,0
44.3248,-37.8718,0.225892,0
44.4023,-37.8783,0.222415,0
44.48,-37.8832,0.218939,0
44.5577,-37.8863,0.215482,0
44.6355,-37.8877,0.212034,0
44.7132,-37.8874,0.208587,0
44.7909,-37.8853,0.205169,0
44.8685,-37.8816,0.201751,0
44.946,-37.8761,0.198353,0
45.0233,-37.8689,0.194993,0
45.1003,-37.86,0.191634,0
45.1772,-37.8494,0.188284,0
45.2534,-37.8352,0.18428,0
45.3292,-37.8194,0.180296,0
45.4046,-37.8019,0.176361,0
45.4795,-37.7827,0.172454,0
45.554,-37.762,0.168587,0
45.6279,-37.7396,0.164759,0
45.7012,-37.7157,0.16097,0
45.7738,-37.6902,0.15721,0
45.8459,-37.6631,0.153509,0
45.9173,-37.6345,0.149857,0
45.988,-37.6044,0.146253,0
46.058,-37.5728,0.142689,0
46.1272,-37.5397,0.139173,0
46.1956,-37.5051,0.135716,0
46.2631,-37.4689,0.132239,0
46.3298,-37.4312,0.128802,0
46.3955,-37.3922,0.125433,0
46.4603,-37.3518,0.122122,0
46.5242,-37.31,0.11888,0
46.5871,-37.267,0.115706,0
46.6491,-37.2226,0.112601,0
46.71,-37.177,0.109564,0
46.77,-37.1302,0.106605,0
46.8288,-37.0821,0.103704,0
46.8866,-37.0328,0.100882,0
46.9433,-36.9823,0.0981379,0
46.9989,-36.9307,0.0954621,0
47.0532,-36.8779,0.0928645,0
47.1066,-36.824,0.0903449,0
47.1586,-36.7691,0.0878938,0
47.2095,-36.7131,0.0855402,0
47.2591,-36.6561,0.0832551,0
47.3075,-36.598,0.081048,0
47.3546,-36.539,0.0789289,0
47.4005,-36.4791,0.0768879,0
47.445,-36.4182,0.0749348,0
47.4882,-36.3564,0.0730598,0
47.5302,-36.2938,0.0712629,0
47.5706,-36.2303,0.0695637,0
47.6098,-36.166,0.0679328,0
47.6476,-36.101,0.0663996,0
47.6837,-36.035,0.0648273,0
47.7187,-35.9684,0.0634504,0
47.7523,-35.9012,0.0621809,0
47.7845,-35.8333,0.0609992,0
47.8152,-35.7648,0.0599152,0
47.8446,-35.6957,0.0589387,0
47.8725,-35.626,0.05805,0
47.899,-35.5557,0.0572785,0
47.9239,-35.485,0.0565852,0
47.9474,-35.4137,0.0559992,0
47.9695,-35.342,0.0555109,0
47.9901,-35.2699,0.0551203,0
48.0092,-35.1973,0.0548273,0
48.0268,-35.1244,0.0546418,0
48.0429,-35.0511,0.0545539,0
48.0574,-34.9775,0.0545637,0
48.0705,-34.9036,0.0546711,0
48.082,-34.8294,0.0548762,0
48.092,-34.755,0.0551887,0
48.1005,-34.6805,0.0555988,0
48.1074,-34.6057,0.0560969,0
42.762,-37.3315,0.298489,0
42.8286,-37.3731,0.295286,0
42.8959,-37.4132,0.292044,0
42.9642,-37.4518,0.288773,0
43.0333,-37.4888,0.285491,0
43.1031,-37.5243,0.282171,0
43.1737,-37.5582,0.278821,0
43.2451,-37.5905,0.275472,0
43.317,-37.6212,0.272083,0
43.3898,-37.6503,0.268685,0
43.463,-37.6778,0.265267,0
43.5367,-37.7036,0.261839,0
43.6111,-37.7277,0.258402,0
43.6859,-37.7502,0.254945,0
43.7612,-37.771,0.251487,0
43.8368,-37.7901,0.248011,0
43.9129,-37.8075,0.244525,0
43.9894,-37.8233,0.241048,0
44.066,-37.8373,0.237562,0
44.143,-37.8496,0.234075,0
44.2202,-37.8602,0.230589,0
44.2976,-37.8691,0.227113,0
44.3751,-37.8762,0.223626,0
44.4527,-37.8817,0.220159,0
44.5305,-37.8854,0.216702,0
44.6082,-37.8874,0.213245,0
44.6859,-37.8877,0.209798,0
44.7637,-37.8862,0.20637,0
44.8412,-37.8831,0.202943,0
44.9188,-37.8782,0.199554,0
44.9961,-37.8716,0.196175,0
45.0733,-37.8633,0.192806,0
45.1502,-37.8534,0.189456,0
45.2267,-37.8404,0.185687,0
45.3026,-37.8251,0.181693,0
45.3781,-37.8082,0.177747,0
45.4533,-37.7896,0.173821,0
45.5279,-37.7694,0.169945,0
45.602,-37.7477,0.166097,0
45.6755,-37.7243,0.162288,0
45.7484,-37.6993,0.158529,0
45.8206,-37.6728,0.154808,0
45.8923,-37.6447,0.151146,0
45.9633,-37.6151,0.147513,0
46.0335,-37.584,0.143929,0
46.103,-37.5515,0.140404,0
46.1717,-37.5174,0.136927,0
46.2395,-37.4817,0.13345,0
46.3064,-37.4446,0.130003,0
46.3725,-37.406,0.126605,0
46.4377,-37.3661,0.123275,0
46.5019,-37.3249,0.120013,0
46.5652,-37.2823,0.11681,0
46.6275,-37.2384,0.113685,0
46.6887,-37.1932,0.110628,0
46.749,-37.1468,0.10763,0
46.8083,-37.0991,0.10471,0
46.8664,-37.0502,0.101868,0
46.9235,-37.0001,0.0990949,0
46.9795,-36.9489,0.0963898,0
47.0343,-36.8965,0.0937727,0
47.0879,-36.8431,0.0912238,0
47.1405,-36.7885,0.0887434,0
47.1917,-36.7329,0.0863606,0
47.2418,-36.6762,0.0840461,0
47.2906,-36.6185,0.0818098,0
47.3382,-36.5599,0.0796711,0
47.3845,-36.5002,0.0776008,0
47.4295,-36.4397,0.0756086,0
47.4732,-36.3782,0.0737043,0
47.5155,-36.3159,0.0718879,0
47.5566,-36.2527,0.0701594,0
47.5962,-36.1887,0.0684992,0
47.6345,-36.1239,0.0669367,0
47.671,-36.0582,0.0653254,0
47.7066,-35.9919,0.0639289,0
47.7406,-35.9249,0.0626106,0
47.7733,-35.8572,0.0614094,0
47.8045,-35.7889,0.0602961,0
47.8345,-35.72,0.0592707,0
47.8628,-35.6505,0.0583527,0
47.8898,-35.5805,0.0575422,0
47.9153,-35.5099,0.0568098,0
47.9394,-35.4388,0.0561945,0
47.962,-35.3672,0.055677,0
47.983,-35.2952,0.0552375,0
48.0027,-35.2228,0.054925,0
48.0208,-35.15,0.0546906,0
48.0374,-35.0769,0.0545637,0
48.0525,-35.0034,0.0545441,0
48.0661,-34.9296,0.0546125,0
48.0782,-34.8555,0.054798,0
48.0887,-34.7812,0.0550617,0
48.0977,-34.7067,0.0554328,0
48.1052,-34.632,0.0559113,0
42.8506,-37.2952,0.294798,0
42.9163,-37.3349,0.291644,0
42.9827,-37.3731,0.28845,0
43.0501,-37.4098,0.285237,0
43.1181,-37.445,0.282005,0
43.187,-37.4787,0.278743,0
43.2566,-37.5107,0.275462,0
43.3268,-37.5413,0.272161,0
43.3977,-37.5702,0.268841,0
43.4691,-37.5975,0.265501,0
43.5411,-37.6233,0.262161,0
43.6137,-37.6474,0.258792,0
43.6866,-37.6699,0.255413,0
43.7602,-37.6908,0.252025,0
43.8341,-37.71,0.248636,0
43.9084,-37.7276,0.245237,0
43.983,-37.7435,0.241829,0
44.058,-37.7577,0.238421,0
44.1332,-37.7703,0.235013,0
44.2086,-37.7812,0.231605,0
44.2842,-37.7904,0.228196,0
44.3601,-37.7979,0.224788,0
44.436,-37.8038,0.22139,0
44.512,-37.8079,0.218001,0
44.588,-37.8104,0.214612,0
44.6641,-37.8112,0.211243,0
44.7402,-37.8104,0.207884,0
44.8161,-37.8078,0.204544,0
44.892,-37.8036,0.201214,0
44.9677,-37.7977,0.197894,0
45.0433,-37.7901,0.194603,0
45.1186,-37.7808,0.191321,0
45.1936,-37.7695,0.187913,0
45.268,-37.7551,0.184007,0
45.3421,-37.7391,0.18012,0
45.4157,-37.7215,0.176273,0
45.4888,-37.7022,0.172464,0
45.5616,-37.6814,0.168685,0
45.6336,-37.6591,0.164954,0
45.7052,-37.6352,0.161253,0
45.7761,-37.6098,0.157601,0
45.8465,-37.5828,0.153997,0
45.9161,-37.5544,0.150433,0
45.9851,-37.5244,0.146917,0
46.0534,-37.493,0.143441,0
46.1208,-37.4602,0.140023,0
46.1875,-37.4259,0.136654,0
46.2534,-37.3902,0.133333,0
46.3184,-37.3531,0.130081,0
46.3826,-37.3147,0.126868,0
46.4458,-37.2748,0.123675,0
46.508,-37.2335,0.12053,0
46.5695,-37.191,0.117435,0
46.6298,-37.1472,0.114417,0
46.6891,-37.1021,0.111468,0
46.7474,-37.0559,0.108587,0
46.8048,-37.0084,0.105784,0
46.861,-36.9598,0.10304,0
46.9161,-36.91,0.100374,0
46.9702,-36.8591,0.0977766,0
47.023,-36.8071,0.095257,0
47.0748,-36.754,0.0928156,0
47.1254,-36.6999,0.0904523,0
47.1748,-36.6447,0.0881574,0
47.223,-36.5885,0.0859504,0
47.27,-36.5314,0.0838215,0
47.3157,-36.4733,0.0817609,0
47.3602,-36.4143,0.0797883,0
47.4034,-36.3544,0.0779035,0
47.4453,-36.2937,0.0760871,0
47.4859,-36.2321,0.0743684,0
47.5251,-36.1696,0.0726984,0
47.5628,-36.1063,0.0710676,0
47.5994,-36.0424,0.0696027,0
47.6354,-35.9781,0.0684895,0
47.6694,-35.9128,0.0672688,0
47.7019,-35.8467,0.0660578,0
47.733,-35.78,0.0649348,0
47.7626,-35.7126,0.0639094,0
47.7909,-35.6447,0.0629816,0
47.8177,-35.5763,0.0621516,0
47.8432,-35.5073,0.0614094,0
47.8671,-35.4378,0.0607746,0
47.8897,-35.3678,0.0602277,0
47.9108,-35.2974,0.0597883,0
47.9305,-35.2266,0.0594465,0
47.9487,-35.1554,0.0591828,0
47.9654,-35.0838,0.0590363,0
47.9806,-35.0119,0.0589875,0
47.9944,-34.9397,0.0590266,0
48.0066,-34.8672,0.0591633,0
48.0174,-34.7945,0.0594074,0
48.0266,-34.7215,0.0597492,0
48.0344,-34.6484,0.0601789,0
42.8278,-37.2809,0.295902,0
42.8931,-37.3212,0.292757,0
42.9593,-37.3599,0.289573,0
43.0263,-37.3971,0.28637,0
43.0941,-37.4328,0.283148,0
43.1628,-37.467,0.279896,0
43.2321,-37.4996,0.276614,0
43.302,-37.5307,0.273323,0
43.3727,-37.5602,0.270003,0
43.4439,-37.5881,0.266673,0
43.5157,-37.6144,0.263333,0
43.5881,-37.6391,0.259974,0
43.661,-37.6622,0.256605,0
43.7343,-37.6836,0.253216,0
43.8081,-37.7034,0.249827,0
43.8822,-37.7216,0.246439,0
43.9568,-37.7381,0.24303,0
44.0316,-37.7529,0.239613,0
44.1067,-37.7661,0.236214,0
44.1821,-37.7775,0.232796,0
44.2577,-37.7873,0.229388,0
44.3334,-37.7955,0.22598,0
44.4093,-37.8019,0.222591,0
44.4853,-37.8067,0.219193,0
44.5613,-37.8098,0.215804,0
44.6374,-37.8111,0.212425,0
44.7134,-37.8109,0.209066,0
44.7894,-37.8089,0.205716,0
44.8653,-37.8052,0.202376,0
44.9411,-37.7999,0.199056,0
45.0167,-37.7929,0.195755,0
45.0921,-37.7843,0.192474,0
45.1673,-37.774,0.189212,0
45.242,-37.7603,0.185364,0
45.3161,-37.7449,0.181478,0
45.3899,-37.7278,0.17762,0
45.4632,-37.7092,0.173792,0
45.536,-37.6889,0.170013,0
45.6084,-37.6671,0.166263,0
45.6802,-37.6438,0.162552,0
45.7513,-37.6189,0.15888,0
45.8219,-37.5924,0.155247,0
45.8917,-37.5645,0.151673,0
45.9609,-37.5351,0.148138,0
46.0295,-37.5042,0.144652,0
46.0971,-37.4719,0.141214,0
46.1641,-37.4381,0.137825,0
46.2303,-37.4029,0.134495,0
46.2956,-37.3663,0.131214,0
46.3602,-37.3284,0.127991,0
46.4237,-37.289,0.124808,0
46.4863,-37.2482,0.121624,0
46.548,-37.2061,0.118509,0
46.6086,-37.1627,0.115472,0
46.6684,-37.1181,0.112493,0
46.7271,-37.0723,0.109593,0
46.7847,-37.0252,0.106751,0
46.8413,-36.977,0.103988,0
46.8969,-36.9276,0.101292,0
46.9513,-36.8771,0.0986848,0
47.0046,-36.8254,0.0961262,0
47.0568,-36.7728,0.0936652,0
47.1077,-36.719,0.0912629,0
47.1576,-36.6642,0.0889582,0
47.2062,-36.6084,0.0867219,0
47.2537,-36.5516,0.0845539,0
47.2998,-36.4938,0.0824738,0
47.3447,-36.4352,0.0804816,0
47.3884,-36.3756,0.0785578,0
47.4308,-36.3151,0.0767219,0
47.4718,-36.2538,0.0749641,0
47.5115,-36.1917,0.0732844,0
47.5498,-36.1286,0.0716242,0
47.5866,-36.0648,0.070052,0
47.6229,-36.0007,0.0688703,0
47.6577,-35.9358,0.067718,0
47.6906,-35.87,0.066468,0
47.7222,-35.8035,0.0653254,0
47.7523,-35.7364,0.0642609,0
47.7811,-35.6687,0.0632941,0
47.8084,-35.6004,0.062425,0
47.8344,-35.5316,0.0616535,0
47.8588,-35.4623,0.0609895,0
47.882,-35.3925,0.0604133,0
47.9036,-35.3222,0.059925,0
47.9237,-35.2515,0.0595539,0
47.9425,-35.1804,0.0592707,0
47.9597,-35.109,0.0590852,0
47.9754,-35.0372,0.0589973,0
47.9897,-34.9651,0.0589973,0
48.0025,-34.8927,0.0591047,0
48.0138,-34.82,0.0593098,0
48.0235,-34.7472,0.0596125,0
48.0318,-34.6741,0.0600129,0
48.0386,-34.6008,0.0605109,0
42.805,-37.2665,0.297005,0
42.8701,-37.3072,0.293861,0
42.936,-37.3465,0.290696,0
43.0027,-37.3842,0.287493,0
43.0703,-37.4205,0.28428,0
43.1386,-37.4552,0.281038,0
43.2077,-37.4884,0.277767,0
43.2774,-37.52,0.274476,0
43.3478,-37.55,0.271175,0
43.4188,-37.5785,0.267855,0
43.4905,-37.6054,0.264515,0
43.5626,-37.6306,0.261155,0
43.6353,-37.6543,0.257786,0
43.7085,-37.6763,0.254407,0
43.7821,-37.6967,0.251019,0
43.8562,-37.7154,0.24762,0
43.9305,-37.7325,0.244222,0
44.0052,-37.7479,0.240814,0
44.0803,-37.7616,0.237405,0
44.1556,-37.7737,0.233997,0
44.2311,-37.7841,0.230589,0
44.3068,-37.7928,0.227181,0
44.3827,-37.7999,0.223782,0
44.4586,-37.8052,0.220384,0
44.5346,-37.8089,0.216995,0
44.6107,-37.8109,0.213616,0
44.6867,-37.8112,0.210247,0
44.7628,-37.8098,0.206888,0
44.8387,-37.8067,0.203548,0
44.9145,-37.802,0.200228,0
44.9902,-37.7956,0.196917,0
45.0656,-37.7875,0.193616,0
45.1409,-37.7778,0.190355,0
45.2158,-37.7654,0.186741,0
45.2901,-37.7505,0.182835,0
45.3641,-37.734,0.178968,0
45.4375,-37.7159,0.17513,0
45.5105,-37.6962,0.171341,0
45.583,-37.675,0.167581,0
45.655,-37.6521,0.163851,0
45.7263,-37.6278,0.160159,0
45.7971,-37.6019,0.156527,0
45.8673,-37.5745,0.152923,0
45.9367,-37.5456,0.149378,0
46.0055,-37.5152,0.145872,0
46.0734,-37.4834,0.142415,0
46.1407,-37.4501,0.139017,0
46.2071,-37.4154,0.135667,0
46.2728,-37.3793,0.132366,0
46.3376,-37.3418,0.129114,0
46.4015,-37.303,0.125931,0
46.4644,-37.2626,0.122728,0
46.5265,-37.221,0.119603,0
46.5874,-37.1781,0.116527,0
46.6474,-37.1339,0.113529,0
46.7066,-37.0885,0.110609,0
46.7645,-37.0418,0.107738,0
46.8216,-36.994,0.104945,0
46.8775,-36.9451,0.102239,0
46.9323,-36.895,0.099593,0
46.986,-36.8437,0.0970246,0
47.0385,-36.7914,0.0945246,0
47.0899,-36.738,0.0921027,0
47.1402,-36.6835,0.089759,0
47.1892,-36.6281,0.0874934,0
47.2371,-36.5717,0.0853059,0
47.2837,-36.5142,0.0831965,0
47.3291,-36.4559,0.0811652,0
47.3732,-36.3966,0.0792219,0
47.4159,-36.3365,0.0773566,0
47.4575,-36.2754,0.0755793,0
47.4977,-36.2136,0.0738703,0
47.5365,-36.1508,0.0722004,0
47.5737,-36.0873,0.0705891,0
47.6102,-36.0233,0.0692609,0
47.6458,-35.9588,0.0681672,0
47.6792,-35.8932,0.0668977,0
47.7113,-35.8269,0.065716,0
47.7419,-35.76,0.0646223,0
47.7712,-35.6925,0.0636164,0
47.799,-35.6244,0.0627277,0
47.8255,-35.5558,0.0619172,0
47.8504,-35.4866,0.0612043,0
47.874,-35.417,0.0605988,0
47.8962,-35.3469,0.060091,0
47.9168,-35.2764,0.0596711,0
47.9361,-35.2054,0.0593586,0
47.9538,-35.1341,0.059134,0
47.9701,-35.0625,0.0590168,0
47.9848,-34.9905,0.0589875,0
47.9982,-34.9182,0.0590656,0
48.0099,-34.8456,0.0592316,0
48.0203,-34.7728,0.0594953,0
48.0291,-34.6998,0.0598664,0
48.0364,-34.6266,0.0603254,0
42.891,-37.2321,0.293411,0
42.9552,-37.2709,0.290325,0
43.0203,-37.3083,0.2872,0
43.0861,-37.3443,0.284066,0
43.1527,-37.3787,0.280892,0
43.2201,-37.4116,0.277708,0
43.2881,-37.4431,0.274495,0
43.3568,-37.473,0.271263,0
43.4261,-37.5013,0.268021,0
43.496,-37.5281,0.264749,0
43.5665,-37.5533,0.261468,0
43.6375,-37.5769,0.258187,0
43.7089,-37.599,0.254876,0
43.7808,-37.6194,0.251566,0
43.8531,-37.6382,0.248245,0
43.9258,-37.6554,0.244915,0
43.9988,-37.671,0.241585,0
44.0722,-37.685,0.238255,0
44.1458,-37.6973,0.234915,0
44.2196,-37.708,0.231575,0
44.2937,-37.7171,0.228245,0
44.3678,-37.7245,0.224915,0
44.4421,-37.7302,0.221595,0
44.5165,-37.7343,0.218275,0
44.5909,-37.7368,0.214964,0
44.6653,-37.7376,0.211663,0
44.7397,-37.7367,0.208372,0
44.8141,-37.7343,0.205101,0
44.8883,-37.7302,0.201839,0
44.9624,-37.7244,0.198597,0
45.0363,-37.717,0.195364,0
45.1101,-37.708,0.192152,0
45.1836,-37.6972,0.188909,0
45.2564,-37.6831,0.185081,0
45.3289,-37.6675,0.181282,0
45.401,-37.6504,0.177523,0
45.4727,-37.6316,0.173782,0
45.5438,-37.6113,0.170081,0
45.6144,-37.5895,0.166429,0
45.6845,-37.5661,0.162806,0
45.7538,-37.5413,0.159232,0
45.8227,-37.515,0.155696,0
45.8909,-37.4872,0.15221,0
45.9585,-37.4579,0.148763,0
46.0253,-37.4273,0.145364,0
46.0913,-37.3952,0.142015,0
46.1567,-37.3616,0.138714,0
46.2212,-37.3268,0.135472,0
46.2849,-37.2905,0.132279,0
46.3477,-37.2529,0.129124,0
46.4098,-37.214,0.126048,0
46.4709,-37.1738,0.123011,0
46.5309,-37.1323,0.120042,0
46.5902,-37.0896,0.117132,0
46.6484,-37.0456,0.11428,0
46.7057,-37.0004,0.111488,0
46.7618,-36.954,0.108734,0
46.8169,-36.9064,0.106048,0
46.8709,-36.8576,0.103431,0
46.9238,-36.8078,0.100892,0
46.9757,-36.7569,0.0984211,0
47.0265,-36.705,0.0960383,0
47.0761,-36.652,0.0937141,0
47.1245,-36.598,0.091468,0
47.1718,-36.543,0.0893,0
47.2177,-36.4871,0.0872102,0
47.2626,-36.4301,0.0851594,0
47.306,-36.3723,0.0831867,0
47.3483,-36.3136,0.0812922,0
47.3892,-36.254,0.079466,0
47.4288,-36.1936,0.077718,0
47.4672,-36.1324,0.0760383,0
47.5041,-36.0704,0.0744465,0
47.5405,-36.0081,0.0732063,0
47.5756,-35.9451,0.0721125,0
47.6095,-35.8814,0.0710969,0
47.642,-35.817,0.0701594,0
47.6727,-35.7517,0.0691145,0
47.7017,-35.6857,0.0680988,0
47.7294,-35.6191,0.0671906,0
47.7557,-35.5521,0.0663801,0
47.7807,-35.4845,0.0656477,0
47.8042,-35.4164,0.0650227,0
47.8262,-35.3478,0.0644953,0
47.847,-35.2788,0.0640559,0
47.8662,-35.2094,0.0637141,0
47.8841,-35.1396,0.0634699,0
47.9005,-35.0695,0.0633234,0
47.9154,-34.999,0.0632746,0
47.9288,-34.9282,0.0633137,0
47.9409,-34.8572,0.0634504,0
47.9513,-34.7859,0.0636945,0
47.9605,-34.7144,0.0640168,0
47.968,-34.6428,0.0644563,0
42.8686,-37.2181,0.294486,0
42.9325,-37.2575,0.291409,0
42.9973,-37.2953,0.288294,0
43.0629,-37.3318,0.285169,0
43.1292,-37.3668,0.282005,0
43.1963,-37.4002,0.278821,0
43.2641,-37.4322,0.275628,0
43.3326,-37.4626,0.272405,0
43.4017,-37.4915,0.269154,0
43.4714,-37.5188,0.265892,0
43.5416,-37.5446,0.26262,0
43.6124,-37.5688,0.259339,0
43.6838,-37.5914,0.256038,0
43.7555,-37.6124,0.252728,0
43.8277,-37.6318,0.249417,0
43.9002,-37.6496,0.246087,0
43.9731,-37.6657,0.242757,0
44.0464,-37.6803,0.239427,0
44.1199,-37.6932,0.236087,0
44.1937,-37.7044,0.232757,0
44.2677,-37.7141,0.229417,0
44.3418,-37.722,0.226077,0
44.416,-37.7284,0.222767,0
44.4904,-37.7331,0.219446,0
44.5648,-37.7361,0.216126,0
44.6392,-37.7375,0.212816,0
44.7136,-37.7372,0.209525,0
44.788,-37.7353,0.206243,0
44.8622,-37.7318,0.202982,0
44.9364,-37.7266,0.19973,0
45.0104,-37.7198,0.196497,0
45.0842,-37.7113,0.193284,0
45.1578,-37.7013,0.190091,0
45.2309,-37.6883,0.186419,0
45.3035,-37.6732,0.182611,0
45.3758,-37.6566,0.178831,0
45.4475,-37.6384,0.175091,0
45.5188,-37.6186,0.17138,0
45.5896,-37.5973,0.167708,0
45.6598,-37.5745,0.164075,0
45.7295,-37.5502,0.160491,0
45.7987,-37.5244,0.156937,0
45.867,-37.4971,0.153431,0
45.9348,-37.4684,0.149964,0
46.002,-37.4382,0.146556,0
46.0683,-37.4066,0.143187,0
46.1338,-37.3736,0.139876,0
46.1986,-37.3392,0.136605,0
46.2627,-37.3034,0.133382,0
46.3258,-37.2663,0.130228,0
46.3881,-37.2278,0.127122,0
46.4495,-37.1881,0.124066,0
46.51,-37.147,0.121077,0
46.5695,-37.1047,0.118138,0
46.628,-37.0612,0.115267,0
46.6857,-37.0164,0.112464,0
46.7422,-36.9704,0.109691,0
46.7977,-36.9232,0.106986,0
46.8521,-36.8749,0.104349,0
46.9054,-36.8254,0.10178,0
46.9577,-36.7749,0.0992902,0
47.0087,-36.7233,0.0968586,0
47.0588,-36.6707,0.0945148,0
47.1076,-36.6171,0.0922492,0
47.1552,-36.5624,0.090052,0
47.2018,-36.5068,0.0879328,0
47.247,-36.4502,0.0858625,0
47.2909,-36.3927,0.0838801,0
47.3336,-36.3343,0.0819465,0
47.3749,-36.275,0.080091,0
47.4151,-36.2149,0.0783234,0
47.4538,-36.154,0.0766242,0
47.4913,-36.0922,0.0749934,0
47.5279,-36.03,0.0736066,0
47.5635,-35.9673,0.0724934,0
47.5978,-35.9038,0.0714387,0
47.6308,-35.8397,0.0704816,0
47.662,-35.7747,0.0694855,0
47.6916,-35.7089,0.0684504,0
47.7198,-35.6426,0.0675031,0
47.7466,-35.5757,0.0666535,0
47.7721,-35.5083,0.0658918,0
47.7961,-35.4403,0.0652375,0
47.8187,-35.3719,0.0646711,0
47.8399,-35.3031,0.0642023,0
47.8597,-35.2338,0.0638215,0
47.878,-35.1642,0.0635578,0
47.8949,-35.0941,0.0633625,0
47.9103,-35.0238,0.0632844,0
47.9243,-34.9531,0.0632941,0
47.9368,-34.8822,0.0633918,0
47.9479,-34.811,0.0635969,0
47.9575,-34.7396,0.0638996,0
47.9655,-34.6679,0.0642902,0
47.9722,-34.5962,0.0647688,0
42.8463,-37.2039,0.29556,0
42.91,-37.2438,0.292493,0
42.9745,-37.2822,0.289398,0
43.0398,-37.3192,0.286263,0
43.1059,-37.3547,0.283118,0
43.1727,-37.3887,0.279954,0
43.2402,-37.4212,0.276751,0
43.3084,-37.4521,0.273538,0
43.3773,-37.4815,0.270296,0
43.4469,-37.5094,0.267044,0
43.517,-37.5357,0.263782,0
43.5875,-37.5605,0.260501,0
43.6587,-37.5837,0.2572,0
43.7303,-37.6052,0.2539,0
43.8023,-37.6252,0.250579,0
43.8748,-37.6435,0.247259,0
43.9475,-37.6602,0.243919,0
44.0206,-37.6754,0.240599,0
44.0941,-37.6888,0.237269,0
44.1677,-37.7007,0.233919,0
44.2416,-37.7109,0.230579,0
44.3157,-37.7194,0.227259,0
44.3898,-37.7263,0.223929,0
44.4642,-37.7316,0.220599,0
44.5386,-37.7352,0.217288,0
44.613,-37.7372,0.213978,0
44.6874,-37.7375,0.210687,0
44.7619,-37.7362,0.207396,0
44.8362,-37.7332,0.204124,0
44.9104,-37.7286,0.200872,0
44.9845,-37.7224,0.19763,0
45.0584,-37.7145,0.194407,0
45.132,-37.705,0.191204,0
45.2053,-37.6932,0.187767,0
45.278,-37.6787,0.183939,0
45.3504,-37.6626,0.180159,0
45.4223,-37.6449,0.1764,0
45.4938,-37.6257,0.172689,0
45.5648,-37.605,0.168997,0
45.6352,-37.5827,0.165345,0
45.7052,-37.5589,0.161741,0
45.7745,-37.5336,0.158177,0
45.843,-37.5069,0.154652,0
45.9112,-37.4786,0.151175,0
45.9784,-37.449,0.147747,0
46.0451,-37.4179,0.144368,0
46.1109,-37.3853,0.141029,0
46.176,-37.3514,0.137737,0
46.2402,-37.3161,0.134515,0
46.3037,-37.2795,0.131331,0
46.3663,-37.2415,0.128206,0
46.428,-37.2022,0.12514,0
46.4888,-37.1616,0.122122,0
46.5487,-37.1197,0.119173,0
46.6077,-37.0766,0.116282,0
46.6655,-37.0323,0.113441,0
46.7225,-36.9867,0.110667,0
46.7783,-36.9399,0.107923,0
46.833,-36.892,0.105267,0
46.8869,-36.8429,0.102669,0
46.9395,-36.7928,0.10015,0
46.9909,-36.7416,0.0977082,0
47.0413,-36.6893,0.0953352,0
47.0905,-36.636,0.0930305,0
47.1387,-36.5817,0.0908137,0
47.1855,-36.5264,0.0886652,0
47.2312,-36.4702,0.0865852,0
47.2755,-36.413,0.0845637,0
47.3187,-36.3549,0.0826203,0
47.3605,-36.2959,0.0807355,0
47.4011,-36.2361,0.0789387,0
47.4404,-36.1754,0.0772102,0
47.4784,-36.114,0.0755598,0
47.515,-36.0519,0.0740266,0
47.5511,-35.9894,0.0728742,0
47.5859,-35.9262,0.0718,0
47.6194,-35.8623,0.0708039,0
47.6513,-35.7976,0.0698664,0
47.6814,-35.7321,0.068802,0
47.7101,-35.6659,0.0678156,0
47.7374,-35.5993,0.0669367,0
47.7634,-35.532,0.0661457,0
47.7878,-35.4642,0.0654621,0
47.8109,-35.396,0.0648566,0
47.8326,-35.3273,0.0643488,0
47.8529,-35.2582,0.0639484,0
47.8717,-35.1887,0.0636359,0
47.8891,-35.1188,0.0634211,0
47.9051,-35.0485,0.0632941,0
47.9195,-34.978,0.0632746,0
47.9326,-34.9071,0.063343,0
47.9441,-34.836,0.0635188,0
47.9542,-34.7647,0.0637824,0
47.9629,-34.6931,0.0641438,0
47.97,-34.6214,0.064593,0
42.9298,-37.1713,0.292073,0
42.9927,-37.2093,0.289056,0
43.0563,-37.2459,0.285999,0
43.1208,-37.2811,0.282923,0
43.186,-37.3149,0.279827,0
43.2519,-37.3471,0.276702,0
43.3185,-37.3779,0.273568,0
43.3856,-37.4072,0.270404,0
43.4535,-37.4349,0.26722,0
43.522,-37.4612,0.264027,0
43.5909,-37.4859,0.260814,0
43.6604,-37.509,0.257601,0
43.7303,-37.5306,0.254368,0
43.8007,-37.5507,0.251126,0
43.8715,-37.5691,0.247864,0
43.9426,-37.586,0.244622,0
44.0141,-37.6013,0.241351,0
44.0859,-37.615,0.238089,0
44.158,-37.627,0.234827,0
44.2302,-37.6375,0.231556,0
44.3027,-37.6464,0.228294,0
44.3752,-37.6537,0.225032,0
44.448,-37.6593,0.22178,0
44.5208,-37.6634,0.218529,0
44.5937,-37.6658,0.215286,0
44.6665,-37.6666,0.212054,0
44.7393,-37.6658,0.208841,0
44.8121,-37.6634,0.205628,0
44.8848,-37.6594,0.202435,0
44.9573,-37.6538,0.199261,0
45.0298,-37.6466,0.196107,0
45.1019,-37.6378,0.192962,0
45.1738,-37.6274,0.189847,0
45.2452,-37.6138,0.186126,0
45.3162,-37.5986,0.182405,0
45.3868,-37.5818,0.178714,0
45.457,-37.5635,0.175062,0
45.5266,-37.5437,0.171429,0
45.5958,-37.5224,0.167855,0
45.6644,-37.4996,0.1643,0
45.7324,-37.4753,0.160804,0
45.7998,-37.4496,0.157337,0
45.8666,-37.4224,0.153919,0
45.9328,-37.3939,0.15054,0
45.9983,-37.3639,0.14722,0
46.063,-37.3325,0.143939,0
46.127,-37.2997,0.140706,0
46.1902,-37.2656,0.137523,0
46.2526,-37.2301,0.134378,0
46.3142,-37.1934,0.131312,0
46.375,-37.1553,0.128284,0
46.4348,-37.116,0.125316,0
46.4937,-37.0754,0.122405,0
46.5518,-37.0336,0.119554,0
46.6087,-36.9905,0.116761,0
46.6648,-36.9463,0.114027,0
46.7199,-36.9009,0.111351,0
46.774,-36.8544,0.108743,0
46.827,-36.8067,0.106195,0
46.8789,-36.758,0.103714,0
46.9298,-36.7081,0.101292,0
46.9795,-36.6573,0.0989387,0
47.028,-36.6054,0.0966633,0
47.0755,-36.5525,0.0944367,0
47.1217,-36.4986,0.092298,0
47.1668,-36.4438,0.090218,0
47.2107,-36.388,0.088216,0
47.2533,-36.3314,0.0862824,0
47.2948,-36.2739,0.0844172,0
47.3348,-36.2156,0.0826301,0
47.3737,-36.1564,0.0809113,0
47.4113,-36.0964,0.0792805,0
47.4479,-36.0359,0.0778352,0
47.4836,-35.9749,0.0766828,0
47.5181,-35.9132,0.0756086,0
47.5513,-35.8508,0.0746125,0
47.5831,-35.7878,0.0737043,0
47.6137,-35.724,0.0728645,0
47.6427,-35.6596,0.0721125,0
47.6701,-35.5944,0.0712629,0
47.6959,-35.5287,0.0704621,0
47.7203,-35.4624,0.0697395,0
47.7434,-35.3957,0.069134,0
47.7651,-35.3285,0.0686164,0
47.7853,-35.2608,0.0681867,0
47.8043,-35.1928,0.0678547,0
47.8217,-35.1244,0.0676105,0
47.8377,-35.0556,0.0674641,0
47.8523,-34.9866,0.0674152,0
47.8655,-34.9172,0.0674543,0
47.8773,-34.8475,0.067591,0
47.8877,-34.7777,0.0678254,0
47.8966,-34.7076,0.0681574,0
47.9039,-34.6373,0.0685676,0
42.908,-37.1576,0.293128,0
42.9705,-37.1961,0.290111,0
43.0339,-37.2332,0.287073,0
43.0981,-37.2689,0.284007,0
43.163,-37.3032,0.280921,0
43.2287,-37.336,0.277806,0
43.295,-37.3673,0.274671,0
43.362,-37.397,0.271507,0
43.4296,-37.4253,0.268343,0
43.4978,-37.4521,0.26515,0
43.5666,-37.4774,0.261946,0
43.6359,-37.5011,0.258734,0
43.7057,-37.5232,0.255501,0
43.7759,-37.5438,0.252259,0
43.8466,-37.5628,0.249017,0
43.9176,-37.5802,0.245755,0
43.989,-37.5961,0.242493,0
44.0607,-37.6103,0.239241,0
44.1326,-37.623,0.23597,0
44.2048,-37.634,0.232708,0
44.2772,-37.6435,0.229437,0
44.3498,-37.6513,0.226175,0
44.4224,-37.6575,0.222923,0
44.4952,-37.6622,0.219671,0
44.568,-37.6652,0.216429,0
44.6409,-37.6665,0.213196,0
44.7137,-37.6663,0.209964,0
44.7866,-37.6645,0.206751,0
44.8593,-37.661,0.203558,0
44.9319,-37.656,0.200374,0
45.0044,-37.6493,0.19721,0
45.0766,-37.6411,0.194066,0
45.1486,-37.6313,0.190941,0
45.2202,-37.6188,0.187435,0
45.2913,-37.6041,0.183704,0
45.3621,-37.5879,0.180003,0
45.4323,-37.5701,0.176331,0
45.5022,-37.5508,0.172698,0
45.5716,-37.53,0.169105,0
45.6403,-37.5078,0.16555,0
45.7085,-37.484,0.162034,0
45.7762,-37.4588,0.158548,0
45.8433,-37.4322,0.15512,0
45.9096,-37.4041,0.151732,0
45.9754,-37.3746,0.148382,0
46.0404,-37.3437,0.145081,0
46.1046,-37.3114,0.141829,0
46.1681,-37.2777,0.138636,0
46.2308,-37.2428,0.135482,0
46.2927,-37.2065,0.132386,0
46.3537,-37.1688,0.129349,0
46.4139,-37.1299,0.126351,0
46.4731,-37.0898,0.123421,0
46.5315,-37.0484,0.12055,0
46.5889,-37.0058,0.117738,0
46.6452,-36.962,0.114974,0
46.7007,-36.917,0.112279,0
46.7552,-36.8708,0.109652,0
46.8085,-36.8236,0.107083,0
46.8608,-36.7752,0.104573,0
46.912,-36.7258,0.102132,0
46.9621,-36.6752,0.099759,0
47.0111,-36.6237,0.0974543,0
47.059,-36.5712,0.0952082,0
47.1056,-36.5176,0.0930402,0
47.1511,-36.4631,0.0909406,0
47.1954,-36.4077,0.0889094,0
47.2385,-36.3514,0.0869465,0
47.2803,-36.2942,0.0850617,0
47.3209,-36.2361,0.0832551,0
47.3602,-36.1773,0.0815168,0
47.3983,-36.1176,0.0798371,0
47.435,-36.0572,0.0782648,0
47.4712,-35.9965,0.0770832,0
47.5062,-35.935,0.0759699,0
47.5398,-35.8729,0.0749641,0
47.5721,-35.81,0.074007,0
47.6031,-35.7465,0.0731477,0
47.6327,-35.6823,0.0723664,0
47.6606,-35.6174,0.0715559,0
47.687,-35.5518,0.0707258,0
47.7119,-35.4857,0.0699836,0
47.7354,-35.4192,0.0693391,0
47.7576,-35.3521,0.0687922,0
47.7784,-35.2846,0.0683234,0
47.7978,-35.2167,0.0679523,0
47.8157,-35.1484,0.0676789,0
47.8323,-35.0798,0.0675031,0
47.8474,-35.0108,0.067425,0
47.8611,-34.9416,0.0674348,0
47.8734,-34.872,0.0675324,0
47.8842,-34.8022,0.0677277,0
47.8936,-34.7322,0.0680305,0
47.9016,-34.662,0.0684113,0
47.908,-34.5916,0.0688898,0
42.8862,-37.1437,0.294183,0
42.9484,-37.1827,0.291185,0
43.0116,-37.2204,0.288148,0
43.0755,-37.2566,0.285091,0
43.1401,-37.2913,0.282005,0
43.2055,-37.3246,0.2789,0
43.2716,-37.3564,0.275775,0
43.3384,-37.3867,0.27262,0
43.4058,-37.4156,0.269456,0
43.4738,-37.4429,0.266273,0
43.5424,-37.4687,0.263079,0
43.6116,-37.4929,0.259866,0
43.6812,-37.5156,0.256634,0
43.7512,-37.5367,0.253402,0
43.8217,-37.5563,0.25015,0
43.8927,-37.5743,0.246898,0
43.9639,-37.5907,0.243646,0
44.0354,-37.6055,0.240384,0
44.1073,-37.6187,0.237122,0
44.1795,-37.6303,0.233851,0
44.2517,-37.6403,0.230579,0
44.3243,-37.6487,0.227327,0
44.3969,-37.6555,0.224066,0
44.4696,-37.6607,0.220814,0
44.5425,-37.6643,0.217562,0
44.6153,-37.6662,0.214329,0
44.6882,-37.6666,0.211097,0
44.7609,-37.6653,0.207874,0
44.8337,-37.6624,0.204681,0
44.9064,-37.6579,0.201497,0
44.9788,-37.6519,0.198323,0
45.0513,-37.6442,0.195169,0
45.1234,-37.6349,0.192034,0
45.1951,-37.6236,0.188753,0
45.2664,-37.6094,0.185013,0
45.3373,-37.5938,0.181302,0
45.4077,-37.5765,0.17762,0
45.4777,-37.5578,0.173968,0
45.5472,-37.5375,0.170364,0
45.6162,-37.5158,0.16679,0
45.6846,-37.4925,0.163265,0
45.7525,-37.4678,0.159769,0
45.8198,-37.4417,0.156321,0
45.8864,-37.4141,0.152913,0
45.9523,-37.3851,0.149554,0
46.0176,-37.3547,0.146234,0
46.0821,-37.3229,0.142972,0
46.1459,-37.2897,0.139749,0
46.2089,-37.2552,0.136585,0
46.2711,-37.2194,0.13347,0
46.3323,-37.1822,0.130404,0
46.3928,-37.1438,0.127396,0
46.4524,-37.104,0.124446,0
46.5112,-37.0631,0.121556,0
46.5688,-37.0209,0.118714,0
46.6256,-36.9775,0.115931,0
46.6814,-36.9329,0.113226,0
46.7361,-36.8872,0.11057,0
46.7898,-36.8403,0.107972,0
46.8425,-36.7923,0.105452,0
46.8941,-36.7433,0.102982,0
46.9447,-36.6931,0.100589,0
46.9941,-36.6419,0.0982551,0
47.0423,-36.5897,0.0959895,0
47.0894,-36.5365,0.093802,0
47.1352,-36.4824,0.0916633,0
47.18,-36.4273,0.0896125,0
47.2235,-36.3713,0.0876301,0
47.2658,-36.3144,0.085716,0
47.3068,-36.2566,0.0838801,0
47.3466,-36.198,0.0821125,0
47.385,-36.1386,0.0804133,0
47.4223,-36.0785,0.078802,0
47.4587,-36.0179,0.0774836,0
47.494,-35.9567,0.0763508,0
47.5281,-35.8948,0.0753059,0
47.5609,-35.8321,0.0743391,0
47.5923,-35.7688,0.0734406,0
47.6225,-35.7049,0.0726398,0
47.6512,-35.6403,0.0718781,0
47.6779,-35.5749,0.071009,0
47.7033,-35.509,0.0702375,0
47.7273,-35.4426,0.0695539,0
47.75,-35.3757,0.068968,0
47.7712,-35.3084,0.0684797,0
47.7912,-35.2406,0.0680695,0
47.8096,-35.1725,0.0677766,0
47.8266,-35.104,0.067552,0
47.8423,-35.0351,0.0674348,0
47.8564,-34.9659,0.067425,0
47.8692,-34.8965,0.0674836,0
47.8805,-34.8268,0.0676496,0
47.8905,-34.7568,0.0679133,0
47.8989,-34.6867,0.0682746,0
47.9059,-34.6164,0.0687043,0
42.9673,-37.1126,0.290784,0
43.0288,-37.1499,0.287835,0
43.0912,-37.1858,0.284837,0
43.1542,-37.2203,0.281829,0
43.218,-37.2533,0.278802,0
43.2825,-37.2849,0.275736,0
43.3477,-37.3151,0.272659,0
43.4136,-37.3438,0.269573,0
43.48,-37.371,0.266458,0
43.547,-37.3967,0.263333,0
43.6145,-37.4209,0.260189,0
43.6825,-37.4436,0.257034,0
43.7509,-37.4647,0.25387,0
43.8198,-37.4844,0.250696,0
43.8891,-37.5025,0.247503,0
43.9588,-37.519,0.24432,0
44.0288,-37.534,0.241126,0
44.0991,-37.5475,0.237933,0
44.1696,-37.5593,0.234739,0
44.2404,-37.5696,0.231536,0
44.3114,-37.5783,0.228343,0
44.3825,-37.5855,0.22515,0
44.4537,-37.591,0.221956,0
44.525,-37.595,0.218773,0
44.5963,-37.5974,0.215609,0
44.6677,-37.5982,0.212435,0
44.739,-37.5975,0.20929,0
44.8102,-37.5952,0.206146,0
44.8814,-37.5913,0.203021,0
44.9525,-37.5858,0.199905,0
45.0234,-37.5788,0.19682,0
45.0941,-37.5702,0.193734,0
45.1645,-37.56,0.190687,0
45.2345,-37.547,0.187122,0
45.304,-37.5321,0.18348,0
45.3731,-37.5157,0.179866,0
45.4419,-37.4979,0.176282,0
45.5101,-37.4785,0.172737,0
45.5778,-37.4577,0.169222,0
45.6451,-37.4354,0.165745,0
45.7117,-37.4117,0.162318,0
45.7777,-37.3866,0.158929,0
45.8433,-37.36,0.155579,0
45.908,-37.3321,0.152269,0
45.9722,-37.3027,0.149007,0
46.0357,-37.272,0.145784,0
46.0984,-37.24,0.142611,0
46.1603,-37.2066,0.139505,0
46.2215,-37.1719,0.136429,0
46.2819,-37.1359,0.133411,0
46.3413,-37.0987,0.130452,0
46.4,-37.0602,0.127542,0
46.4577,-37.0205,0.124681,0
46.5147,-36.9795,0.121888,0
46.5705,-36.9374,0.119144,0
46.6255,-36.8941,0.116468,0
46.6795,-36.8497,0.113851,0
46.7325,-36.8041,0.111292,0
46.7845,-36.7574,0.108792,0
46.8353,-36.7097,0.106361,0
46.8852,-36.6609,0.103988,0
46.9339,-36.6111,0.101683,0
46.9816,-36.5603,0.0994367,0
47.028,-36.5085,0.0972688,0
47.0734,-36.4557,0.0951691,0
47.1177,-36.402,0.0931281,0
47.1606,-36.3474,0.0911555,0
47.2024,-36.2919,0.0892609,0
47.243,-36.2356,0.0874348,0
47.2823,-36.1784,0.0856867,0
47.3205,-36.1205,0.084007,0
47.3573,-36.0618,0.0823957,0
47.3937,-36.0027,0.0811652,0
47.4287,-35.943,0.0800422,0
47.4625,-35.8825,0.0789875,0
47.4951,-35.8214,0.0780109,0
47.5262,-35.7595,0.0771223,0
47.5562,-35.697,0.0762922,0
47.5847,-35.6339,0.0755598,0
47.612,-35.5703,0.0749055,0
47.6378,-35.506,0.0743293,0
47.662,-35.4411,0.0737043,0
47.6846,-35.3756,0.0730988,0
47.7059,-35.3098,0.072591,0
47.7258,-35.2434,0.0721711,0
47.7443,-35.1767,0.0718488,0
47.7614,-35.1097,0.0716145,0
47.7772,-35.0422,0.0714582,0
47.7915,-34.9745,0.0714191,0
47.8045,-34.9065,0.0714582,0
47.8159,-34.8382,0.0715949,0
47.826,-34.7697,0.0718293,0
47.8348,-34.701,0.0721418,0
47.842,-34.6321,0.0725422,0
42.9459,-37.0992,0.29182,0
43.0071,-37.137,0.28887,0
43.0691,-37.1733,0.285892,0
43.132,-37.2083,0.282894,0
43.1955,-37.2419,0.279866,0
43.2598,-37.274,0.27681,0
43.3248,-37.3047,0.273753,0
43.3903,-37.3338,0.270657,0
43.4566,-37.3616,0.267552,0
43.5234,-37.3878,0.264427,0
43.5906,-37.4126,0.261292,0
43.6585,-37.4358,0.258138,0
43.7268,-37.4575,0.254984,0
43.7956,-37.4776,0.2518,0
43.8648,-37.4963,0.248626,0
43.9343,-37.5134,0.245443,0
44.0042,-37.5289,0.242249,0
44.0744,-37.5429,0.239046,0
44.1448,-37.5553,0.235853,0
44.2155,-37.5662,0.23265,0
44.2864,-37.5754,0.229456,0
44.3574,-37.5831,0.226263,0
44.4286,-37.5893,0.223079,0
44.4998,-37.5938,0.219896,0
44.5712,-37.5967,0.216722,0
44.6426,-37.5981,0.213548,0
44.7139,-37.5979,0.210394,0
44.7852,-37.5962,0.207249,0
44.8564,-37.5928,0.204114,0
44.9275,-37.5879,0.200999,0
44.9984,-37.5814,0.197904,0
45.0693,-37.5734,0.194827,0
45.1398,-37.5637,0.191751,0
45.2099,-37.5518,0.188411,0
45.2796,-37.5375,0.184749,0
45.3489,-37.5216,0.181126,0
45.4177,-37.5043,0.177542,0
45.4862,-37.4855,0.173978,0
45.5541,-37.4652,0.170452,0
45.6215,-37.4434,0.166976,0
45.6884,-37.4202,0.163519,0
45.7547,-37.3955,0.160111,0
45.8204,-37.3695,0.156741,0
45.8854,-37.342,0.153421,0
45.9498,-37.3132,0.15015,0
46.0134,-37.2829,0.146917,0
46.0764,-37.2514,0.143734,0
46.1387,-37.2185,0.140599,0
46.2002,-37.1842,0.137513,0
46.2608,-37.1487,0.134466,0
46.3205,-37.1119,0.131488,0
46.3795,-37.0739,0.128558,0
46.4377,-37.0346,0.125687,0
46.4948,-36.9941,0.122874,0
46.551,-36.9523,0.120101,0
46.6064,-36.9094,0.117405,0
46.6606,-36.8654,0.114759,0
46.7141,-36.8202,0.112171,0
46.7663,-36.774,0.109661,0
46.8177,-36.7266,0.10721,0
46.8677,-36.6782,0.104808,0
46.917,-36.6287,0.102484,0
46.9649,-36.5782,0.100218,0
47.0119,-36.5268,0.0980305,0
47.0576,-36.4743,0.0958918,0
47.1023,-36.421,0.0938312,0
47.1457,-36.3667,0.0918391,0
47.1879,-36.3115,0.089925,0
47.2289,-36.2555,0.0880695,0
47.2687,-36.1986,0.0862922,0
47.3073,-36.1409,0.0845832,0
47.3445,-36.0825,0.0829426,0
47.381,-36.0235,0.0815852,0
47.4166,-35.9641,0.0804328,0
47.4508,-35.9038,0.0793488,0
47.4837,-35.8429,0.078343,0
47.5154,-35.7813,0.077425,0
47.5458,-35.7191,0.0765754,0
47.5748,-35.6562,0.0758137,0
47.6025,-35.5927,0.0751203,0
47.6289,-35.5286,0.0745246,0
47.6537,-35.464,0.0739289,0
47.6769,-35.3987,0.0732941,0
47.6986,-35.333,0.0727668,0
47.7189,-35.2668,0.0723078,0
47.7379,-35.2002,0.0719465,0
47.7555,-35.1333,0.0716828,0
47.7718,-35.066,0.071507,0
47.7866,-34.9983,0.0714191,0
47.8001,-34.9304,0.0714289,0
47.8121,-34.8622,0.0715363,0
47.8227,-34.7938,0.0717219,0
47.8319,-34.7251,0.0720148,0
47.8396,-34.6563,0.0723957,0
47.8459,-34.5873,0.0728645,0
42.9245,-37.0856,0.292855,0
42.9855,-37.1239,0.289905,0
43.0473,-37.1607,0.286937,0
43.1098,-37.1962,0.283948,0
43.1731,-37.2302,0.280931,0
43.2371,-37.2629,0.277884,0
43.3019,-37.2941,0.274827,0
43.3673,-37.3238,0.271751,0
43.4332,-37.352,0.268646,0
43.4998,-37.3788,0.26553,0
43.567,-37.404,0.262396,0
43.6346,-37.4278,0.259241,0
43.7028,-37.45,0.256097,0
43.7714,-37.4708,0.252923,0
43.8405,-37.4899,0.249749,0
43.9099,-37.5076,0.246566,0
43.9796,-37.5237,0.243372,0
44.0497,-37.5382,0.240179,0
44.1201,-37.5511,0.236976,0
44.1907,-37.5625,0.233782,0
44.2615,-37.5724,0.230579,0
44.3325,-37.5806,0.227386,0
44.4036,-37.5873,0.224193,0
44.4748,-37.5924,0.221009,0
44.5462,-37.5959,0.217825,0
44.6175,-37.5978,0.214661,0
44.6889,-37.5982,0.211497,0
44.7602,-37.597,0.208353,0
44.8314,-37.5942,0.205208,0
44.9026,-37.5898,0.202093,0
44.9736,-37.5839,0.198987,0
45.0444,-37.5764,0.195902,0
45.115,-37.5673,0.192835,0
45.1854,-37.5565,0.189691,0
45.2552,-37.5427,0.186038,0
45.3246,-37.5274,0.182396,0
45.3936,-37.5106,0.178792,0
45.4623,-37.4923,0.175228,0
45.5303,-37.4725,0.171693,0
45.5979,-37.4512,0.168187,0
45.665,-37.4285,0.16473,0
45.7315,-37.4044,0.161302,0
45.7973,-37.3788,0.157933,0
45.8626,-37.3518,0.154583,0
45.9272,-37.3235,0.151292,0
45.9912,-37.2937,0.14805,0
46.0544,-37.2626,0.144837,0
46.1169,-37.2302,0.141683,0
46.1786,-37.1964,0.138577,0
46.2395,-37.1613,0.13554,0
46.2997,-37.125,0.132523,0
46.3589,-37.0874,0.129573,0
46.4173,-37.0485,0.126683,0
46.4748,-37.0084,0.123851,0
46.5314,-36.9671,0.121068,0
46.587,-36.9246,0.118343,0
46.6417,-36.881,0.115677,0
46.6954,-36.8362,0.113079,0
46.748,-36.7903,0.11054,0
46.7997,-36.7433,0.10805,0
46.8503,-36.6953,0.105648,0
46.8998,-36.6462,0.103294,0
46.9482,-36.5961,0.101009,0
46.9955,-36.5449,0.0987922,0
47.0417,-36.4929,0.096634,0
47.0867,-36.4398,0.0945441,0
47.1305,-36.3858,0.0925324,0
47.1732,-36.331,0.0905891,0
47.2147,-36.2753,0.0887141,0
47.2548,-36.2187,0.0869074,0
47.2938,-36.1613,0.0851789,0
47.3316,-36.1031,0.0835188,0
47.3683,-36.0442,0.0820051,0
47.4042,-35.985,0.0808234,0
47.4389,-35.9251,0.0797199,0
47.4723,-35.8644,0.0786848,0
47.5045,-35.803,0.0777375,0
47.5353,-35.741,0.0768684,0
47.5648,-35.6783,0.0760676,0
47.5929,-35.615,0.0753645,0
47.6198,-35.5512,0.0747297,0
47.6452,-35.4868,0.074173,0
47.6688,-35.4217,0.0735188,0
47.6911,-35.3561,0.0729426,0
47.712,-35.2901,0.0724543,0
47.7314,-35.2236,0.0720637,0
47.7495,-35.1568,0.0717609,0
47.7663,-35.0896,0.0715559,0
47.7816,-35.0221,0.0714484,0
47.7955,-34.9543,0.0714191,0
47.808,-34.8862,0.0714875,0
47.8191,-34.8178,0.0716535,0
47.8288,-34.7493,0.0719074,0
47.837,-34.6805,0.0722492,0
47.8439,-34.6115,0.0726984,0
43.0034,-37.0561,0.289544,0
43.0637,-37.0926,0.286654,0
43.1247,-37.1278,0.283724,0
43.1865,-37.1616,0.280775,0
43.249,-37.194,0.277796,0
43.3122,-37.2249,0.274808,0
43.3759,-37.2545,0.2718,0
43.4404,-37.2826,0.268763,0
43.5055,-37.3093,0.265716,0
43.5711,-37.3345,0.26265,0
43.6372,-37.3582,0.259583,0
43.7038,-37.3805,0.256487,0
43.7709,-37.4012,0.253392,0
43.8384,-37.4205,0.250277,0
43.9062,-37.4382,0.247152,0
43.9745,-37.4544,0.244036,0
44.043,-37.4691,0.240911,0
44.1119,-37.4823,0.237777,0
44.1809,-37.494,0.234642,0
44.2502,-37.5041,0.231517,0
44.3198,-37.5126,0.228382,0
44.3894,-37.5196,0.225247,0
44.4591,-37.5251,0.222132,0
44.529,-37.5291,0.219017,0
44.5988,-37.5314,0.215911,0
44.6688,-37.5322,0.212806,0
44.7386,-37.5316,0.20972,0
44.8084,-37.5293,0.206644,0
44.8781,-37.5255,0.203577,0
44.9477,-37.5201,0.20053,0
45.0172,-37.5133,0.197503,0
45.0865,-37.5049,0.194495,0
45.1555,-37.495,0.191497,0
45.2241,-37.4824,0.188089,0
45.2922,-37.4679,0.184525,0
45.3599,-37.4519,0.18098,0
45.4273,-37.4345,0.177464,0
45.4941,-37.4156,0.173997,0
45.5605,-37.3953,0.17055,0
45.6264,-37.3735,0.167142,0
45.6917,-37.3503,0.163782,0
45.7565,-37.3257,0.160452,0
45.8206,-37.2997,0.157171,0
45.8842,-37.2724,0.153929,0
45.9471,-37.2437,0.150726,0
46.0092,-37.2136,0.147571,0
46.0708,-37.1823,0.144476,0
46.1315,-37.1496,0.141409,0
46.1914,-37.1157,0.138411,0
46.2505,-37.0805,0.135452,0
46.3089,-37.044,0.132542,0
46.3665,-37.0063,0.129691,0
46.423,-36.9674,0.126888,0
46.4788,-36.9273,0.124144,0
46.5337,-36.8861,0.121458,0
46.5875,-36.8437,0.118821,0
46.6405,-36.8002,0.116253,0
46.6924,-36.7555,0.113743,0
46.7434,-36.7098,0.111302,0
46.7933,-36.6631,0.108909,0
46.8421,-36.6153,0.106585,0
46.8899,-36.5665,0.104329,0
46.9366,-36.5167,0.102132,0
46.9823,-36.466,0.100003,0
47.0268,-36.4143,0.0979328,0
47.0702,-36.3616,0.0959309,0
47.1123,-36.3082,0.0940168,0
47.1533,-36.2538,0.0921418,0
47.1931,-36.1986,0.0903645,0
47.2317,-36.1426,0.0886457,0
47.2691,-36.0858,0.0869953,0
47.3056,-36.0285,0.0855793,0
47.3412,-35.9707,0.0843879,0
47.3756,-35.9121,0.0832844,0
47.4088,-35.8528,0.0822492,0
47.4407,-35.7929,0.081302,0
47.4713,-35.7322,0.0804133,0
47.5005,-35.671,0.0796125,0
47.5286,-35.6091,0.0788898,0
47.5553,-35.5467,0.0782453,0
47.5806,-35.4837,0.0776789,0
47.6047,-35.4202,0.0771906,0
47.6274,-35.3562,0.0767805,0
47.6487,-35.2917,0.0764387,0
47.6682,-35.2266,0.0760285,0
47.6863,-35.1612,0.0757063,0
47.7031,-35.0954,0.0754816,0
47.7185,-35.0293,0.0753352,0
47.7327,-34.9629,0.0752863,0
