2.49579,2.32722,0.307191,0
2.4404,2.36252,0.305316,0
2.56054,-2.73009,0.590872,0
2.62302,-2.68965,0.589866,0
2.6845,-2.6478,0.588792,0
2.74495,-2.60462,0.587698,0
2.80434,-2.56014,0.586585,0
2.86264,-2.51431,0.585423,0
2.91983,-2.46723,0.584232,0
2.97588,-2.4189,0.583011,0
3.03077,-2.36935,0.581751,0
3.08446,-2.3186,0.580472,0
3.13695,-2.26671,0.579163,0
3.18737,-2.21282,0.577308,0
3.23374,-2.15526,0.573812,0
3.27878,-2.09687,0.570325,0
3.32249,-2.03774,0.566907,0
3.36484,-1.97782,0.563499,0
3.40584,-1.91723,0.560159,0
3.44548,-1.85591,0.556859,0
3.48376,-1.79394,0.553597,0
3.52067,-1.73131,0.550374,0
3.5562,-1.66808,0.54721,0
3.59035,-1.60425,0.544075,0
3.62311,-1.53984,0.540989,0
3.65448,-1.47492,0.537972,0
3.68135,-1.40788,0.533499,0
3.70651,-1.34036,0.528958,0
3.73019,-1.27256,0.524486,0
3.75238,-1.20446,0.520052,0
3.7731,-1.13614,0.515687,0
3.79234,-1.06759,0.51137,0
3.81012,-0.998828,0.507103,0
3.82642,-0.929893,0.502894,0
3.84126,-0.860811,0.498734,0
3.85464,-0.791602,0.494642,0
3.86617,-0.722227,0.490433,0
3.87625,-0.652773,0.486292,0
3.88486,-0.583301,0.4822,0
3.89203,-0.513828,0.478167,0
3.89775,-0.444365,0.474212,0
3.90203,-0.374951,0.470296,0
3.90488,-0.305596,0.466439,0
3.9063,-0.236338,0.462669,0
3.90631,-0.167187,0.458948,0
3.9049,-0.0981836,0.455296,0
3.90209,-0.0293164,0.451702,0
3.89788,0.0393262,0.448206,0
3.89228,0.107793,0.444749,0
3.88529,0.176055,0.441361,0
3.87692,0.244053,0.43805,0
3.86719,0.311777,0.434808,0
3.8561,0.379219,0.431644,0
3.84365,0.446348,0.428548,0
3.82985,0.513164,0.425521,0
3.81472,0.579609,0.422571,0
3.79825,0.645703,0.419691,0
3.78046,0.711396,0.416898,0
3.76136,0.77668,0.414163,0
3.74094,0.841533,0.411517,0
3.71923,0.905937,0.408948,0
3.69623,0.969863,0.406458,0
3.66789,1.03168,0.402298,0
3.63482,1.09126,0.396683,0
3.60075,1.14997,0.391224,0
3.56569,1.20788,0.385882,0
3.52965,1.26491,0.380696,0
3.49274,1.32114,0.375677,0
3.45636,1.37737,0.371468,0
3.419,1.43278,0.367405,0
3.38069,1.48739,0.36347,0
3.34142,1.54117,0.359681,0
3.30122,1.59415,0.356009,0
3.2601,1.64629,0.352493,0
3.21806,1.69759,0.349114,0
3.17509,1.74802,0.345833,0
3.13019,1.79667,0.342161,0
3.08443,1.84438,0.338636,0
3.03783,1.89117,0.335218,0
2.99041,1.93701,0.331946,0
2.94217,1.98188,0.328802,0
2.89314,2.02581,0.325775,0
2.84331,2.06876,0.322884,0
2.79272,2.11073,0.32014,0
2.74136,2.15169,0.317532,0
2.68926,2.19171,0.315023,0
2.63642,2.23067,0.312679,0
2.58285,2.26866,0.310452,0
2.52858,2.30562,0.308362,0
2.4736,2.34151,0.306429,0
2.41794,2.37641,0.304612,0
2.58578,-2.714,0.590482,0
2.64786,-2.67298,0.589437,0
2.70893,-2.63061,0.588363,0
2.76895,-2.58689,0.587259,0
2.82791,-2.54186,0.586116,0
2.88577,-2.49555,0.584964,0
2.94251,-2.44794,0.583743,0
2.99809,-2.39911,0.582503,0
3.0525,-2.34908,0.581234,0
3.10572,-2.29786,0.579945,0
3.15771,-2.24551,0.578626,0
3.20618,-2.18979,0.575902,0
3.25202,-2.13188,0.572405,0
3.29652,-2.07319,0.568958,0
3.33968,-2.01374,0.56553,0
3.38149,-1.95355,0.562171,0
3.42195,-1.89264,0.558821,0
3.46104,-1.83107,0.55554,0
3.49876,-1.76883,0.552298,0
3.53512,-1.70596,0.549095,0
3.5701,-1.64247,0.545941,0
3.60368,-1.57842,0.542825,0
3.63589,-1.51382,0.539779,0
3.66559,-1.44809,0.536234,0
3.69164,-1.38079,0.531683,0
3.71621,-1.31314,0.527161,0
3.73929,-1.24521,0.522698,0
3.76089,-1.17702,0.518284,0
3.78102,-1.10859,0.513939,0
3.79967,-1.03996,0.509652,0
3.81685,-0.971123,0.505404,0
3.83256,-0.902119,0.501204,0
3.84682,-0.833018,0.497103,0
3.85945,-0.763721,0.492952,0
3.8027,0.385352,0.433499,0
3.79026,0.451211,0.430482,0
3.77649,0.516777,0.427513,0
3.7614,0.581973,0.424642,0
3.74501,0.646816,0.421829,0
3.72731,0.711279,0.419085,0
3.70831,0.775332,0.416419,0
3.68803,0.838945,0.413841,0
3.66647,0.902119,0.411331,0
3.64363,0.964824,0.4089,0
3.61631,1.02573,0.405111,0
3.58374,1.08419,0.399622,0
3.55017,1.14182,0.394261,0
3.51562,1.19864,0.389027,0
3.48011,1.25459,0.383948,0
3.44436,1.31014,0.37931,0
3.40846,1.3653,0.375198,0
3.3716,1.41971,0.371204,0
3.33379,1.47327,0.367366,0
3.29504,1.52606,0.363646,0
3.25537,1.57802,0.360081,0
3.21479,1.62919,0.356624,0
3.17323,1.67944,0.353265,0
3.12981,1.72807,0.349544,0
3.08554,1.77575,0.34596,0
3.04043,1.82252,0.342513,0
2.99448,1.86839,0.339173,0
2.94773,1.91328,0.33598,0
2.90017,1.95727,0.332894,0
2.85182,2.00029,0.329954,0
2.8027,2.04235,0.327142,0
2.75282,2.08345,0.324466,0
2.70218,2.12357,0.321907,0
2.65081,2.16271,0.319486,0
2.59872,2.20085,0.3172,0
2.54591,2.238,0.315042,0
2.4924,2.27414,0.313011,0
2.43821,2.30926,0.311126,0
2.38333,2.34336,0.309368,0
2.56572,-2.65177,0.588909,0
2.62639,-2.61136,0.587874,0
2.68606,-2.56962,0.58682,0
2.74472,-2.52656,0.585726,0
2.80231,-2.48224,0.584612,0
2.85883,-2.43665,0.58347,0
2.91424,-2.3898,0.582269,0
2.96853,-2.34177,0.581058,0
3.02166,-2.29254,0.579818,0
3.07361,-2.24216,0.578538,0
3.12436,-2.19065,0.57723,0
3.17389,-2.13806,0.575911,0
3.2189,-2.08133,0.572591,0
3.26241,-2.02367,0.569212,0
3.30461,-1.96523,0.565853,0
3.34549,-1.90609,0.562552,0
3.38503,-1.84626,0.5593,0
3.42323,-1.78573,0.556068,0
3.4601,-1.72457,0.552884,0
3.4956,-1.66278,0.549759,0
3.52976,-1.60039,0.546663,0
3.56255,-1.53743,0.543616,0
3.59398,-1.47394,0.540618,0
3.62102,-1.40832,0.536185,0
3.64644,-1.34228,0.531722,0
3.67039,-1.27591,0.527308,0
3.69289,-1.20924,0.522933,0
3.71394,-1.14231,0.518616,0
3.73353,-1.07516,0.514359,0
3.75168,-1.00775,0.51014,0
3.76838,-0.940195,0.50598,0
3.78364,-0.87248,0.501888,0
3.79717,-0.804531,0.497698,0
3.80919,-0.736465,0.493548,0
3.81976,-0.66833,0.489446,0
3.8289,-0.600176,0.485413,0
3.83661,-0.531982,0.481429,0
3.8429,-0.463789,0.477513,0
3.84777,-0.395625,0.473646,0
3.85122,-0.32751,0.469837,0
3.85327,-0.259473,0.466087,0
3.85392,-0.191533,0.462415,0
3.85317,-0.123721,0.458802,0
3.85104,-0.0560254,0.455247,0
3.84753,0.0114746,0.451761,0
3.84264,0.0788086,0.448343,0
3.83639,0.145918,0.444993,0
3.82878,0.212812,0.441702,0
3.81981,0.279424,0.438499,0
3.80951,0.345791,0.435355,0
3.79786,0.411875,0.432279,0
3.78488,0.477617,0.42928,0
3.77058,0.543037,0.426351,0
3.75497,0.608105,0.423489,0
3.73805,0.672773,0.420726,0
3.71982,0.73707,0.418011,0
3.70031,0.800967,0.415374,0
3.67951,0.864404,0.412825,0
3.65744,0.927402,0.410335,0
3.63409,0.989902,0.407933,0
3.60334,1.04933,0.402894,0
3.57036,1.10746,0.397454,0
3.53639,1.16479,0.392122,0
3.50146,1.22124,0.386966,0
3.46557,1.27688,0.381927,0
3.43004,1.33241,0.37764,0
3.39375,1.38727,0.373587,0
3.35651,1.44134,0.369642,0
3.31832,1.49461,0.365853,0
3.2792,1.54707,0.362191,0
3.23916,1.59869,0.358675,0
3.19822,1.64953,0.355267,0
3.15587,1.6991,0.351761,0
3.11211,1.74733,0.348109,0
3.0675,1.79466,0.344564,0
3.02205,1.84106,0.341155,0
2.97578,1.88656,0.337864,0
2.9287,1.93109,0.33472,0
2.88082,1.97469,0.331693,0
2.83216,2.01732,0.328802,0
2.78273,2.05899,0.326048,0
2.73255,2.0997,0.323421,0
2.68162,2.13941,0.320921,0
2.62995,2.17818,0.318538,0
2.57757,2.21593,0.316302,0
2.52448,2.25266,0.314202,0
2.47069,2.28839,0.312239,0
2.41622,2.32311,0.310394,0
2.52897,-2.67527,0.589505,0
2.59023,-2.63567,0.588489,0
2.65051,-2.59474,0.587454,0
2.70977,-2.55248,0.5864,0
2.768,-2.50891,0.585296,0
2.82517,-2.46404,0.584144,0
2.88125,-2.41795,0.582982,0
2.93621,-2.37063,0.58179,0
2.99003,-2.32212,0.58057,0
3.04269,-2.27243,0.57931,0
3.09416,-2.22158,0.578021,0
3.14442,-2.16964,0.576712,0
3.19225,-2.11543,0.574632,0
3.23655,-2.05822,0.571224,0
3.27954,-2.00025,0.567855,0
3.32121,-1.94155,0.564534,0
3.36155,-1.88211,0.561234,0
3.40055,-1.82199,0.557991,0
3.43822,-1.76121,0.554779,0
3.47453,-1.69979,0.551624,0
3.5095,-1.63777,0.548509,0
3.54311,-1.57515,0.545433,0
3.57535,-1.51198,0.542415,0
3.60513,-1.44766,0.53889,0
3.63142,-1.38182,0.534398,0
3.65625,-1.31562,0.529925,0
3.67962,-1.24913,0.52554,0
3.70153,-1.18235,0.521195,0
3.72199,-1.11534,0.516898,0
3.74101,-1.04807,0.51265,0
3.75857,-0.980615,0.50846,0
3.77469,-0.912988,0.504329,0
3.78929,-0.845176,0.500208,0
3.80217,-0.777178,0.496029,0
3.81361,-0.709082,0.491898,0
3.82361,-0.640918,0.487806,0
3.83218,-0.572754,0.483802,0
3.83931,-0.504551,0.479847,0
3.84503,-0.436357,0.475931,0
3.84932,-0.368203,0.472083,0
3.85221,-0.300146,0.468323,0
3.8537,-0.232148,0.464612,0
3.85379,-0.164238,0.46095,0
3.85248,-0.0964844,0.457357,0
3.84979,-0.0288672,0.453831,0
3.84573,0.0385645,0.450384,0
3.84029,0.10582,0.446986,0
3.83349,0.172822,0.443675,0
3.82534,0.239619,0.440413,0
3.81583,0.306152,0.43722,0
3.80498,0.372393,0.434114,0
3.7928,0.43833,0.431068,0
3.77929,0.503965,0.428089,0
3.76446,0.569229,0.425198,0
3.74832,0.63416,0.422366,0
3.73087,0.698691,0.419622,0
3.71213,0.762822,0.416937,0
3.6921,0.826523,0.414339,0
3.67079,0.889785,0.41181,0
3.6482,0.952588,0.409368,0
3.62257,1.01417,0.406224,0
3.5902,1.07281,0.400677,0
3.55682,1.13061,0.395296,0
3.52246,1.18758,0.390042,0
3.48714,1.24371,0.384925,0
3.45128,1.29924,0.38013,0
3.41557,1.35457,0.375989,0
3.37889,1.40911,0.371976,0
3.34127,1.46285,0.368118,0
3.3027,1.5158,0.364368,0
3.26321,1.56792,0.360765,0
3.22281,1.61924,0.357288,0
3.1815,1.66973,0.353948,0
3.13838,1.71861,0.350267,0
3.09428,1.76647,0.346663,0
3.04932,1.81344,0.343167,0
3.00354,1.85948,0.339818,0
2.95694,1.90458,0.336585,0
2.90954,1.94874,0.333489,0
2.86135,1.99194,0.330521,0
2.81238,2.03419,0.327679,0
2.76265,2.07549,0.324964,0
2.71215,2.11579,0.322405,0
2.66093,2.15514,0.319935,0
2.60898,2.19347,0.31763,0
2.5563,2.23081,0.315452,0
2.50293,2.26716,0.313392,0
2.44887,2.30246,0.311487,0
2.39413,2.33678,0.309691,0
2.55372,-2.65951,0.589105,0
2.61458,-2.61937,0.588079,0
2.67446,-2.57789,0.587025,0
2.73331,-2.5351,0.585941,0
2.79112,-2.49103,0.584837,0
2.84785,-2.44566,0.583685,0
2.90348,-2.39907,0.582513,0
2.95799,-2.35126,0.581292,0
3.01134,-2.30229,0.580071,0
3.06353,-2.25211,0.578792,0
3.11452,-2.20082,0.577493,0
3.16428,-2.14844,0.576175,0
3.21022,-2.09253,0.573255,0
3.254,-2.035,0.569857,0
3.29645,-1.97675,0.566517,0
3.33759,-1.91774,0.563206,0
3.37739,-1.85803,0.559935,0
3.41586,-1.79765,0.556702,0
3.45298,-1.73659,0.553509,0
3.48876,-1.67491,0.550355,0
3.52318,-1.61267,0.547269,0
3.55624,-1.54982,0.544222,0
3.58793,-1.48642,0.541204,0
3.61588,-1.42122,0.537073,0
3.64158,-1.35523,0.532591,0
3.66582,-1.28893,0.528177,0
3.6886,-1.2223,0.523782,0
3.70993,-1.15544,0.519466,0
3.72981,-1.08831,0.515179,0
3.74824,-1.02097,0.51096,0
3.76523,-0.953428,0.50678,0
3.78077,-0.885742,0.502679,0
3.79465,-0.817822,0.498509,0
3.80695,-0.749805,0.494359,0
3.75315,0.378486,0.435911,0
3.74097,0.443223,0.432923,0
3.72748,0.507617,0.430032,0
3.71269,0.571689,0.427191,0
3.69661,0.63541,0.424417,0
3.67925,0.698711,0.421751,0
3.66061,0.76166,0.419114,0
3.6407,0.82418,0.416575,0
3.61953,0.88623,0.414124,0
3.59711,0.947852,0.411712,0
3.57239,1.00854,0.408939,0
3.54048,1.06608,0.403519,0
3.50759,1.12283,0.398216,0
3.47372,1.17873,0.393079,0
3.43891,1.23384,0.38805,0
3.40415,1.28865,0.383655,0
3.3689,1.34295,0.379613,0
3.33271,1.3965,0.375667,0
3.29557,1.44925,0.371878,0
3.2575,1.5012,0.368226,0
3.21852,1.55236,0.364691,0
3.17864,1.60269,0.361312,0
3.13691,1.65147,0.357542,0
3.09426,1.6993,0.35389,0
3.05077,1.74624,0.350355,0
3.00644,1.79229,0.346937,0
2.9613,1.83743,0.343646,0
2.91534,1.88162,0.340501,0
2.8686,1.92487,0.337484,0
2.82107,1.96722,0.334583,0
2.77278,2.00861,0.33181,0
2.72373,2.04904,0.329163,0
2.67395,2.08852,0.326654,0
2.62343,2.12702,0.324271,0
2.5722,2.16453,0.322025,0
2.52026,2.20108,0.319896,0
2.46763,2.23662,0.317904,0
2.41433,2.27115,0.316048,0
2.36035,2.30467,0.314329,0
2.53451,-2.59929,0.587581,0
2.59401,-2.55975,0.586575,0
2.65254,-2.51886,0.58553,0
2.71006,-2.47673,0.584476,0
2.76655,-2.43331,0.583382,0
2.82198,-2.38865,0.582249,0
2.87633,-2.34278,0.581087,0
2.92958,-2.29571,0.579896,0
2.98169,-2.24749,0.578675,0
3.03266,-2.19815,0.577435,0
3.08244,-2.14767,0.576136,0
3.13102,-2.09613,0.574847,0
3.17825,-2.04342,0.573431,0
3.22107,-1.98689,0.570111,0
3.26259,-1.9296,0.56682,0
3.30281,-1.8716,0.563568,0
3.34172,-1.81291,0.560364,0
3.37932,-1.75354,0.557191,0
3.41559,-1.69354,0.554075,0
3.45054,-1.63292,0.550989,0
3.48416,-1.5717,0.547952,0
3.51644,-1.5099,0.544954,0
3.54627,-1.44699,0.541458,0
3.57278,-1.38255,0.537015,0
3.59786,-1.31779,0.53264,0
3.62151,-1.25268,0.528284,0
3.64372,-1.1873,0.524017,0
3.6645,-1.12161,0.519749,0
3.68385,-1.05571,0.51556,0
3.70179,-0.9896,0.511419,0
3.71826,-0.923281,0.507327,0
3.73302,-0.856709,0.503138,0
3.74635,-0.79002,0.499017,0
3.75826,-0.723223,0.494925,0
3.76875,-0.656357,0.490911,0
3.77783,-0.589424,0.486927,0
3.7855,-0.52248,0.483021,0
3.79177,-0.455527,0.479163,0
3.79664,-0.388604,0.475364,0
3.80012,-0.321719,0.471624,0
3.80222,-0.254902,0.467952,0
3.80294,-0.188174,0.464329,0
3.80228,-0.121572,0.460775,0
3.80026,-0.0551172,0.457298,0
3.79688,0.0112109,0.453861,0
3.79214,0.077334,0.450501,0
3.78606,0.143281,0.4472,0
3.77864,0.208984,0.443978,0
3.76989,0.274443,0.440814,0
3.75981,0.339629,0.437737,0
3.74841,0.404551,0.43471,0
3.7357,0.46915,0.431751,0
3.72169,0.533418,0.42888,0
3.70638,0.597354,0.426068,0
3.68978,0.660928,0.423323,0
3.67191,0.724082,0.420677,0
3.65275,0.786855,0.418089,0
3.63234,0.84918,0.415579,0
3.61066,0.911074,0.413138,0
3.58774,0.97249,0.410775,0
3.55968,1.03177,0.406751,0
3.52737,1.089,0.401361,0
3.49408,1.1454,0.396136,0
3.45984,1.20099,0.391038,0
3.42477,1.25582,0.386136,0
3.39009,1.31059,0.382005,0
3.35446,1.36459,0.378001,0
3.31788,1.4178,0.374134,0
3.28037,1.47023,0.370394,0
3.24194,1.52187,0.36678,0
3.20259,1.57271,0.363304,0
3.162,1.62244,0.359788,0
3.11986,1.67081,0.356058,0
3.07687,1.71829,0.352454,0
3.03305,1.76486,0.348968,0
2.98839,1.81055,0.345599,0
2.94291,1.8553,0.342366,0
2.89664,1.89913,0.339271,0
2.84958,1.94201,0.336302,0
2.80174,1.98397,0.33345,0
2.75315,2.02499,0.330726,0
2.7038,2.06502,0.328148,0
2.65372,2.1041,0.325687,0
2.60291,2.14223,0.323353,0
2.5514,2.17934,0.321165,0
2.49918,2.2155,0.319085,0
2.44628,2.25062,0.317152,0
2.3927,2.28477,0.315335,0
2.49848,-2.62229,0.588157,0
2.55856,-2.58355,0.587181,0
2.61767,-2.54346,0.586155,0
2.67579,-2.50209,0.58512,0
2.7329,-2.45941,0.584036,0
2.78897,-2.41549,0.582923,0
2.84397,-2.37034,0.58178,0
2.89788,-2.32398,0.580599,0
2.95067,-2.27646,0.579407,0
3.00232,-2.22778,0.578177,0
3.05281,-2.17799,0.576917,0
3.10212,-2.12708,0.575628,0
3.15021,-2.07512,0.57431,0
3.19562,-2.02079,0.572103,0
3.23792,-1.96395,0.568782,0
3.27892,-1.90637,0.565511,0
3.31861,-1.84808,0.562279,0
3.357,-1.78912,0.559095,0
3.39406,-1.7295,0.555941,0
3.42981,-1.66924,0.552835,0
3.46422,-1.60836,0.549759,0
3.4973,-1.54693,0.546751,0
3.52904,-1.48492,0.543773,0
3.5571,-1.42112,0.539661,0
3.58304,-1.35655,0.535247,0
3.60754,-1.29163,0.530882,0
3.63061,-1.22643,0.526566,0
3.65224,-1.16092,0.522288,0
3.67245,-1.09516,0.51807,0
3.69124,-1.02917,0.5139,0
3.7086,-0.962969,0.509788,0
3.72437,-0.896553,0.505648,0
3.73855,-0.829912,0.501468,0
3.75131,-0.763164,0.497357,0
3.76265,-0.696348,0.493304,0
3.77257,-0.629443,0.4893,0
3.78109,-0.5625,0.485345,0
3.78819,-0.495557,0.481458,0
3.7939,-0.428613,0.47762,0
3.79821,-0.361699,0.473851,0
3.80113,-0.294834,0.47013,0
3.80267,-0.228066,0.466487,0
3.80284,-0.161377,0.462894,0
3.80163,-0.0948242,0.459359,0
3.79906,-0.0284277,0.455902,0
3.79513,0.0378223,0.452503,0
3.78986,0.103877,0.449173,0
3.78324,0.169727,0.445892,0
3.77528,0.235342,0.442698,0
3.76599,0.300693,0.439573,0
3.75538,0.365771,0.436497,0
3.74346,0.430566,0.433509,0
3.73022,0.495039,0.430589,0
3.71569,0.55918,0.427738,0
3.69986,0.622959,0.424954,0
3.68275,0.686357,0.422259,0
3.66436,0.749375,0.419622,0
3.64469,0.811963,0.417073,0
3.62377,0.874131,0.414583,0
3.60159,0.93582,0.412191,0
3.57817,0.997061,0.409847,0
3.54681,1.05489,0.404564,0
3.5141,1.11177,0.399261,0
3.48043,1.16784,0.394085,0
3.4458,1.2231,0.389036,0
3.41094,1.27794,0.384456,0
3.37588,1.3324,0.380374,0
3.33987,1.38606,0.376439,0
3.30291,1.43897,0.372611,0
3.26503,1.49109,0.368929,0
3.22623,1.54241,0.365374,0
3.18652,1.5929,0.361956,0
3.14516,1.642,0.358275,0
3.10268,1.69,0.354603,0
3.05935,1.73714,0.351019,0
3.01519,1.78333,0.347611,0
2.9702,1.82866,0.34428,0
2.9244,1.87303,0.341116,0
2.87781,1.91649,0.33806,0
2.83044,1.95901,0.33513,0
2.78229,2.00059,0.332337,0
2.7334,2.0412,0.329671,0
2.68375,2.08085,0.327142,0
2.63338,2.11956,0.32473,0
2.58229,2.15727,0.322464,0
2.53048,2.19401,0.320296,0
2.47799,2.22975,0.318284,0
2.42482,2.26446,0.316409,0
2.37097,2.29819,0.314652,0
2.52275,-2.60688,0.587777,0
2.58244,-2.56759,0.586771,0
2.64116,-2.52696,0.585736,0
2.69887,-2.48508,0.584681,0
2.75557,-2.4419,0.583587,0
2.81121,-2.39748,0.582464,0
2.86578,-2.35185,0.581312,0
2.91924,-2.30502,0.58013,0
2.97158,-2.25705,0.578929,0
3.02277,-2.20789,0.577669,0
3.07279,-2.15765,0.5764,0
3.1216,-2.10632,0.575111,0
3.16921,-2.05392,0.573773,0
3.21279,-1.99801,0.570755,0
3.25456,-1.94087,0.567454,0
3.29504,-1.88301,0.564202,0
3.33421,-1.82446,0.560999,0
3.37206,-1.76521,0.557816,0
3.40859,-1.70533,0.554681,0
3.4438,-1.64482,0.551585,0
3.47769,-1.58373,0.548548,0
3.51023,-1.52206,0.54555,0
3.54091,-1.45955,0.542327,0
3.5677,-1.39521,0.537894,0
3.59306,-1.33047,0.53348,0
3.61699,-1.26546,0.529144,0
3.63948,-1.20012,0.524837,0
3.66054,-1.13451,0.520589,0
3.68018,-1.06864,0.51638,0
3.69839,-1.00259,0.512249,0
3.71518,-0.936299,0.508148,0
3.73025,-0.869766,0.503958,0
3.74385,-0.803096,0.499818,0
3.75604,-0.736309,0.495726,0
3.70504,0.371836,0.438245,0
3.69311,0.435449,0.435316,0
3.67989,0.49874,0.432464,0
3.66539,0.561699,0.429671,0
3.64962,0.624316,0.426937,0
3.63258,0.686553,0.42431,0
3.61429,0.748379,0.421741,0
3.59474,0.809824,0.419232,0
3.57395,0.87082,0.41681,0
3.55193,0.931357,0.414466,0
3.52868,0.991445,0.412191,0
3.4984,1.04847,0.407308,0
3.46616,1.10433,0.402083,0
3.43296,1.15937,0.397015,0
3.39881,1.21361,0.392073,0
3.36501,1.26776,0.387874,0
3.3304,1.32122,0.38388,0
3.29484,1.37391,0.380023,0
3.25836,1.42586,0.376273,0
3.22096,1.47699,0.372669,0
3.18265,1.52735,0.369202,0
3.14262,1.5763,0.365423,0
3.10158,1.62428,0.361683,0
3.05968,1.67135,0.358089,0
3.01694,1.71756,0.354603,0
2.97338,1.76288,0.351243,0
2.92901,1.80729,0.348021,0
2.88383,1.8508,0.344905,0
2.83788,1.89337,0.341946,0
2.79115,1.93505,0.339075,0
2.74366,1.97577,0.336351,0
2.69543,2.01556,0.333753,0
2.64647,2.05441,0.331273,0
2.59678,2.09229,0.328929,0
2.54639,2.12918,0.326732,0
2.4953,2.16514,0.324642,0
2.44353,2.20011,0.322669,0
2.39109,2.23407,0.320853,0
2.33799,2.26703,0.319154,0
2.50436,-2.54857,0.586302,0
2.56272,-2.50985,0.585316,0
2.62013,-2.46981,0.5843,0
2.67656,-2.42853,0.583255,0
2.73198,-2.38601,0.582181,0
2.78636,-2.34226,0.581077,0
2.83968,-2.29729,0.579925,0
2.89192,-2.2512,0.578773,0
2.94305,-2.20395,0.577571,0
2.99305,-2.15559,0.576351,0
3.0419,-2.10613,0.575091,0
3.08957,-2.05562,0.573821,0
3.13605,-2.00406,0.572503,0
3.18097,-1.95121,0.57098,0
3.22183,-1.89503,0.567747,0
3.26141,-1.83813,0.564554,0
3.29971,-1.78057,0.561409,0
3.33671,-1.72232,0.558304,0
3.37242,-1.66345,0.555228,0
3.40683,-1.60395,0.552191,0
3.43992,-1.54387,0.549212,0
3.4717,-1.48322,0.546273,0
3.49986,-1.42076,0.542181,0
3.52601,-1.35757,0.537825,0
3.55076,-1.29403,0.533519,0
3.5741,-1.23017,0.529261,0
3.59602,-1.166,0.525032,0
3.61655,-1.10158,0.520872,0
3.63567,-1.03688,0.516741,0
3.65325,-0.971943,0.512611,0
3.66926,-0.906758,0.50845,0
3.68387,-0.841416,0.504339,0
3.69707,-0.775957,0.500286,0
3.70887,-0.710361,0.496253,0
3.71927,-0.644717,0.492308,0
3.72828,-0.579004,0.488402,0
3.73591,-0.513271,0.484564,0
3.74216,-0.44752,0.480765,0
3.74703,-0.381787,0.477044,0
3.75053,-0.316113,0.473372,0
3.75267,-0.250479,0.469749,0
3.75346,-0.184922,0.466185,0
3.75288,-0.119473,0.462679,0
3.75097,-0.0541992,0.459271,0
3.74771,0.0109473,0.455902,0
3.74312,0.0759277,0.452601,0
3.7372,0.140723,0.449339,0
3.72996,0.205273,0.446175,0
3.72141,0.2696,0.44307,0
3.71156,0.333672,0.440023,0
3.7004,0.397461,0.437054,0
3.68795,0.460928,0.434163,0
3.67421,0.524111,0.431321,0
3.6592,0.586934,0.428558,0
3.64292,0.649375,0.425892,0
3.62538,0.711475,0.423255,0
3.60658,0.773145,0.420716,0
3.58653,0.834395,0.418265,0
3.56524,0.895205,0.415863,0
3.54272,0.955586,0.413538,0
3.51721,1.01471,0.410491,0
3.48555,1.07103,0.405198,0
3.45293,1.12654,0.400042,0
3.41934,1.18128,0.395013,0
3.38525,1.23544,0.390325,0
3.35121,1.28935,0.386253,0
3.31622,1.34249,0.382318,0
3.28029,1.39489,0.378499,0
3.24343,1.4465,0.374808,0
3.20566,1.49733,0.371263,0
3.16675,1.54721,0.367708,0
3.12622,1.59568,0.363909,0
3.08483,1.64331,0.360218,0
3.04259,1.69004,0.356673,0
2.99953,1.7359,0.353236,0
2.95563,1.78083,0.349935,0
2.91094,1.82487,0.346761,0
2.86545,1.86802,0.343695,0
2.81918,1.91023,0.340775,0
2.77214,1.95153,0.337962,0
2.72436,1.99187,0.335296,0
2.67583,2.0313,0.332738,0
2.62657,2.06974,0.330335,0
2.5766,2.10726,0.32803,0
2.52593,2.14376,0.325872,0
2.47457,2.17934,0.323821,0
2.42253,2.21387,0.321927,0
2.36982,2.24745,0.32015,0
2.46901,-2.57111,0.586868,0
2.52794,-2.53313,0.585892,0
2.58592,-2.4939,0.584905,0
2.64294,-2.45335,0.58387,0
2.69896,-2.41158,0.582835,0
2.75397,-2.36855,0.581741,0
2.80793,-2.32433,0.580628,0
2.86082,-2.27891,0.579466,0
2.91262,-2.23233,0.578284,0
2.96329,-2.18463,0.577083,0
3.01283,-2.13585,0.575862,0
3.06121,-2.08595,0.574583,0
3.10841,-2.03501,0.573294,0
3.1544,-1.98307,0.571995,0
3.19755,-1.92873,0.569691,0
3.2379,-1.87225,0.566458,0
3.27696,-1.81507,0.563284,0
3.31474,-1.75722,0.56015,0
3.35123,-1.69872,0.557064,0
3.38641,-1.63958,0.553997,0
3.42029,-1.57985,0.550999,0
3.45286,-1.51955,0.54803,0
3.48355,-1.45837,0.544818,0
3.51055,-1.3954,0.540433,0
3.53613,-1.33206,0.536087,0
3.56031,-1.2684,0.5318,0
3.58308,-1.20439,0.527552,0
3.60444,-1.14014,0.523363,0
3.6244,-1.07559,0.519202,0
3.64296,-1.01082,0.515101,0
3.65986,-0.945752,0.510931,0
3.6753,-0.880498,0.50679,0
3.68934,-0.815107,0.502698,0
3.70198,-0.74958,0.498646,0
3.71322,-0.683975,0.494671,0
3.72306,-0.618311,0.490745,0
3.73152,-0.552578,0.486859,0
3.73859,-0.486836,0.48303,0
3.74429,-0.421084,0.479261,0
3.74861,-0.355361,0.47555,0
3.75156,-0.289697,0.471907,0
3.75315,-0.224111,0.468314,0
3.75339,-0.158594,0.464769,0
3.75227,-0.0932324,0.461312,0
3.74982,-0.0279687,0.457894,0
3.74602,0.0371094,0.454554,0
3.7409,0.102002,0.451282,0
3.73445,0.166689,0.44807,0
3.72668,0.231182,0.444905,0
3.71761,0.2954,0.441829,0
3.70722,0.359346,0.438831,0
3.69555,0.423018,0.435882,0
3.68258,0.486377,0.433001,0
3.66833,0.549404,0.430208,0
3.65281,0.61208,0.427484,0
3.63602,0.674385,0.424827,0
3.61797,0.736299,0.422239,0
3.59867,0.797822,0.41973,0
3.57812,0.858916,0.417278,0
3.55634,0.919551,0.414915,0
3.53332,0.979717,0.41263,0
3.5046,1.03743,0.408353,0
3.47255,1.09345,0.403109,0
3.43954,1.14865,0.398001,0
3.40557,1.20307,0.393021,0
3.37168,1.2572,0.388675,0
3.33725,1.31081,0.384652,0
3.30188,1.36367,0.380755,0
3.26558,1.41573,0.377005,0
3.22835,1.46703,0.373372,0
3.19022,1.51756,0.369866,0
3.15056,1.56681,0.366165,0
3.10968,1.61493,0.362425,0
3.06795,1.66219,0.358792,0
3.02538,1.70856,0.355286,0
2.98197,1.75406,0.351907,0
2.93776,1.79865,0.348646,0
2.89274,1.84233,0.345521,0
2.84694,1.88511,0.342513,0
2.80036,1.92696,0.339632,0
2.75302,1.96787,0.336878,0
2.70493,2.00785,0.334251,0
2.65611,2.04688,0.331741,0
2.60657,2.08493,0.329388,0
2.55631,2.12206,0.327132,0
2.50536,2.1582,0.325023,0
2.45372,2.19333,0.32305,0
2.40141,2.22749,0.321204,0
2.34844,2.26066,0.319466,0
2.49282,-2.55601,0.586478,0
2.55137,-2.51753,0.585511,0
2.60897,-2.47776,0.584505,0
2.66558,-2.43672,0.58347,0
2.7212,-2.39442,0.582386,0
2.7758,-2.35092,0.581292,0
2.82933,-2.30621,0.580169,0
2.88178,-2.26031,0.578997,0
2.93313,-2.21329,0.577806,0
2.98335,-2.16515,0.576595,0
3.03243,-2.11589,0.575335,0
3.08033,-2.06559,0.574066,0
3.12705,-2.01424,0.572767,0
3.17255,-1.96188,0.571448,0
3.21393,-1.9061,0.568382,0
3.25376,-1.84934,0.565179,0
3.29231,-1.79188,0.562015,0
3.32957,-1.73376,0.55889,0
3.36553,-1.67502,0.555823,0
3.40019,-1.61563,0.552786,0
3.43354,-1.55566,0.549788,0
3.46558,-1.49513,0.546829,0
3.49457,-1.4331,0.54305,0
3.521,-1.36996,0.538675,0
3.54602,-1.30648,0.534349,0
3.56964,-1.24271,0.530091,0
3.59184,-1.17859,0.525863,0
3.61264,-1.11421,0.521673,0
3.63203,-1.04956,0.517542,0
3.64995,-0.984688,0.513431,0
3.66624,-0.919521,0.509251,0
3.68112,-0.854219,0.50514,0
3.69459,-0.78877,0.501068,0
3.70667,-0.723213,0.497044,0
3.65831,0.365361,0.44053,0
3.64662,0.427891,0.43764,0
3.63366,0.490107,0.434827,0
3.61944,0.551982,0.432093,0
3.60397,0.613545,0.429398,0
3.58725,0.674727,0.4268,0
3.56928,0.735498,0.42428,0
3.55009,0.795879,0.42182,0
3.52967,0.85584,0.419427,0
3.50803,0.915352,0.417122,0
3.48518,0.974404,0.414886,0
3.45745,1.03135,0.410989,0
3.42584,1.08632,0.405853,0
3.39328,1.14051,0.400862,0
3.35995,1.19403,0.396058,0
3.3269,1.24741,0.391986,0
3.2929,1.30005,0.38805,0
3.25797,1.35192,0.384251,0
3.22212,1.40305,0.38057,0
3.18536,1.45342,0.377015,0
3.14699,1.50249,0.373206,0
3.10752,1.55057,0.369407,0
3.06719,1.59778,0.365736,0
3.02602,1.64413,0.362191,0
2.98401,1.6896,0.358773,0
2.9412,1.73424,0.355443,0
2.89757,1.77794,0.352279,0
2.85316,1.82078,0.349202,0
2.80797,1.8627,0.346282,0
2.76202,1.90372,0.34346,0
2.71532,1.94379,0.340784,0
2.66788,1.98297,0.338216,0
2.61971,2.0212,0.335775,0
2.57084,2.05847,0.33347,0
2.52126,2.0948,0.331292,0
2.471,2.13016,0.329241,0
2.42007,2.16454,0.327318,0
2.36847,2.19796,0.325521,0
2.31622,2.23039,0.323841,0
2.47518,-2.49952,0.585052,0
2.53245,-2.46157,0.584085,0
2.58878,-2.42237,0.583109,0
2.64415,-2.38189,0.582064,0
2.69853,-2.34021,0.581009,0
2.7519,-2.29735,0.579935,0
2.80422,-2.25331,0.578821,0
2.85549,-2.20812,0.577669,0
2.90567,-2.16181,0.576497,0
2.95474,-2.11439,0.575296,0
3.00268,-2.06594,0.574085,0
3.04947,-2.01641,0.572825,0
3.09508,-1.96588,0.571546,0
3.13951,-1.91434,0.570238,0
3.18228,-1.86151,0.568665,0
3.22124,-1.80566,0.565511,0
3.25893,-1.74916,0.562405,0
3.29536,-1.69202,0.559368,0
3.33052,-1.63422,0.556341,0
3.36439,-1.57582,0.553372,0
3.39697,-1.51685,0.550433,0
3.42765,-1.45693,0.54721,0
3.45484,-1.39532,0.542884,0
3.48065,-1.33332,0.538597,0
3.50506,-1.271,0.534378,0
3.5281,-1.20831,0.530179,0
3.54975,-1.14535,0.526038,0
3.57001,-1.08209,0.521927,0
3.58866,-1.01854,0.517777,0
3.60588,-0.954717,0.513636,0
3.62171,-0.890723,0.509544,0
3.63616,-0.826572,0.505501,0
3.64923,-0.762285,0.501507,0
3.66092,-0.69791,0.497571,0
3.67124,-0.633428,0.493675,0
3.68019,-0.568896,0.489847,0
3.68777,-0.504307,0.486048,0
3.694,-0.439736,0.482327,0
3.69887,-0.375176,0.478655,0
3.70239,-0.310635,0.475042,0
3.70457,-0.246162,0.471487,0
3.70541,-0.181768,0.468001,0
3.70491,-0.117471,0.464554,0
3.7031,-0.0533203,0.461185,0
3.69996,0.0107129,0.457864,0
3.6955,0.0745605,0.454632,0
3.68974,0.138223,0.451439,0
3.68268,0.20168,0.448314,0
3.67433,0.264883,0.445267,0
3.66468,0.327861,0.442269,0
3.65376,0.390557,0.439349,0
3.64156,0.452959,0.436487,0
3.62809,0.515039,0.433714,0
3.61337,0.576797,0.430989,0
3.59739,0.638174,0.428362,0
3.58017,0.699189,0.425794,0
3.56171,0.759824,0.423284,0
3.54202,0.820029,0.420862,0
3.52111,0.879814,0.418499,0
3.49899,0.93915,0.416214,0
3.47566,0.997998,0.414017,0
3.44485,1.05354,0.408909,0
3.41286,1.10821,0.403831,0
3.37992,1.16208,0.39889,0
3.34678,1.21557,0.394417,0
3.31334,1.26864,0.390404,0
3.27897,1.32099,0.386507,0
3.24367,1.37257,0.382757,0
3.20745,1.42339,0.379124,0
3.17017,1.47335,0.37553,0
3.13122,1.52192,0.371663,0
3.0914,1.56966,0.367913,0
3.05073,1.61651,0.3643,0
3.00923,1.66253,0.360794,0
2.96689,1.70767,0.357405,0
2.92375,1.75191,0.354154,0
2.87981,1.79526,0.351038,0
2.83508,1.83773,0.348021,0
2.78958,1.8793,0.34513,0
2.74333,1.91994,0.342376,0
2.69633,1.95967,0.33973,0
2.6486,1.99847,0.33721,0
2.60015,2.0363,0.334837,0
2.55099,2.07319,0.332581,0
2.50114,2.10914,0.330452,0
2.4506,2.14411,0.32845,0
2.3994,2.17812,0.326575,0
2.34754,2.21113,0.324827,0
2.44051,-2.52157,0.585599,0
2.49832,-2.4844,0.584661,0
2.55521,-2.44596,0.583695,0
2.61116,-2.40624,0.582689,0
2.66614,-2.3653,0.581663,0
2.72011,-2.32313,0.580589,0
2.77306,-2.27979,0.579486,0
2.82497,-2.23527,0.578362,0
2.8758,-2.18963,0.57721,0
2.92553,-2.14288,0.576029,0
2.97415,-2.09504,0.574818,0
3.02163,-2.04613,0.573577,0
3.06795,-1.99619,0.572308,0
3.11309,-1.94528,0.571038,0
3.15703,-1.89336,0.56972,0
3.19809,-1.83913,0.567396,0
3.23655,-1.78304,0.564271,0
3.27373,-1.72628,0.561195,0
3.30965,-1.66884,0.558138,0
3.34429,-1.61082,0.55514,0
3.37765,-1.55218,0.552181,0
3.40971,-1.49296,0.549261,0
3.43875,-1.43222,0.545472,0
3.46538,-1.37044,0.541155,0
3.49063,-1.30832,0.536907,0
3.51449,-1.24582,0.532679,0
3.53697,-1.18303,0.528509,0
3.55806,-1.11994,0.524378,0
3.5777,-1.05657,0.520267,0
3.59575,-0.992891,0.516107,0
3.61241,-0.928994,0.511976,0
3.62769,-0.864951,0.507913,0
3.64158,-0.800742,0.50389,0
3.6541,-0.736416,0.499925,0
3.66523,-0.671982,0.495999,0
3.675,-0.60749,0.492132,0
3.6834,-0.54292,0.488304,0
3.69044,-0.47834,0.484544,0
3.69612,-0.413789,0.480853,0
3.70044,-0.349219,0.4772,0
3.70343,-0.284697,0.473607,0
3.70506,-0.220254,0.470071,0
3.70537,-0.155889,0.466595,0
3.70434,-0.0916504,0.463187,0
3.70199,-0.0275586,0.459847,0
3.69832,0.036416,0.456556,0
3.69335,0.100205,0.453323,0
3.68706,0.16376,0.450179,0
3.67948,0.227119,0.447083,0
3.6706,0.290244,0.444046,0
3.66044,0.353105,0.441087,0
3.64901,0.415674,0.438187,0
3.6363,0.477949,0.435374,0
3.62233,0.539902,0.432611,0
3.6071,0.601504,0.429935,0
3.59062,0.662764,0.427308,0
3.5729,0.723633,0.424759,0
3.55394,0.784092,0.422298,0
3.53376,0.844131,0.419896,0
3.51236,0.90373,0.417571,0
3.48975,0.962861,0.415335,0
3.46352,1.02047,0.412025,0
3.4321,1.07562,0.406849,0
3.39973,1.12997,0.40182,0
3.36641,1.18354,0.396927,0
3.33345,1.23701,0.392786,0
3.29963,1.28979,0.388821,0
3.26489,1.34183,0.384984,0
3.22921,1.39311,0.381273,0
3.19263,1.4436,0.377708,0
3.15462,1.49298,0.373968,0
3.11532,1.54122,0.37014,0
3.07515,1.58859,0.366458,0
3.03414,1.63513,0.362874,0
2.99231,1.68078,0.359417,0
2.94964,1.72557,0.356087,0
2.90618,1.76945,0.352884,0
2.86192,1.81246,0.349798,0
2.81688,1.85456,0.346839,0
2.77108,1.89575,0.343997,0
2.72452,1.93603,0.341292,0
2.67722,1.97536,0.338714,0
2.6292,2.01378,0.336253,0
2.58047,2.05124,0.333919,0
2.53103,2.08775,0.331712,0
2.4809,2.12332,0.329632,0
2.43009,2.15791,0.327669,0
2.37862,2.1915,0.325853,0
2.3265,2.22412,0.324173,0
2.46386,-2.5068,0.585238,0
2.52131,-2.4691,0.58428,0
2.57783,-2.43015,0.583304,0
2.63338,-2.38992,0.582278,0
2.68796,-2.3485,0.581234,0
2.74153,-2.30584,0.58014,0
2.79406,-2.26204,0.579046,0
2.84554,-2.21705,0.577894,0
2.89593,-2.17098,0.576741,0
2.94522,-2.12379,0.57555,0
2.99338,-2.0755,0.57432,0
3.0404,-2.02619,0.573079,0
3.08625,-1.97586,0.57181,0
3.13091,-1.92452,0.570511,0
3.17435,-1.87223,0.569183,0
3.21371,-1.81666,0.566136,0
3.25165,-1.76028,0.563021,0
3.28833,-1.70326,0.559964,0
3.32373,-1.64558,0.556927,0
3.35786,-1.58729,0.553929,0
3.3907,-1.52843,0.550999,0
3.42217,-1.46896,0.54807,0
3.44963,-1.40742,0.543734,0
3.4757,-1.34551,0.539446,0
3.50039,-1.28321,0.535189,0
3.52369,-1.22062,0.530999,0
3.54562,-1.1577,0.526849,0
3.56615,-1.09449,0.522728,0
3.58512,-1.03099,0.518587,0
3.60262,-0.967236,0.514446,0
3.61872,-0.903262,0.510335,0
3.63344,-0.839131,0.506282,0
3.64678,-0.774883,0.502288,0
3.65874,-0.710508,0.498333,0
3.61288,0.359102,0.442718,0
3.60143,0.420557,0.439886,0
3.58873,0.481728,0.437122,0
3.57478,0.542549,0.434427,0
3.55959,0.603066,0.43179,0
3.54318,0.663193,0.429241,0
3.52554,0.722969,0.426751,0
3.50668,0.782324,0.424339,0
3.48662,0.84126,0.421995,0
3.46536,0.899775,0.41972,0
3.44291,0.957822,0.417523,0
3.41758,1.01466,0.414583,0
3.38658,1.0688,0.409515,0
3.35464,1.12217,0.404583,0
3.32223,1.175,0.400013,0
3.28977,1.22756,0.396019,0
3.25637,1.2794,0.392122,0
3.22205,1.33048,0.388382,0
3.18681,1.38086,0.384739,0
3.15004,1.42999,0.380902,0
3.11212,1.47817,0.377025,0
3.07334,1.5255,0.373294,0
3.0337,1.57198,0.369671,0
2.99324,1.61763,0.366175,0
2.95195,1.66242,0.362796,0
2.90985,1.70634,0.359534,0
2.86696,1.74939,0.3564,0
2.82329,1.79156,0.353392,0
2.77885,1.83281,0.350511,0
2.73365,1.87319,0.347737,0
2.68771,1.91268,0.345081,0
2.64104,1.95121,0.342571,0
2.59366,1.98884,0.340159,0
2.54557,2.02554,0.337894,0
2.49679,2.06129,0.335745,0
2.44733,2.09608,0.333734,0
2.39721,2.12993,0.331839,0
2.34643,2.1628,0.330071,0
2.29502,2.19471,0.328421,0
2.44695,-2.45204,0.583851,0
2.50315,-2.41486,0.582913,0
2.55844,-2.37643,0.581937,0
2.61278,-2.33679,0.580941,0
2.66615,-2.29595,0.579905,0
2.71853,-2.25391,0.578831,0
2.7699,-2.21072,0.577738,0
2.82022,-2.16643,0.576624,0
2.86947,-2.12104,0.575482,0
2.91764,-2.07454,0.5743,0
2.96471,-2.02701,0.573099,0
3.01064,-1.97845,0.571868,0
3.05542,-1.9289,0.570618,0
3.09903,-1.87837,0.569339,0
3.14145,-1.82689,0.56804,0
3.18223,-1.77414,0.566448,0
3.21934,-1.71869,0.563402,0
3.2552,-1.66259,0.560394,0
3.28982,-1.60584,0.557425,0
3.32317,-1.54851,0.554505,0
3.35526,-1.4906,0.551614,0
3.38433,-1.43109,0.547816,0
3.41115,-1.37065,0.543577,0
3.43661,-1.3098,0.539368,0
3.46071,-1.24862,0.535208,0
3.48344,-1.18712,0.531097,0
3.50472,-1.12524,0.526956,0
3.52448,-1.06307,0.522816,0
3.54287,-1.00063,0.518695,0
3.55989,-0.937988,0.514632,0
3.57555,-0.875166,0.510609,0
3.58985,-0.812178,0.506644,0
3.60278,-0.749023,0.502708,0
3.61436,-0.685801,0.498841,0
3.62459,-0.622451,0.495003,0
3.63347,-0.559062,0.491234,0
3.64101,-0.495635,0.487513,0
3.64721,-0.432187,0.483851,0
3.65208,-0.36875,0.480237,0
3.65561,-0.305332,0.476673,0
3.65783,-0.241973,0.473187,0
3.65872,-0.178691,0.469749,0
3.65831,-0.115518,0.46637,0
3.65658,-0.0524512,0.46305,0
3.65356,0.0104785,0.459788,0
3.64924,0.0732324,0.456605,0
3.64363,0.135811,0.45346,0
3.63673,0.198154,0.450404,0
3.62857,0.260312,0.447396,0
3.61913,0.322236,0.444437,0
3.60843,0.383857,0.441566,0
3.59647,0.445195,0.438763,0
3.58327,0.506221,0.436038,0
3.56882,0.566924,0.433362,0
3.55314,0.627275,0.430765,0
3.53623,0.687285,0.428226,0
3.5181,0.746875,0.425775,0
3.49876,0.806084,0.423382,0
3.47822,0.864854,0.421068,0
3.45647,0.923174,0.418821,0
3.43354,0.981035,0.416654,0
3.40523,1.03652,0.412523,0
3.37385,1.09033,0.407532,0
3.34154,1.14342,0.40263,0
3.3093,1.19623,0.398392,0
3.27645,1.24849,0.394437,0
3.24268,1.30004,0.390599,0
3.20799,1.35083,0.386898,0
3.17229,1.40081,0.383265,0
3.13489,1.44947,0.379329,0
3.09663,1.4973,0.375511,0
3.0575,1.5443,0.371829,0
3.01753,1.59046,0.368245,0
2.97673,1.63573,0.364808,0
2.93512,1.68018,0.361478,0
2.8927,1.72377,0.358255,0
2.84949,1.76646,0.355169,0
2.80551,1.80825,0.35222,0
2.76076,1.84916,0.349378,0
2.71526,1.88918,0.346654,0
2.66903,1.92827,0.344066,0
2.62207,1.96646,0.341575,0
2.5744,2.0037,0.339241,0
2.52604,2.04003,0.337015,0
2.47698,2.0754,0.334915,0
2.42726,2.1098,0.332952,0
2.37687,2.14326,0.331097,0
2.32584,2.17575,0.329388,0
2.41292,-2.47366,0.584398,0
2.46966,-2.43724,0.58348,0
2.52549,-2.39955,0.582523,0
2.5804,-2.36063,0.581536,0
2.63436,-2.3205,0.580521,0
2.68733,-2.27917,0.579476,0
2.73931,-2.23667,0.578392,0
2.79026,-2.19305,0.577298,0
2.84015,-2.14831,0.576175,0
2.88897,-2.10246,0.575003,0
2.9367,-2.05557,0.573831,0
2.98331,-2.00761,0.572611,0
3.02878,-1.95865,0.57137,0
3.0731,-1.9087,0.570111,0
3.11623,-1.85775,0.568802,0
3.15817,-1.80591,0.567493,0
3.1973,-1.75193,0.565218,0
3.23391,-1.69618,0.562171,0
3.26927,-1.63984,0.559202,0
3.30338,-1.58285,0.556243,0
3.33623,-1.52527,0.553323,0
3.36765,-1.46704,0.550374,0
3.39528,-1.40683,0.546107,0
3.42156,-1.34622,0.541878,0
3.44646,-1.28525,0.537698,0
3.47001,-1.22393,0.533548,0
3.4922,-1.16229,0.529446,0
3.51283,-1.10027,0.525286,0
3.53204,-1.03799,0.521155,0
3.54988,-0.975459,0.517054,0
3.56635,-0.912744,0.513001,0
3.58146,-0.849834,0.508987,0
3.59521,-0.786787,0.505042,0
3.6076,-0.723613,0.501146,0
3.61864,-0.660322,0.497279,0
3.62833,-0.596973,0.49348,0
3.63667,-0.533564,0.48973,0
3.64367,-0.470127,0.486029,0
3.64933,-0.40667,0.482386,0
3.65366,-0.343242,0.478802,0
3.65666,-0.279863,0.475277,0
3.65835,-0.216523,0.47179,0
3.65871,-0.153281,0.468382,0
3.65777,-0.0901465,0.465032,0
3.65552,-0.0271289,0.461732,0
3.65197,0.0357227,0.458509,0
3.64714,0.0984082,0.455335,0
3.64101,0.160918,0.45222,0
3.6336,0.223213,0.449163,0
3.62492,0.285244,0.446195,0
3.61498,0.347031,0.443294,0
3.60377,0.408555,0.440433,0
3.59131,0.469766,0.437669,0
3.57761,0.530674,0.434945,0
3.56266,0.59125,0.432308,0
3.54649,0.651455,0.429739,0
3.52909,0.711299,0.42723,0
3.51047,0.770742,0.424798,0
3.49064,0.829756,0.422454,0
3.46962,0.88835,0.420169,0
3.4474,0.946484,0.417952,0
3.42353,1.00396,0.415589,0
3.39272,1.05826,0.410491,0
3.36097,1.11178,0.40554,0
3.32848,1.16462,0.400823,0
3.2962,1.21732,0.39679,0
3.26299,1.26931,0.392884,0
3.22884,1.32057,0.389085,0
3.19378,1.37104,0.385443,0
3.15736,1.42049,0.381654,0
3.11961,1.4688,0.377786,0
3.081,1.5163,0.374017,0
3.04153,1.56295,0.370384,0
3.00123,1.60876,0.366849,0
2.9601,1.65371,0.36345,0
2.91816,1.69781,0.360169,0
2.87542,1.74103,0.357005,0
2.8319,1.78337,0.353968,0
2.78761,1.82481,0.351048,0
2.74256,1.86535,0.348275,0
2.69676,1.90501,0.345589,0
2.65024,1.94375,0.34304,0
2.60299,1.98154,0.340628,0
2.55504,2.01843,0.338323,0
2.5064,2.05437,0.336155,0
2.45707,2.08935,0.334114,0
2.40708,2.12338,0.332191,0
2.35643,2.15644,0.330404,0
2.30513,2.18854,0.328734,0
2.43584,-2.45916,0.584027,0
2.49222,-2.42225,0.583099,0
2.54769,-2.38404,0.582122,0
2.60221,-2.34464,0.581126,0
2.65578,-2.30402,0.580101,0
2.70836,-2.26222,0.579046,0
2.75992,-2.2193,0.577972,0
2.81045,-2.1752,0.576849,0
2.85991,-2.13,0.575696,0
2.9083,-2.08373,0.574534,0
2.95558,-2.03639,0.573333,0
3.00173,-1.98804,0.572103,0
3.04674,-1.93868,0.570872,0
3.09058,-1.88832,0.569583,0
3.13324,-1.83703,0.568284,0
3.17469,-1.78483,0.566976,0
3.21217,-1.7296,0.563997,0
3.24828,-1.67363,0.560989,0
3.28314,-1.61699,0.558001,0
3.31674,-1.55979,0.555071,0
3.34908,-1.50196,0.552171,0
3.37892,-1.44289,0.548655,0
3.40601,-1.38251,0.544398,0
3.43173,-1.32176,0.540198,0
3.4561,-1.26063,0.536019,0
3.4791,-1.19917,0.531888,0
3.50069,-1.13739,0.527777,0
3.52072,-1.07526,0.523626,0
3.53938,-1.01286,0.519495,0
3.55667,-0.950264,0.515413,0
3.57259,-0.887451,0.51138,0
3.58715,-0.824512,0.507405,0
3.60036,-0.761396,0.50347,0
3.6122,-0.698193,0.499593,0
3.56871,0.353008,0.444857,0
3.55749,0.413408,0.442093,0
3.54503,0.473564,0.439359,0
3.53135,0.533389,0.436702,0
3.51644,0.592881,0.434114,0
3.50032,0.652012,0.431605,0
3.483,0.710781,0.429154,0
3.46447,0.769141,0.42679,0
3.44476,0.8271,0.424476,0
3.42386,0.884648,0.42223,0
3.40179,0.941699,0.420081,0
3.37855,0.998311,0.418001,0
3.34833,1.05171,0.413089,0
3.31699,1.10427,0.408236,0
3.28548,1.15648,0.403861,0
3.25359,1.20823,0.399925,0
3.22077,1.25928,0.396097,0
3.18703,1.30962,0.392386,0
3.1518,1.35881,0.388489,0
3.11541,1.40703,0.384583,0
3.07815,1.45447,0.380765,0
3.04004,1.50108,0.377073,0
3.00109,1.54687,0.373509,0
2.9613,1.59182,0.370062,0
2.92071,1.6359,0.366741,0
2.87932,1.67916,0.363529,0
2.83713,1.72155,0.360433,0
2.79418,1.76307,0.357474,0
2.75047,1.80371,0.354622,0
2.706,1.84347,0.351888,0
2.66081,1.88234,0.349271,0
2.61489,1.92029,0.3468,0
2.56827,1.95731,0.344446,0
2.52095,1.99345,0.3422,0
2.47294,2.02862,0.340091,0
2.42427,2.06288,0.338109,0
2.37494,2.09618,0.336243,0
2.32496,2.12854,0.334495,0
2.27435,2.15991,0.332884,0
2.4196,-2.40605,0.582689,0
2.47477,-2.36961,0.581761,0
2.52905,-2.33194,0.580814,0
2.58239,-2.29308,0.579837,0
2.63479,-2.25302,0.578812,0
2.68622,-2.21182,0.577777,0
2.73664,-2.16947,0.576702,0
2.78605,-2.12604,0.575599,0
2.83441,-2.0815,0.574476,0
2.88171,-2.03592,0.573323,0
2.92792,-1.98929,0.572132,0
2.97302,-1.94166,0.570931,0
3.01699,-1.89308,0.56971,0
3.05981,-1.8435,0.56846,0
3.10147,-1.793,0.567181,0
3.14194,-1.7416,0.565882,0
3.18087,-1.68906,0.564349,0
3.21619,-1.63397,0.56139,0
3.25027,-1.57826,0.55847,0
3.28312,-1.52194,0.555589,0
3.31448,-1.46493,0.55263,0
3.34227,-1.40601,0.548411,0
3.36873,-1.34666,0.544232,0
3.39385,-1.28697,0.540111,0
3.41761,-1.22688,0.536009,0
3.43984,-1.1664,0.531839,0
3.46071,-1.10561,0.527708,0
3.48023,-1.04457,0.523646,0
3.4984,-0.983242,0.519583,0
3.51523,-0.921719,0.515579,0
3.53071,-0.860029,0.511634,0
3.54485,-0.798154,0.507728,0
3.55766,-0.736143,0.50387,0
3.56913,-0.674043,0.500071,0
3.57927,-0.611807,0.496292,0
3.58808,-0.549531,0.492591,0
3.59557,-0.487197,0.488929,0
3.60174,-0.424854,0.485325,0
3.6066,-0.36251,0.48178,0
3.61015,-0.300195,0.478284,0
3.6124,-0.23792,0.474837,0
3.61334,-0.175723,0.471458,0
3.613,-0.113613,0.468138,0
3.61136,-0.0516211,0.464857,0
3.60844,0.0102441,0.461654,0
3.60425,0.0719336,0.458509,0
3.59879,0.133447,0.455433,0
3.59206,0.194766,0.452415,0
3.58407,0.255879,0.449456,0
3.57483,0.316729,0.446566,0
3.56435,0.377324,0.443743,0
3.55263,0.437637,0.44098,0
3.53968,0.497656,0.438284,0
3.5255,0.557344,0.435657,0
3.5101,0.616709,0.433089,0
3.4935,0.675693,0.430609,0
3.47569,0.734297,0.428187,0
3.45669,0.7925,0.425843,0
3.4365,0.850303,0.423558,0
3.41513,0.907627,0.42137,0
3.39259,0.964531,0.419222,0
3.36662,1.01991,0.416068,0
3.33584,1.07294,0.411116,0
3.30413,1.1252,0.406312,0
3.27277,1.17737,0.402269,0
3.2405,1.22887,0.398353,0
3.20731,1.27961,0.394593,0
3.17313,1.32959,0.390892,0
3.13727,1.37831,0.386898,0
3.10053,1.42621,0.38303,0
3.06293,1.47331,0.379271,0
3.02448,1.51959,0.375628,0
2.98519,1.56504,0.372112,0
2.94508,1.60965,0.368704,0
2.90416,1.65341,0.365433,0
2.86245,1.69632,0.362269,0
2.81995,1.73837,0.359212,0
2.77669,1.77952,0.356302,0
2.73268,1.81981,0.353499,0
2.68792,1.85921,0.350823,0
2.64243,1.8977,0.348265,0
2.59623,1.93528,0.345843,0
2.54932,1.97194,0.343538,0
2.50172,2.00771,0.341331,0
2.45345,2.04253,0.339271,0
2.40451,2.0764,0.337327,0
2.35492,2.10931,0.335521,0
2.30469,2.14127,0.333841,0
2.38619,-2.42724,0.583216,0
2.4419,-2.39154,0.582327,0
2.49671,-2.35459,0.58137,0
2.55061,-2.31646,0.580423,0
2.60358,-2.2771,0.579417,0
2.65559,-2.23659,0.578402,0
2.70661,-2.19492,0.577337,0
2.75663,-2.15215,0.576273,0
2.80562,-2.10825,0.57515,0
2.85356,-2.06331,0.574017,0
2.90042,-2.01731,0.572864,0
2.94619,-1.97026,0.571653,0
2.99083,-1.92224,0.570443,0
3.03435,-1.87325,0.569212,0
3.0767,-1.82328,0.567933,0
3.11789,-1.77244,0.566663,0
3.15787,-1.72067,0.565345,0
3.19522,-1.66698,0.563157,0
3.23004,-1.61164,0.560218,0
3.26363,-1.5557,0.557318,0
3.29597,-1.49914,0.554446,0
3.32581,-1.44129,0.550931,0
3.35307,-1.3822,0.546732,0
3.37899,-1.32271,0.542571,0
3.40357,-1.26285,0.53845,0
3.42671,-1.20259,0.53432,0
3.44839,-1.14198,0.530179,0
3.46872,-1.08109,0.526068,0
3.4877,-1.01993,0.522005,0
3.50533,-0.958535,0.517972,0
3.52161,-0.896953,0.513997,0
3.53656,-0.835166,0.510052,0
3.55016,-0.773242,0.506165,0
3.56243,-0.711182,0.502327,0
3.57337,-0.649023,0.498548,0
3.58297,-0.586777,0.494808,0
3.59125,-0.524453,0.491107,0
3.59821,-0.462119,0.487464,0
3.60386,-0.399785,0.48389,0
3.60819,-0.337432,0.480345,0
3.61121,-0.275127,0.476878,0
3.61293,-0.212891,0.47346,0
3.61336,-0.150723,0.470101,0
3.61249,-0.0886719,0.46681,0
3.61034,-0.0267285,0.463568,0
3.60691,0.0350684,0.460384,0
3.60221,0.0966992,0.457259,0
3.59623,0.158135,0.454212,0
3.589,0.219375,0.451214,0
3.58051,0.280381,0.448284,0
3.57077,0.341143,0.445404,0
3.55979,0.401602,0.44263,0
3.54757,0.461797,0.439896,0
3.53412,0.521699,0.43722,0
3.51945,0.58125,0.434622,0
3.50357,0.640459,0.432083,0
3.48648,0.699287,0.429632,0
3.46819,0.757754,0.427239,0
3.44871,0.815791,0.424915,0
3.42805,0.873408,0.422659,0
3.4062,0.930557,0.420501,0
3.38319,0.987266,0.418402,0
3.35436,1.04134,0.414056,0
3.3232,1.09404,0.409173,0
3.29161,1.14625,0.404661,0
3.2599,1.19815,0.400687,0
3.22727,1.24936,0.396829,0
3.19371,1.29982,0.393099,0
3.15882,1.34928,0.389271,0
3.1226,1.39768,0.385316,0
3.08552,1.44526,0.381487,0
3.04757,1.49201,0.377796,0
3.00878,1.53797,0.374202,0
2.96916,1.58307,0.370736,0
2.92872,1.62733,0.367386,0
2.88748,1.67075,0.364154,0
2.84545,1.71333,0.361029,0
2.80265,1.75502,0.35803,0
2.75908,1.79583,0.355159,0
2.71477,1.83575,0.352415,0
2.66971,1.87479,0.349779,0
2.62394,1.91293,0.347269,0
2.57745,1.95014,0.344896,0
2.53027,1.98645,0.34263,0
2.4824,2.02182,0.340491,0
2.43385,2.05625,0.33848,0
2.38465,2.08976,0.336575,0
2.3348,2.12228,0.334827,0
2.28431,2.15386,0.333187,0
2.4087,-2.41305,0.582864,0
2.46404,-2.37683,0.581937,0
2.51849,-2.33939,0.580999,0
2.57202,-2.30078,0.580032,0
2.62461,-2.26096,0.579017,0
2.67623,-2.21998,0.577982,0
2.72685,-2.17786,0.576917,0
2.77646,-2.13462,0.575814,0
2.82502,-2.09032,0.5747,0
2.87253,-2.04493,0.573548,0
2.91896,-1.9985,0.572366,0
2.96427,-1.95107,0.571175,0
3.00847,-1.90266,0.569954,0
3.05152,-1.85327,0.568695,0
3.0934,-1.80295,0.567425,0
3.13411,-1.75172,0.566126,0
3.17361,-1.69962,0.564818,0
3.20937,-1.64481,0.561966,0
3.2437,-1.58922,0.559046,0
3.27678,-1.53303,0.556155,0
3.30863,-1.47625,0.553314,0
3.33693,-1.41759,0.549241,0
3.36365,-1.35833,0.545062,0
3.38904,-1.29869,0.540921,0
3.41308,-1.23869,0.53681,0
3.43559,-1.17827,0.53265,0
3.45673,-1.11754,0.528529,0
3.47651,-1.05651,0.524417,0
3.49495,-0.995283,0.520384,0
3.51204,-0.933799,0.51637,0
3.52778,-0.872119,0.512405,0
3.54219,-0.810283,0.508489,0
3.55526,-0.748301,0.504622,0
3.56699,-0.686211,0.500814,0
3.52574,0.347061,0.446946,0
3.51474,0.406484,0.444212,0
3.50252,0.465625,0.441527,0
3.48909,0.524463,0.438919,0
3.47445,0.582949,0.43639,0
3.45862,0.641113,0.433909,0
3.4416,0.698916,0.431488,0
3.4234,0.756309,0.429163,0
3.40402,0.81332,0.426888,0
3.38348,0.869893,0.424691,0
3.36178,0.926016,0.422571,0
3.33893,0.981709,0.420501,0
3.31106,1.03506,0.416575,0
3.2803,1.08685,0.41178,0
3.24964,1.1384,0.40762,0
3.2183,1.18938,0.403734,0
3.18605,1.23968,0.399964,0
3.1523,1.28889,0.395989,0
3.11742,1.33717,0.392005,0
3.08167,1.38467,0.388157,0
3.04505,1.43139,0.384398,0
3.00759,1.47729,0.380765,0
2.9693,1.52237,0.377259,0
2.93018,1.56665,0.373851,0
2.89026,1.61009,0.37057,0
2.84955,1.65268,0.367405,0
2.80806,1.69443,0.364359,0
2.76581,1.73532,0.361429,0
2.7228,1.77533,0.358636,0
2.67906,1.81448,0.35595,0
2.63458,1.85275,0.353372,0
2.5894,1.89012,0.350931,0
2.54351,1.9266,0.348597,0
2.49694,1.96215,0.346409,0
2.44969,1.99681,0.34432,0
2.40179,2.03052,0.342357,0
2.35323,2.0633,0.340521,0
2.30403,2.09516,0.338802,0
2.25421,2.12604,0.33721,0
2.3931,-2.36149,0.581566,0
2.44727,-2.32576,0.580657,0
2.50056,-2.28882,0.57972,0
2.55295,-2.2507,0.578753,0
2.6044,-2.21143,0.577757,0
2.6549,-2.17102,0.576732,0
2.70441,-2.1295,0.575696,0
2.75293,-2.08687,0.574612,0
2.80042,-2.04321,0.573509,0
2.84687,-1.99849,0.572376,0
2.89225,-1.95274,0.571214,0
2.93655,-1.90604,0.570042,0
2.97973,-1.85833,0.568831,0
3.02179,-1.80969,0.567591,0
3.06271,-1.76016,0.566361,0
3.10246,-1.7097,0.565062,0
3.14102,-1.6584,0.563773,0
3.17826,-1.60617,0.562366,0
3.21182,-1.55146,0.559495,0
3.24417,-1.49614,0.556663,0
