46.4963,-35.4516,0.13638,0
46.5436,-35.3956,0.134544,0
46.5896,-35.3386,0.132796,0
46.6344,-35.2806,0.131116,0
46.6777,-35.2217,0.129534,0
46.7198,-35.1618,0.12803,0
46.7606,-35.101,0.126605,0
46.8,-35.0393,0.125277,0
46.838,-34.9768,0.124017,0
46.8746,-34.9135,0.122845,0
46.9098,-34.8494,0.121771,0
46.9435,-34.7845,0.120775,0
46.9759,-34.7189,0.119866,0
47.0067,-34.6526,0.119046,0
47.036,-34.5856,0.118314,0
47.064,-34.518,0.117669,0
47.0903,-34.4498,0.117113,0
47.1152,-34.381,0.116644,0
47.1385,-34.3117,0.116273,0
47.1604,-34.2419,0.11598,0
47.1806,-34.1717,0.115784,0
47.1993,-34.1009,0.115667,0
47.2164,-34.0298,0.115648,0
47.232,-33.9583,0.115726,0
47.2459,-33.8865,0.115882,0
42.1691,-35.8403,0.325687,0
42.2265,-35.886,0.323763,0
42.2849,-35.9305,0.32182,0
42.3445,-35.9736,0.319857,0
42.4048,-36.0153,0.317864,0
42.4662,-36.0557,0.315863,0
42.5285,-36.095,0.313958,0
42.5916,-36.1328,0.312044,0
42.6559,-36.1688,0.309915,0
42.7212,-36.2026,0.307435,0
42.788,-36.2334,0.30428,0
42.8555,-36.2627,0.301116,0
42.9236,-36.2904,0.297913,0
42.9924,-36.3165,0.29471,0
43.0617,-36.341,0.291487,0
43.1314,-36.3638,0.288255,0
43.2018,-36.385,0.285003,0
43.2725,-36.4046,0.281761,0
43.3437,-36.4225,0.278489,0
43.4152,-36.4388,0.275218,0
43.487,-36.4534,0.271946,0
43.5592,-36.4663,0.268665,0
43.6316,-36.4775,0.265394,0
43.7043,-36.487,0.262112,0
43.7771,-36.4949,0.258841,0
43.85,-36.501,0.255579,0
43.923,-36.5055,0.252318,0
43.9962,-36.5083,0.249056,0
44.0693,-36.5094,0.245814,0
44.1424,-36.5088,0.242581,0
44.2154,-36.5065,0.239368,0
44.2884,-36.5025,0.236165,0
44.3612,-36.4968,0.232972,0
44.4338,-36.4895,0.229808,0
44.5062,-36.4804,0.226654,0
44.5784,-36.4698,0.223529,0
44.6502,-36.4574,0.220423,0
44.7218,-36.4434,0.217347,0
44.793,-36.4278,0.2143,0
44.8638,-36.4105,0.211273,0
44.9341,-36.3917,0.208284,0
45.0039,-36.3712,0.205316,0
45.0733,-36.3491,0.202376,0
45.142,-36.3254,0.199495,0
45.2099,-36.2994,0.196331,0
45.277,-36.2712,0.192904,0
45.3433,-36.2415,0.189534,0
45.4087,-36.2103,0.186204,0
45.4734,-36.1776,0.182933,0
45.5374,-36.1435,0.17971,0
45.6005,-36.108,0.176546,0
45.6628,-36.0711,0.173431,0
45.7243,-36.0332,0.170521,0
45.785,-35.9941,0.167747,0
45.8448,-35.9536,0.165052,0
45.9037,-35.9119,0.162415,0
45.9616,-35.8689,0.159847,0
46.0185,-35.8246,0.157347,0
46.0743,-35.779,0.154915,0
46.1291,-35.7323,0.152571,0
46.1829,-35.6844,0.150286,0
46.2355,-35.6353,0.148079,0
46.287,-35.585,0.145941,0
46.3373,-35.5337,0.14389,0
46.3865,-35.4813,0.141907,0
46.4345,-35.4278,0.140003,0
46.4813,-35.3732,0.138177,0
46.5268,-35.3177,0.136429,0
46.5711,-35.2612,0.134769,0
46.6141,-35.2037,0.133187,0
46.6559,-35.1453,0.131673,0
46.6962,-35.086,0.130257,0
46.7352,-35.0258,0.128919,0
46.773,-34.9648,0.127669,0
46.8093,-34.903,0.126497,0
46.8442,-34.8403,0.125404,0
46.8778,-34.777,0.124407,0
46.91,-34.7129,0.12348,0
46.9407,-34.6481,0.122659,0
46.9699,-34.5827,0.121907,0
46.9977,-34.5166,0.121243,0
47.0241,-34.4499,0.120677,0
47.0489,-34.3827,0.120189,0
47.0723,-34.3149,0.119788,0
47.0942,-34.2466,0.119476,0
47.1145,-34.1778,0.119251,0
47.1333,-34.1086,0.119114,0
47.1506,-34.039,0.119066,0
47.1663,-33.9691,0.119114,0
47.1805,-33.8987,0.119232,0
42.1219,-35.801,0.327279,0
42.1784,-35.8478,0.325374,0
42.2359,-35.8933,0.32345,0
42.2945,-35.9375,0.321497,0
42.3541,-35.9804,0.319534,0
42.4148,-36.022,0.317542,0
42.4763,-36.0622,0.31555,0
42.5387,-36.1012,0.313646,0
42.602,-36.1388,0.311732,0
42.6664,-36.1744,0.309544,0
42.732,-36.2077,0.306927,0
42.7989,-36.2383,0.303773,0
42.8665,-36.2673,0.300599,0
42.9347,-36.2947,0.297396,0
43.0035,-36.3206,0.294193,0
43.0729,-36.3448,0.29096,0
43.1428,-36.3674,0.287728,0
43.2132,-36.3883,0.284486,0
43.2841,-36.4076,0.281224,0
43.3553,-36.4253,0.277952,0
43.4268,-36.4412,0.274691,0
43.4987,-36.4556,0.271419,0
43.571,-36.4682,0.268138,0
43.6434,-36.4792,0.264866,0
43.7161,-36.4884,0.261585,0
43.789,-36.496,0.258314,0
43.8619,-36.5019,0.255042,0
43.9349,-36.5061,0.25178,0
44.008,-36.5086,0.248538,0
44.0811,-36.5094,0.245296,0
44.1542,-36.5085,0.242064,0
44.2273,-36.5059,0.238841,0
44.3002,-36.5017,0.235648,0
44.373,-36.4957,0.232454,0
44.4455,-36.4881,0.22929,0
44.5179,-36.4788,0.226146,0
44.5901,-36.4679,0.223021,0
44.6619,-36.4553,0.219925,0
44.7334,-36.441,0.216849,0
44.8045,-36.4251,0.213802,0
44.8752,-36.4076,0.210775,0
44.9454,-36.3884,0.207796,0
45.0152,-36.3677,0.204827,0
45.0845,-36.3454,0.201917,0
45.1532,-36.3214,0.199017,0
45.2209,-36.2949,0.195765,0
45.2877,-36.2665,0.192357,0
45.3539,-36.2365,0.188987,0
45.4193,-36.2051,0.185677,0
45.4839,-36.1722,0.182405,0
45.5477,-36.1379,0.179193,0
45.6107,-36.1021,0.176038,0
45.6727,-36.065,0.172933,0
45.7342,-36.0269,0.170071,0
45.7948,-35.9876,0.167308,0
45.8545,-35.947,0.164622,0
45.9132,-35.905,0.161995,0
45.9709,-35.8618,0.159437,0
46.0277,-35.8173,0.156956,0
46.0833,-35.7715,0.154534,0
46.1379,-35.7246,0.1522,0
46.1915,-35.6765,0.149925,0
46.2439,-35.6272,0.147728,0
46.2952,-35.5768,0.145609,0
46.3454,-35.5253,0.143568,0
46.3944,-35.4727,0.141595,0
46.4422,-35.419,0.1397,0
46.4888,-35.3643,0.137884,0
46.5341,-35.3086,0.136155,0
46.5782,-35.2519,0.134505,0
46.6209,-35.1943,0.132933,0
46.6625,-35.1357,0.131448,0
46.7027,-35.0763,0.130032,0
46.7415,-35.0159,0.128714,0
46.779,-34.9548,0.127464,0
46.8151,-34.8928,0.126312,0
46.8498,-34.8301,0.125237,0
46.8831,-34.7666,0.124241,0
46.9151,-34.7024,0.123343,0
46.9455,-34.6375,0.122523,0
46.9746,-34.572,0.1218,0
47.0021,-34.5058,0.121146,0
47.0282,-34.439,0.120589,0
47.0529,-34.3717,0.12012,0
47.076,-34.3038,0.119739,0
47.0976,-34.2355,0.119437,0
47.1177,-34.1666,0.119222,0
47.1362,-34.0974,0.119105,0
47.1533,-34.0277,0.119066,0
47.1688,-33.9577,0.119124,0
47.1827,-33.8873,0.119271,0
42.131,-35.8087,0.326976,0
42.1876,-35.8553,0.325062,0
42.2454,-35.9006,0.323128,0
42.3041,-35.9446,0.321185,0
42.3639,-35.9873,0.319202,0
42.4247,-36.0286,0.31722,0
42.4863,-36.0686,0.315247,0
42.5488,-36.1074,0.313343,0
42.6123,-36.1447,0.311419,0
42.6769,-36.18,0.309173,0
42.7428,-36.2128,0.306419,0
42.8098,-36.2431,0.303255,0
42.8776,-36.2719,0.300081,0
42.9459,-36.299,0.296888,0
43.0148,-36.3246,0.293665,0
43.0842,-36.3486,0.290433,0
43.1542,-36.3709,0.2872,0
43.2247,-36.3916,0.283958,0
43.2955,-36.4106,0.280696,0
43.3669,-36.428,0.277435,0
43.4385,-36.4437,0.274154,0
43.5105,-36.4577,0.270882,0
43.5827,-36.4701,0.267601,0
43.6552,-36.4808,0.264329,0
43.7279,-36.4898,0.261048,0
43.8007,-36.4971,0.257786,0
43.8737,-36.5027,0.254515,0
43.9468,-36.5066,0.251263,0
44.0199,-36.5088,0.248011,0
44.093,-36.5094,0.244769,0
44.1661,-36.5082,0.241536,0
44.2391,-36.5054,0.238333,0
44.312,-36.5008,0.23513,0
44.3848,-36.4946,0.231946,0
44.4573,-36.4867,0.228782,0
44.5297,-36.4772,0.225638,0
44.6017,-36.4659,0.222523,0
44.6735,-36.4531,0.219427,0
44.7449,-36.4385,0.216361,0
44.8159,-36.4224,0.213314,0
44.8866,-36.4046,0.210296,0
44.9568,-36.3852,0.207308,0
45.0264,-36.3642,0.204359,0
45.0956,-36.3416,0.201439,0
45.1643,-36.3174,0.198558,0
45.2318,-36.2904,0.195208,0
45.2985,-36.2617,0.19181,0
45.3646,-36.2315,0.18845,0
45.4298,-36.1999,0.18514,0
45.4944,-36.1667,0.181878,0
45.558,-36.1322,0.178675,0
45.6208,-36.0962,0.17553,0
45.6827,-36.0589,0.172435,0
45.7441,-36.0207,0.169622,0
45.8045,-35.9811,0.166868,0
45.864,-35.9402,0.164183,0
45.9226,-35.8981,0.161575,0
45.9802,-35.8546,0.159027,0
46.0366,-35.8099,0.156556,0
46.0923,-35.764,0.154154,0
46.1466,-35.7169,0.15182,0
46.2001,-35.6686,0.149564,0
46.2523,-35.6191,0.147376,0
46.3034,-35.5685,0.145267,0
46.3534,-35.5168,0.143245,0
46.4022,-35.464,0.141273,0
46.4498,-35.4102,0.139398,0
46.4963,-35.3553,0.137611,0
46.5413,-35.2995,0.135882,0
46.5852,-35.2426,0.134251,0
46.6278,-35.1848,0.132689,0
46.669,-35.1261,0.131214,0
46.709,-35.0665,0.129818,0
46.7477,-35.0061,0.128499,0
46.7849,-34.9448,0.127269,0
46.8208,-34.8827,0.126126,0
46.8553,-34.8199,0.125071,0
46.8884,-34.7563,0.124095,0
46.9201,-34.6919,0.123206,0
46.9503,-34.6269,0.122405,0
46.9791,-34.5613,0.121683,0
47.0065,-34.495,0.121048,0
47.0323,-34.4282,0.120511,0
47.0567,-34.3607,0.120052,0
47.0796,-34.2928,0.119671,0
47.1009,-34.2243,0.119398,0
47.1208,-34.1554,0.119202,0
47.1391,-34.0861,0.119095,0
47.1559,-34.0164,0.119075,0
47.1712,-33.9463,0.119144,0
47.1848,-33.8758,0.1193,0
42.208,-35.7908,0.324896,0
42.2643,-35.8356,0.323001,0
42.3216,-35.8791,0.321097,0
42.3798,-35.9213,0.319173,0
42.4391,-35.9622,0.31723,0
42.4994,-36.0018,0.315267,0
42.5605,-36.04,0.313284,0
42.6224,-36.0769,0.311341,0
42.6853,-36.1123,0.309339,0
42.7498,-36.1446,0.306536,0
42.8152,-36.1749,0.30345,0
42.8813,-36.2036,0.300345,0
42.948,-36.2308,0.29722,0
43.0154,-36.2563,0.294066,0
43.0833,-36.2803,0.290911,0
43.1516,-36.3028,0.287747,0
43.2205,-36.3236,0.284564,0
43.2898,-36.3428,0.28137,0
43.3596,-36.3603,0.278177,0
43.4296,-36.3763,0.274974,0
43.5,-36.3906,0.271771,0
43.5708,-36.4033,0.268558,0
43.6417,-36.4143,0.265345,0
43.7129,-36.4236,0.262132,0
43.7842,-36.4314,0.258929,0
43.8557,-36.4374,0.255726,0
43.9273,-36.4418,0.252532,0
43.9988,-36.4446,0.249349,0
44.0705,-36.4457,0.246165,0
44.1421,-36.4451,0.243001,0
44.2137,-36.4429,0.239847,0
44.2852,-36.439,0.236702,0
44.3566,-36.4334,0.233577,0
44.4277,-36.4263,0.230472,0
44.4987,-36.4174,0.227386,0
44.5694,-36.407,0.224329,0
44.6398,-36.3949,0.221282,0
44.7099,-36.3812,0.218265,0
44.7797,-36.3659,0.215277,0
44.8491,-36.349,0.212318,0
44.918,-36.3306,0.209378,0
44.9864,-36.3105,0.206468,0
45.0543,-36.2889,0.203597,0
45.1217,-36.2657,0.200755,0
45.1885,-36.2407,0.197855,0
45.2542,-36.2131,0.194495,0
45.3191,-36.184,0.191195,0
45.3834,-36.1535,0.187923,0
45.447,-36.1215,0.18472,0
45.5096,-36.0882,0.181556,0
45.5715,-36.0535,0.178489,0
45.6328,-36.0178,0.175638,0
45.6932,-35.9808,0.172855,0
45.7528,-35.9425,0.17014,0
45.8115,-35.9028,0.167493,0
45.8692,-35.8619,0.164896,0
45.926,-35.8198,0.162386,0
45.9818,-35.7763,0.159935,0
46.0365,-35.7317,0.157552,0
46.0903,-35.6859,0.155237,0
46.143,-35.639,0.153011,0
46.1946,-35.5908,0.150833,0
46.2452,-35.5416,0.148743,0
46.2945,-35.4912,0.146732,0
46.3428,-35.4398,0.144779,0
46.3898,-35.3874,0.142913,0
46.4358,-35.3339,0.141126,0
46.4804,-35.2795,0.139407,0
46.5238,-35.2241,0.137777,0
46.566,-35.1677,0.136224,0
46.607,-35.1104,0.134749,0
46.6466,-35.0523,0.133353,0
46.6848,-34.9933,0.132044,0
46.7219,-34.9334,0.130804,0
46.7575,-34.8728,0.129661,0
46.7918,-34.8114,0.128597,0
46.8247,-34.7493,0.127611,0
46.8563,-34.6864,0.126712,0
46.8864,-34.6229,0.125892,0
46.9151,-34.5587,0.125159,0
46.9423,-34.4939,0.124515,0
46.9682,-34.4285,0.123948,0
46.9926,-34.3626,0.12348,0
47.0155,-34.2961,0.123089,0
47.0369,-34.2291,0.122777,0
47.0569,-34.1617,0.122562,0
47.0752,-34.0938,0.122425,0
47.0922,-34.0256,0.122386,0
47.1076,-33.957,0.122415,0
47.1216,-33.888,0.122542,0
42.1617,-35.7523,0.326458,0
42.2171,-35.7981,0.324593,0
42.2736,-35.8427,0.322698,0
42.331,-35.886,0.320784,0
42.3895,-35.928,0.318851,0
42.4488,-35.9687,0.316907,0
42.5091,-36.0081,0.314935,0
42.5705,-36.046,0.312952,0
42.6325,-36.0828,0.311038,0
42.6956,-36.1179,0.308968,0
42.7603,-36.1497,0.306038,0
42.8259,-36.1797,0.302943,0
42.8921,-36.2081,0.299837,0
42.9589,-36.235,0.296712,0
43.0263,-36.2603,0.293558,0
43.0943,-36.2841,0.290404,0
43.1628,-36.3062,0.28723,0
43.2317,-36.3268,0.284056,0
43.3012,-36.3457,0.280853,0
43.3709,-36.363,0.277659,0
43.4411,-36.3787,0.274446,0
43.5115,-36.3928,0.271253,0
43.5822,-36.4052,0.26804,0
43.6533,-36.4159,0.264827,0
43.7245,-36.425,0.261614,0
43.7958,-36.4325,0.258411,0
43.8673,-36.4383,0.255208,0
43.9388,-36.4424,0.252015,0
44.0105,-36.4449,0.248831,0
44.0821,-36.4457,0.245648,0
44.1537,-36.4448,0.242484,0
44.2253,-36.4423,0.239339,0
44.2967,-36.4382,0.236204,0
44.368,-36.4324,0.233079,0
44.4391,-36.4249,0.229974,0
44.5102,-36.4158,0.226888,0
44.5808,-36.4051,0.223831,0
44.6512,-36.3928,0.220794,0
44.7212,-36.3789,0.217786,0
44.7909,-36.3633,0.214798,0
44.8602,-36.3462,0.211829,0
44.9291,-36.3274,0.208909,0
44.9974,-36.3071,0.206009,0
45.0653,-36.2852,0.203138,0
45.1327,-36.2618,0.200306,0
45.1992,-36.2364,0.197298,0
45.2648,-36.2085,0.193958,0
45.3296,-36.1792,0.190657,0
45.3937,-36.1484,0.187405,0
45.4571,-36.1162,0.184202,0
45.5197,-36.0826,0.181058,0
45.5815,-36.0478,0.178011,0
45.6427,-36.0119,0.175179,0
45.703,-35.9747,0.172415,0
45.7623,-35.9361,0.1697,0
45.8209,-35.8963,0.167064,0
45.8785,-35.8552,0.164486,0
45.9351,-35.8128,0.161976,0
45.9908,-35.7692,0.159544,0
46.0453,-35.7244,0.157171,0
46.099,-35.6784,0.154876,0
46.1514,-35.6312,0.15264,0
46.2029,-35.5829,0.150491,0
46.2532,-35.5335,0.148411,0
46.3024,-35.483,0.1464,0
46.3505,-35.4314,0.144476,0
46.3973,-35.3788,0.14262,0
46.443,-35.3252,0.140843,0
46.4876,-35.2705,0.139144,0
46.5308,-35.215,0.137523,0
46.5727,-35.1585,0.13598,0
46.6134,-35.1011,0.134525,0
46.6529,-35.0428,0.133138,0
46.6909,-34.9836,0.131829,0
46.7277,-34.9237,0.130618,0
46.7632,-34.8629,0.129486,0
46.7972,-34.8014,0.128431,0
46.8299,-34.7391,0.127464,0
46.8612,-34.6762,0.126566,0
46.8912,-34.6125,0.125775,0
46.9195,-34.5483,0.125052,0
46.9466,-34.4834,0.124417,0
46.9723,-34.4179,0.12387,0
46.9964,-34.3518,0.123411,0
47.019,-34.2853,0.12304,0
47.0402,-34.2183,0.122737,0
47.0599,-34.1508,0.122532,0
47.0781,-34.0828,0.122405,0
47.0948,-34.0145,0.122386,0
47.11,-33.9458,0.122435,0
47.1237,-33.8768,0.122571,0
42.1706,-35.7598,0.326146,0
42.2262,-35.8054,0.324271,0
42.2827,-35.8498,0.322386,0
42.3404,-35.8929,0.320482,0
42.3991,-35.9347,0.318548,0
42.4586,-35.9752,0.316595,0
42.5191,-36.0143,0.314622,0
42.5805,-36.0521,0.31263,0
42.6427,-36.0886,0.310726,0
42.7059,-36.1234,0.308616,0
42.7709,-36.1546,0.30554,0
42.8366,-36.1844,0.302445,0
42.9029,-36.2126,0.299329,0
42.9698,-36.2392,0.296195,0
43.0373,-36.2643,0.29305,0
43.1054,-36.2878,0.289886,0
43.174,-36.3097,0.286722,0
43.243,-36.33,0.283538,0
43.3123,-36.3486,0.280335,0
43.3823,-36.3657,0.277142,0
43.4525,-36.3811,0.273939,0
43.523,-36.3949,0.270726,0
43.5938,-36.407,0.267513,0
43.6648,-36.4175,0.26431,0
43.736,-36.4264,0.261107,0
43.8073,-36.4335,0.257884,0
43.8789,-36.439,0.254691,0
43.9505,-36.4429,0.251497,0
44.0221,-36.4451,0.248304,0
44.0937,-36.4456,0.24513,0
44.1653,-36.4445,0.241966,0
44.2369,-36.4418,0.238821,0
44.3084,-36.4374,0.235687,0
44.3796,-36.4313,0.232571,0
44.4507,-36.4236,0.229466,0
44.5216,-36.4142,0.2264,0
44.5923,-36.4033,0.223333,0
44.6626,-36.3907,0.220306,0
44.7326,-36.3764,0.217288,0
44.8022,-36.3606,0.21431,0
44.8714,-36.3432,0.211351,0
44.9402,-36.3242,0.208431,0
45.0085,-36.3037,0.20554,0
45.0762,-36.2815,0.202669,0
45.1435,-36.2579,0.199847,0
45.2098,-36.2319,0.196761,0
45.2753,-36.2038,0.193421,0
45.3401,-36.1743,0.19012,0
45.4041,-36.1433,0.186878,0
45.4673,-36.1109,0.183685,0
45.5297,-36.077,0.18054,0
45.5915,-36.042,0.177552,0
45.6524,-36.0059,0.17473,0
45.7127,-35.9685,0.171976,0
45.7719,-35.9298,0.169271,0
45.8303,-35.8897,0.166644,0
45.8877,-35.8484,0.164085,0
45.9441,-35.8058,0.161585,0
45.9997,-35.762,0.159144,0
46.0541,-35.717,0.15679,0
46.1076,-35.6708,0.154515,0
46.1598,-35.6235,0.152298,0
46.2112,-35.575,0.15015,0
46.2612,-35.5254,0.148079,0
46.3103,-35.4747,0.146087,0
46.3581,-35.4229,0.144163,0
46.4049,-35.3702,0.142327,0
46.4504,-35.3164,0.14056,0
46.4946,-35.2616,0.13888,0
46.5377,-35.2059,0.137259,0
46.5795,-35.1492,0.135736,0
46.6199,-35.0917,0.13429,0
46.6591,-35.0332,0.132913,0
46.697,-34.9739,0.131634,0
46.7336,-34.9139,0.130433,0
46.7687,-34.853,0.1293,0
46.8027,-34.7913,0.128255,0
46.8352,-34.729,0.127308,0
46.8662,-34.6659,0.126439,0
46.8958,-34.6021,0.125638,0
46.9241,-34.5378,0.124935,0
46.9509,-34.4728,0.124329,0
46.9762,-34.4072,0.123782,0
47.0002,-34.3411,0.123343,0
47.0226,-34.2744,0.122982,0
47.0435,-34.2073,0.122698,0
47.063,-34.1398,0.122513,0
47.0809,-34.0718,0.122405,0
47.0974,-34.0034,0.122386,0
47.1123,-33.9346,0.122454,0
47.1257,-33.8655,0.122601,0
42.2457,-35.7429,0.324114,0
42.3009,-35.7868,0.322278,0
42.357,-35.8295,0.320404,0
42.4141,-35.8708,0.318519,0
42.4723,-35.9109,0.316605,0
42.5313,-35.9497,0.314681,0
42.5912,-35.9871,0.312737,0
42.6521,-36.0232,0.310784,0
42.7139,-36.0576,0.308685,0
42.7773,-36.0887,0.305667,0
42.8415,-36.1184,0.30265,0
42.9062,-36.1465,0.299603,0
42.9716,-36.1732,0.296536,0
43.0376,-36.1983,0.29346,0
43.1041,-36.2218,0.290364,0
43.1712,-36.2438,0.287259,0
43.2387,-36.2642,0.284144,0
43.3066,-36.283,0.281019,0
43.3748,-36.3003,0.277874,0
43.4436,-36.3159,0.274739,0
43.5126,-36.33,0.271595,0
43.5819,-36.3424,0.26845,0
43.6514,-36.3532,0.265306,0
43.7212,-36.3624,0.262161,0
43.7911,-36.37,0.259007,0
43.8611,-36.376,0.255882,0
43.9312,-36.3803,0.252747,0
44.0014,-36.383,0.249622,0
44.0717,-36.3841,0.246507,0
44.1419,-36.3836,0.243402,0
44.212,-36.3814,0.240306,0
44.282,-36.3776,0.23723,0
44.352,-36.3722,0.234163,0
44.4217,-36.3652,0.231126,0
44.4913,-36.3566,0.228099,0
44.5606,-36.3464,0.225101,0
44.6297,-36.3345,0.222112,0
44.6984,-36.3211,0.219154,0
44.7668,-36.3062,0.216224,0
44.8348,-36.2896,0.213314,0
44.9023,-36.2715,0.210443,0
44.9695,-36.2519,0.207601,0
45.0361,-36.2307,0.204779,0
45.1021,-36.208,0.201995,0
45.1677,-36.1838,0.199251,0
45.2322,-36.157,0.196038,0
45.2959,-36.1285,0.192796,0
45.3589,-36.0986,0.189593,0
45.4212,-36.0673,0.186439,0
45.4828,-36.0349,0.18348,0
45.5438,-36.0013,0.180628,0
45.6039,-35.9664,0.177835,0
45.6631,-35.9301,0.175111,0
45.7216,-35.8925,0.172454,0
45.7792,-35.8537,0.169847,0
45.8358,-35.8136,0.167308,0
45.8916,-35.7722,0.164827,0
45.9462,-35.7297,0.162435,0
46,-35.686,0.160101,0
46.0527,-35.6411,0.157835,0
46.1045,-35.595,0.155628,0
46.1552,-35.5478,0.153509,0
46.2047,-35.4995,0.151448,0
46.2531,-35.4502,0.149466,0
46.3005,-35.3998,0.147562,0
46.3466,-35.3483,0.145736,0
46.3916,-35.2959,0.143968,0
46.4355,-35.2425,0.142298,0
46.4781,-35.1881,0.140687,0
46.5195,-35.1329,0.139163,0
46.5596,-35.0767,0.137718,0
46.5985,-35.0197,0.136351,0
46.6361,-34.9618,0.135052,0
46.6724,-34.9031,0.133851,0
46.7074,-34.8436,0.132718,0
46.741,-34.7834,0.131683,0
46.7733,-34.7225,0.130716,0
46.8042,-34.6608,0.129827,0
46.8337,-34.5985,0.129027,0
46.862,-34.5356,0.128304,0
46.8887,-34.472,0.127679,0
46.9141,-34.4079,0.127122,0
46.938,-34.3432,0.126663,0
46.9604,-34.278,0.126273,0
46.9815,-34.2123,0.12598,0
47.001,-34.1461,0.125765,0
47.0191,-34.0796,0.125628,0
47.0357,-34.0126,0.125579,0
47.0509,-33.9453,0.125628,0
47.0645,-33.8776,0.125745,0
42.2002,-35.7051,0.325648,0
42.2545,-35.7501,0.323821,0
42.3099,-35.7938,0.321976,0
42.3662,-35.8363,0.320101,0
42.4235,-35.8774,0.318206,0
42.4818,-35.9173,0.316292,0
42.541,-35.9558,0.314368,0
42.6011,-35.993,0.312415,0
42.662,-36.0289,0.310462,0
42.7241,-36.0627,0.308187,0
42.7877,-36.0936,0.305189,0
42.852,-36.1231,0.302152,0
42.9168,-36.151,0.299105,0
42.9823,-36.1773,0.296038,0
43.0484,-36.2022,0.292952,0
43.1149,-36.2255,0.289866,0
43.1821,-36.2472,0.286751,0
43.2496,-36.2674,0.283626,0
43.3177,-36.2859,0.280501,0
43.386,-36.3029,0.277366,0
43.4547,-36.3183,0.274232,0
43.5238,-36.3321,0.271087,0
43.5931,-36.3443,0.267943,0
43.6627,-36.3548,0.264798,0
43.7325,-36.3638,0.261644,0
43.8024,-36.3711,0.258499,0
43.8725,-36.3768,0.255364,0
43.9426,-36.3808,0.25223,0
44.0129,-36.3833,0.249114,0
44.083,-36.3841,0.245999,0
44.1533,-36.3833,0.242904,0
44.2234,-36.3809,0.239798,0
44.2934,-36.3768,0.236732,0
44.3634,-36.3712,0.233675,0
44.433,-36.3639,0.230628,0
44.5026,-36.355,0.227611,0
44.5719,-36.3446,0.224613,0
44.6409,-36.3325,0.221624,0
44.7095,-36.3188,0.218675,0
44.7779,-36.3036,0.215755,0
44.8458,-36.2868,0.212855,0
44.9133,-36.2685,0.209984,0
44.9803,-36.2486,0.207132,0
45.0469,-36.2271,0.20432,0
45.1128,-36.2042,0.201546,0
45.1783,-36.1797,0.198792,0
45.2426,-36.1524,0.195511,0
45.3062,-36.1237,0.192269,0
45.3691,-36.0936,0.189075,0
45.4312,-36.0621,0.185931,0
45.4927,-36.0296,0.183021,0
45.5535,-35.9957,0.180179,0
45.6135,-35.9606,0.177396,0
45.6727,-35.9241,0.174681,0
45.731,-35.8863,0.172025,0
45.7884,-35.8473,0.169427,0
45.8449,-35.807,0.166898,0
45.9005,-35.7654,0.164437,0
45.955,-35.7227,0.162044,0
46.0086,-35.6787,0.15972,0
46.0612,-35.6336,0.157464,0
46.1127,-35.5874,0.155286,0
46.1633,-35.54,0.153167,0
46.2127,-35.4916,0.151126,0
46.2609,-35.4421,0.149163,0
46.308,-35.3915,0.147259,0
46.354,-35.3399,0.145443,0
46.3989,-35.2873,0.143695,0
46.4425,-35.2337,0.142025,0
46.4849,-35.1792,0.140433,0
46.5261,-35.1238,0.138919,0
46.566,-35.0675,0.137484,0
46.6047,-35.0103,0.136136,0
46.6421,-34.9523,0.134857,0
46.6781,-34.8935,0.133665,0
46.7129,-34.8339,0.132552,0
46.7464,-34.7736,0.131517,0
46.7784,-34.7125,0.13056,0
46.8091,-34.6508,0.129691,0
46.8384,-34.5883,0.128909,0
46.8664,-34.5253,0.128196,0
46.893,-34.4616,0.127581,0
46.918,-34.3974,0.127044,0
46.9417,-34.3326,0.126595,0
46.964,-34.2673,0.126214,0
46.9847,-34.2016,0.125941,0
47.004,-34.1354,0.125736,0
47.0219,-34.0687,0.125618,0
47.0382,-34.0017,0.125579,0
47.0532,-33.9343,0.125638,0
47.0665,-33.8666,0.125775,0
42.209,-35.7125,0.325355,0
42.2634,-35.7573,0.323519,0
42.319,-35.8008,0.321663,0
42.3755,-35.843,0.319788,0
42.433,-35.884,0.317894,0
42.4914,-35.9236,0.31598,0
42.5507,-35.962,0.314056,0
42.6109,-35.9989,0.312113,0
42.672,-36.0346,0.31014,0
42.7344,-36.0678,0.307698,0
42.798,-36.0985,0.304691,0
42.8624,-36.1277,0.301663,0
42.9274,-36.1553,0.298607,0
42.993,-36.1815,0.29554,0
43.0591,-36.2061,0.292464,0
43.1258,-36.2291,0.289359,0
43.193,-36.2506,0.286253,0
43.2606,-36.2705,0.283128,0
43.3287,-36.2888,0.279993,0
43.3971,-36.3055,0.276868,0
43.4659,-36.3207,0.273724,0
43.535,-36.3342,0.27057,0
43.6044,-36.3461,0.267435,0
43.674,-36.3564,0.26429,0
43.7438,-36.3651,0.261146,0
43.8137,-36.3721,0.258001,0
43.8839,-36.3776,0.254857,0
43.954,-36.3814,0.251732,0
44.0243,-36.3835,0.248607,0
44.0945,-36.3841,0.245491,0
44.1647,-36.383,0.242396,0
44.2348,-36.3803,0.2393,0
44.3048,-36.376,0.236234,0
44.3746,-36.3701,0.233177,0
44.4444,-36.3626,0.23014,0
44.5138,-36.3534,0.227122,0
44.5831,-36.3427,0.224124,0
44.652,-36.3304,0.221155,0
44.7206,-36.3165,0.218206,0
44.7888,-36.301,0.215277,0
44.8567,-36.2839,0.212386,0
44.9242,-36.2653,0.209515,0
44.9912,-36.2452,0.206683,0
45.0576,-36.2235,0.20387,0
45.1234,-36.2003,0.201097,0
45.1887,-36.1754,0.198255,0
45.2529,-36.1479,0.194974,0
45.3164,-36.1189,0.191751,0
45.3792,-36.0886,0.188568,0
45.4412,-36.0569,0.185443,0
45.5027,-36.0242,0.182552,0
45.5634,-35.9901,0.17972,0
45.6232,-35.9547,0.176946,0
45.6823,-35.918,0.174241,0
45.7404,-35.8801,0.171595,0
45.7977,-35.8408,0.169017,0
45.854,-35.8003,0.166497,0
45.9094,-35.7586,0.164046,0
45.9638,-35.7156,0.161663,0
46.0172,-35.6715,0.159349,0
46.0696,-35.6262,0.157103,0
46.121,-35.5798,0.154925,0
46.1713,-35.5322,0.152825,0
46.2205,-35.4836,0.150794,0
46.2686,-35.4339,0.148841,0
46.3155,-35.3832,0.146966,0
46.3614,-35.3314,0.14515,0
46.406,-35.2787,0.143411,0
46.4495,-35.2249,0.141761,0
46.4917,-35.1703,0.140189,0
46.5327,-35.1147,0.138685,0
46.5723,-35.0583,0.137269,0
46.6109,-35.001,0.135921,0
46.648,-34.9428,0.134652,0
46.6839,-34.8839,0.13347,0
46.7184,-34.8242,0.132376,0
46.7516,-34.7637,0.131351,0
46.7834,-34.7025,0.130413,0
46.814,-34.6407,0.129564,0
46.8431,-34.5782,0.128792,0
46.8708,-34.515,0.128099,0
46.8971,-34.4512,0.127493,0
46.922,-34.3869,0.126956,0
46.9454,-34.3221,0.126517,0
46.9674,-34.2567,0.126165,0
46.988,-34.1909,0.125902,0
47.007,-34.1246,0.125706,0
47.0247,-34.0579,0.125609,0
47.0408,-33.9908,0.125589,0
47.0554,-33.9233,0.125657,0
47.0685,-33.8556,0.125804,0
42.2821,-35.6966,0.323372,0
42.3362,-35.7396,0.321556,0
42.3913,-35.7814,0.31973,0
42.4473,-35.822,0.317884,0
42.5044,-35.8613,0.316009,0
42.5623,-35.8993,0.314114,0
42.6211,-35.9359,0.31221,0
42.6807,-35.9713,0.310296,0
42.7416,-36.0046,0.308021,0
42.8038,-36.035,0.304993,0
42.8668,-36.0637,0.301868,0
42.9302,-36.0914,0.29889,0
42.9945,-36.1175,0.295882,0
43.0591,-36.1421,0.292864,0
43.1243,-36.1652,0.289827,0
43.19,-36.1868,0.28679,0
43.2561,-36.2068,0.283734,0
43.3227,-36.2253,0.280667,0
43.3898,-36.2422,0.277591,0
43.457,-36.2576,0.274515,0
43.5247,-36.2714,0.271429,0
43.5927,-36.2836,0.268353,0
43.6608,-36.2942,0.265257,0
43.7291,-36.3032,0.262171,0
43.7977,-36.3107,0.259095,0
43.8664,-36.3166,0.256019,0
43.9352,-36.3208,0.252943,0
44.004,-36.3235,0.249886,0
44.0728,-36.3246,0.246829,0
44.1416,-36.3241,0.243792,0
44.2104,-36.322,0.240755,0
44.2791,-36.3183,0.237737,0
44.3477,-36.313,0.234739,0
44.416,-36.3062,0.231751,0
44.4843,-36.2977,0.228782,0
44.5522,-36.2877,0.225843,0
44.6199,-36.2762,0.222913,0
44.6873,-36.263,0.220013,0
44.7543,-36.2484,0.217142,0
44.821,-36.2322,0.21429,0
44.8873,-36.2145,0.211468,0
44.953,-36.1952,0.208675,0
45.0184,-36.1745,0.205921,0
45.0832,-36.1522,0.203187,0
45.1475,-36.1285,0.200491,0
45.2109,-36.1026,0.197523,0
45.2734,-36.0748,0.194339,0
45.3352,-36.0456,0.191282,0
45.3966,-36.0154,0.188372,0
45.4571,-35.9838,0.185511,0
45.5169,-35.9508,0.182718,0
45.5759,-35.9166,0.179974,0
45.6341,-35.881,0.177288,0
45.6914,-35.8442,0.174671,0
45.7479,-35.8061,0.172122,0
45.8034,-35.7668,0.169632,0
45.8581,-35.7263,0.1672,0
45.9119,-35.6845,0.164847,0
45.9647,-35.6416,0.162552,0
46.0164,-35.5976,0.160325,0
46.0671,-35.5524,0.158177,0
46.1168,-35.5062,0.156087,0
46.1655,-35.4588,0.154075,0
46.213,-35.4104,0.152132,0
46.2595,-35.361,0.150257,0
46.3048,-35.3105,0.14846,0
46.3491,-35.2591,0.146732,0
46.392,-35.2067,0.145081,0
46.4338,-35.1534,0.143509,0
46.4745,-35.0991,0.142015,0
46.5138,-35.044,0.140589,0
46.552,-34.9881,0.139241,0
46.5889,-34.9313,0.137982,0
46.6245,-34.8737,0.1368,0
46.6588,-34.8154,0.135687,0
46.6919,-34.7563,0.134661,0
46.7235,-34.6965,0.133714,0
46.7539,-34.636,0.132845,0
46.7829,-34.5749,0.132064,0
46.8105,-34.5131,0.131361,0
46.8368,-34.4508,0.130736,0
46.8616,-34.3878,0.130198,0
46.8851,-34.3244,0.129739,0
46.9071,-34.2604,0.129359,0
46.9278,-34.1959,0.129066,0
46.947,-34.131,0.128861,0
46.9647,-34.0657,0.128734,0
46.9809,-34,0.128685,0
46.9958,-33.9339,0.128724,0
47.0091,-33.8676,0.128851,0
42.2375,-35.6596,0.324876,0
42.2908,-35.7036,0.323079,0
42.3451,-35.7465,0.321273,0
42.4003,-35.7881,0.319437,0
42.4566,-35.8284,0.317571,0
42.5137,-35.8675,0.315706,0
42.5717,-35.9053,0.313812,0
42.6307,-35.9418,0.311907,0
42.6905,-35.9769,0.309984,0
42.7515,-36.0098,0.307611,0
42.814,-36.0397,0.304476,0
42.877,-36.0683,0.30138,0
42.9407,-36.0957,0.298402,0
43.0048,-36.1216,0.295394,0
43.0696,-36.146,0.292376,0
43.1349,-36.1688,0.289339,0
43.2007,-36.1901,0.286292,0
43.2669,-36.2099,0.283226,0
43.3336,-36.2281,0.280169,0
43.4006,-36.2448,0.277093,0
43.468,-36.2599,0.274007,0
43.5357,-36.2734,0.270931,0
43.6036,-36.2854,0.267845,0
43.6719,-36.2958,0.264759,0
43.7402,-36.3046,0.261673,0
43.8088,-36.3118,0.258597,0
43.8776,-36.3174,0.255521,0
43.9463,-36.3214,0.252454,0
44.0152,-36.3238,0.249388,0
44.084,-36.3246,0.246341,0
44.1528,-36.3238,0.243294,0
44.2216,-36.3215,0.240267,0
44.2902,-36.3175,0.237249,0
44.3588,-36.312,0.234251,0
44.4271,-36.3049,0.231263,0
44.4952,-36.2962,0.228304,0
44.5632,-36.286,0.225364,0
44.6309,-36.2741,0.222445,0
44.6982,-36.2608,0.219544,0
44.7652,-36.2459,0.216673,0
44.8318,-36.2294,0.213831,0
44.898,-36.2114,0.211009,0
44.9637,-36.192,0.208226,0
45.029,-36.171,0.205462,0
45.0937,-36.1485,0.202747,0
45.1579,-36.1245,0.200052,0
45.2211,-36.0982,0.197005,0
45.2834,-36.0701,0.193821,0
45.3453,-36.0408,0.190804,0
45.4064,-36.0103,0.187904,0
45.4668,-35.9785,0.185062,0
45.5266,-35.9454,0.182269,0
45.5854,-35.9109,0.179544,0
45.6435,-35.8751,0.176868,0
45.7006,-35.8381,0.174261,0
45.757,-35.7998,0.171722,0
45.8124,-35.7603,0.169241,0
45.867,-35.7196,0.16682,0
45.9205,-35.6777,0.164476,0
45.9731,-35.6346,0.162191,0
46.0247,-35.5904,0.159974,0
46.0753,-35.545,0.157835,0
46.1248,-35.4985,0.155755,0
46.1733,-35.451,0.153753,0
46.2206,-35.4024,0.15182,0
46.267,-35.3528,0.149954,0
46.3121,-35.3022,0.148167,0
46.356,-35.2506,0.146458,0
46.3989,-35.1981,0.144818,0
46.4405,-35.1446,0.143265,0
46.4809,-35.0903,0.141771,0
46.5201,-35.035,0.140364,0
46.5581,-34.9789,0.139036,0
46.5948,-34.922,0.137786,0
46.6302,-34.8643,0.136614,0
46.6643,-34.8059,0.135521,0
46.697,-34.7467,0.134505,0
46.7286,-34.6868,0.133577,0
46.7587,-34.6262,0.132718,0
46.7875,-34.5649,0.131946,0
46.8148,-34.503,0.131253,0
46.8409,-34.4406,0.130648,0
46.8655,-34.3776,0.13012,0
46.8888,-34.314,0.129671,0
46.9106,-34.25,0.12931,0
46.9309,-34.1854,0.129027,0
46.9499,-34.1205,0.128841,0
46.9674,-34.0551,0.128714,0
46.9835,-33.9893,0.128695,0
46.998,-33.9232,0.128734,0
47.0112,-33.8568,0.12888,0
42.246,-35.6668,0.324583,0
42.2995,-35.7107,0.322796,0
42.3539,-35.7533,0.32097,0
42.4094,-35.7947,0.319134,0
42.4658,-35.8349,0.317279,0
42.523,-35.8737,0.315394,0
42.5812,-35.9113,0.313509,0
42.6404,-35.9475,0.311585,0
42.7002,-35.9824,0.309661,0
42.7616,-36.0148,0.307122,0
42.8242,-36.0445,0.303968,0
42.8873,-36.0729,0.300902,0
42.951,-36.1,0.297913,0
43.0153,-36.1256,0.294896,0
43.0802,-36.1498,0.291878,0
43.1455,-36.1724,0.288841,0
43.2114,-36.1934,0.285794,0
43.2777,-36.213,0.282737,0
43.3445,-36.231,0.279671,0
43.4115,-36.2474,0.276595,0
43.4789,-36.2622,0.273519,0
43.5467,-36.2755,0.270433,0
43.6147,-36.2872,0.267347,0
43.683,-36.2973,0.264261,0
43.7514,-36.3058,0.261175,0
43.8199,-36.3128,0.258089,0
43.8887,-36.3181,0.255023,0
43.9575,-36.3219,0.251956,0
44.0263,-36.324,0.24889,0
44.0952,-36.3246,0.245833,0
44.164,-36.3236,0.242796,0
44.2327,-36.3209,0.239769,0
44.3013,-36.3167,0.236761,0
44.3699,-36.311,0.233763,0
44.4382,-36.3036,0.230784,0
44.5063,-36.2947,0.227825,0
44.5742,-36.2841,0.224886,0
44.6419,-36.2721,0.221976,0
44.7091,-36.2585,0.219075,0
44.776,-36.2433,0.216214,0
44.8426,-36.2266,0.213372,0
44.9087,-36.2084,0.21056,0
44.9744,-36.1886,0.207777,0
45.0395,-36.1674,0.205023,0
45.1041,-36.1447,0.202308,0
45.1683,-36.1205,0.199622,0
45.2313,-36.0938,0.196488,0
45.2935,-36.0654,0.193314,0
45.3552,-36.036,0.190325,0
45.4163,-36.0053,0.187435,0
45.4766,-35.9732,0.184593,0
45.5361,-35.9399,0.18182,0
45.5948,-35.9052,0.179095,0
45.6527,-35.8692,0.176439,0
45.7098,-35.832,0.173841,0
45.7661,-35.7935,0.171312,0
45.8213,-35.7538,0.168841,0
45.8757,-35.7129,0.166439,0
45.9291,-35.6707,0.164105,0
45.9816,-35.6275,0.161829,0
46.033,-35.5831,0.159622,0
46.0834,-35.5375,0.157493,0
46.1327,-35.4909,0.155423,0
46.1811,-35.4432,0.153431,0
46.2283,-35.3945,0.151517,0
46.2743,-35.3447,0.149661,0
46.3193,-35.2939,0.147894,0
46.363,-35.2422,0.146185,0
46.4057,-35.1895,0.144564,0
46.4471,-35.1359,0.143021,0
46.4874,-35.0814,0.141546,0
46.5264,-35.026,0.14015,0
46.5641,-34.9698,0.138831,0
46.6005,-34.9127,0.137591,0
46.6358,-34.8549,0.136429,0
46.6697,-34.7963,0.135345,0
46.7023,-34.737,0.134339,0
46.7336,-34.677,0.133431,0
46.7634,-34.6163,0.132581,0
46.792,-34.5549,0.13182,0
46.8192,-34.493,0.131146,0
46.845,-34.4304,0.13056,0
46.8695,-34.3673,0.130032,0
46.8924,-34.3037,0.129613,0
46.914,-34.2395,0.129261,0
46.9341,-34.1749,0.128988,0
46.9529,-34.1099,0.128812,0
46.9702,-34.0445,0.128714,0
46.9859,-33.9786,0.128685,0
47.0003,-33.9124,0.128753,0
47.0132,-33.846,0.1289,0
42.3173,-35.6517,0.322659,0
42.3704,-35.6939,0.320872,0
42.4245,-35.7349,0.319085,0
42.4795,-35.7747,0.317269,0
42.5354,-35.8132,0.315433,0
42.5923,-35.8505,0.313577,0
42.6499,-35.8864,0.311712,0
42.7084,-35.921,0.309798,0
42.7683,-35.9532,0.307327,0
42.8292,-35.9833,0.304525,0
42.8911,-36.0115,0.301419,0
42.9535,-36.0383,0.298323,0
43.0164,-36.0636,0.295247,0
43.0798,-36.0878,0.292288,0
43.1437,-36.1105,0.28931,0
43.2082,-36.1316,0.286321,0
43.2731,-36.1513,0.283333,0
43.3384,-36.1694,0.280325,0
43.4041,-36.186,0.277318,0
43.4701,-36.2011,0.2743,0
43.5364,-36.2147,0.271273,0
43.603,-36.2267,0.268245,0
43.6698,-36.2371,0.265218,0
43.737,-36.246,0.2622,0
43.8041,-36.2533,0.259173,0
43.8714,-36.2591,0.256155,0
43.9389,-36.2633,0.253148,0
44.0064,-36.2659,0.25014,0
44.0739,-36.267,0.247142,0
44.1414,-36.2665,0.244163,0
44.2088,-36.2645,0.241185,0
44.2762,-36.2609,0.238226,0
44.3434,-36.2557,0.235277,0
44.4105,-36.249,0.232357,0
44.4774,-36.2408,0.229446,0
44.5441,-36.231,0.226556,0
44.6105,-36.2197,0.223695,0
44.6765,-36.2068,0.220843,0
44.7423,-36.1925,0.218021,0
44.8077,-36.1766,0.215228,0
44.8727,-36.1592,0.212464,0
44.9373,-36.1404,0.20973,0
45.0013,-36.12,0.207015,0
45.0649,-36.0983,0.204339,0
45.1279,-36.075,0.201693,0
45.1903,-36.0502,0.199017,0
45.2518,-36.0232,0.196048,0
45.3127,-35.9949,0.193138,0
45.3728,-35.9652,0.190277,0
45.4322,-35.9342,0.187474,0
45.4909,-35.902,0.184739,0
45.5487,-35.8683,0.182044,0
45.6059,-35.8335,0.179417,0
45.6622,-35.7974,0.176849,0
45.7177,-35.76,0.174339,0
45.7722,-35.7215,0.171888,0
45.8259,-35.6817,0.169505,0
45.8786,-35.6408,0.167191,0
45.9304,-35.5987,0.164945,0
45.9812,-35.5555,0.162757,0
46.031,-35.5112,0.160648,0
46.0798,-35.4658,0.158587,0
46.1275,-35.4194,0.156614,0
46.1742,-35.3719,0.1547,0
46.2198,-35.3234,0.152864,0
46.2643,-35.2739,0.151097,0
46.3077,-35.2234,0.149407,0
46.3498,-35.172,0.147786,0
46.3909,-35.1197,0.146243,0
46.4309,-35.0665,0.144769,0
46.4695,-35.0124,0.143372,0
46.507,-34.9575,0.142064,0
46.5432,-34.9018,0.140814,0
46.5781,-34.8453,0.139642,0
46.6118,-34.788,0.138568,0
46.6442,-34.73,0.137552,0
46.6753,-34.6714,0.136624,0
46.7052,-34.612,0.135775,0
46.7336,-34.552,0.135003,0
46.7607,-34.4914,0.13431,0
46.7865,-34.4302,0.133704,0
46.8109,-34.3684,0.133167,0
46.8339,-34.3061,0.132718,0
46.8555,-34.2433,0.132347,0
46.8758,-34.1801,0.132064,0
46.8945,-34.1164,0.131859,0
46.912,-34.0523,0.131732,0
46.928,-33.9878,0.131693,0
46.9425,-33.923,0.131732,0
46.9556,-33.8578,0.131849,0
42.2736,-35.6155,0.324134,0
42.3258,-35.6587,0.322376,0
42.3791,-35.7007,0.320589,0
42.4334,-35.7415,0.318792,0
42.4885,-35.7811,0.316976,0
42.5445,-35.8194,0.31513,0
42.6016,-35.8564,0.313275,0
42.6594,-35.8921,0.311409,0
42.7181,-35.9263,0.309388,0
42.7781,-35.9583,0.306917,0
42.8393,-35.988,0.304017,0
42.9012,-36.016,0.300921,0
42.9637,-36.0425,0.297825,0
43.0267,-36.0677,0.294759,0
43.0902,-36.0916,0.2918,0
43.1542,-36.114,0.288831,0
43.2188,-36.1349,0.285843,0
43.2837,-36.1543,0.282845,0
43.349,-36.1722,0.279837,0
43.4148,-36.1886,0.276829,0
43.4808,-36.2034,0.273812,0
43.5472,-36.2167,0.270784,0
43.6138,-36.2285,0.267757,0
43.6807,-36.2387,0.26473,0
43.7478,-36.2473,0.261712,0
43.8151,-36.2544,0.258685,0
43.8823,-36.2599,0.255657,0
43.9498,-36.2638,0.252659,0
44.0173,-36.2662,0.249652,0
44.0849,-36.2671,0.246663,0
44.1523,-36.2663,0.243675,0
44.2198,-36.264,0.240706,0
44.2871,-36.2601,0.237737,0
44.3544,-36.2547,0.234808,0
44.4214,-36.2478,0.231878,0
44.4883,-36.2393,0.228978,0
44.5548,-36.2293,0.226087,0
44.6212,-36.2177,0.223216,0
44.6873,-36.2046,0.220384,0
44.753,-36.19,0.217562,0
44.8183,-36.1739,0.214779,0
44.8832,-36.1563,0.212015,0
44.9477,-36.1372,0.20928,0
45.0116,-36.1166,0.206585,0
45.0752,-36.0946,0.203909,0
45.1381,-36.0711,0.201273,0
45.2004,-36.0459,0.198529,0
45.2617,-36.0187,0.19557,0
45.3224,-35.9902,0.192669,0
45.3824,-35.9603,0.189827,0
45.4418,-35.9291,0.187025,0
45.5003,-35.8966,0.18429,0
45.5581,-35.8628,0.181614,0
45.6152,-35.8277,0.178997,0
45.6712,-35.7914,0.176429,0
45.7266,-35.7539,0.173929,0
45.7809,-35.7151,0.171507,0
45.8345,-35.6751,0.169124,0
45.8871,-35.634,0.16682,0
45.9387,-35.5918,0.164583,0
45.9893,-35.5484,0.162405,0
46.039,-35.5039,0.160296,0
46.0876,-35.4583,0.158265,0
46.1352,-35.4117,0.156292,0
46.1816,-35.3641,0.154398,0
46.2271,-35.3154,0.152571,0
46.2715,-35.2657,0.150823,0
46.3146,-35.2151,0.149134,0
46.3566,-35.1636,0.147532,0
46.3975,-35.1111,0.145989,0
46.4372,-35.0577,0.144534,0
46.4756,-35.0036,0.143157,0
46.5129,-34.9485,0.141849,0
46.5489,-34.8927,0.140618,0
46.5837,-34.836,0.139466,0
46.6172,-34.7787,0.138392,0
46.6494,-34.7206,0.137396,0
46.6802,-34.6618,0.136478,0
46.7098,-34.6023,0.135638,0
46.738,-34.5422,0.134886,0
46.7649,-34.4815,0.134202,0
46.7905,-34.4202,0.133616,0
46.8147,-34.3584,0.133099,0
46.8374,-34.296,0.13265,0
46.8589,-34.2331,0.132308,0
46.8789,-34.1698,0.132025,0
46.8975,-34.106,0.131829,0
46.9147,-34.0419,0.131722,0
46.9304,-33.9773,0.131693,0
46.9448,-33.9124,0.131741,0
46.9576,-33.8472,0.131868,0
42.282,-35.6225,0.323851,0
42.3344,-35.6656,0.322083,0
42.3879,-35.7074,0.320296,0
42.4422,-35.748,0.318499,0
42.4976,-35.7874,0.316673,0
42.5537,-35.8254,0.314827,0
42.6109,-35.8623,0.312972,0
42.6688,-35.8978,0.311097,0
42.7278,-35.9316,0.308997,0
42.7879,-35.9633,0.306517,0
42.8492,-35.9927,0.303519,0
42.9112,-36.0204,0.300423,0
42.9738,-36.0466,0.297318,0
43.037,-36.0716,0.29428,0
43.1005,-36.0953,0.291331,0
43.1646,-36.1175,0.288343,0
43.2292,-36.1382,0.285364,0
43.2942,-36.1573,0.282357,0
43.3597,-36.175,0.279349,0
43.4255,-36.1911,0.276331,0
43.4916,-36.2057,0.273314,0
43.558,-36.2187,0.270286,0
43.6247,-36.2302,0.267259,0
43.6916,-36.2402,0.264241,0
43.7588,-36.2485,0.261224,0
43.8259,-36.2554,0.258187,0
43.8933,-36.2606,0.255179,0
43.9608,-36.2643,0.252171,0
44.0283,-36.2665,0.249173,0
44.0958,-36.267,0.246175,0
44.1633,-36.266,0.243196,0
44.2307,-36.2635,0.240228,0
44.298,-36.2594,0.237269,0
44.3652,-36.2537,0.234339,0
44.4323,-36.2465,0.231409,0
44.4991,-36.2378,0.228509,0
44.5656,-36.2275,0.225628,0
44.632,-36.2157,0.222767,0
44.698,-36.2023,0.219935,0
44.7636,-36.1875,0.217112,0
44.8288,-36.1711,0.214329,0
44.8937,-36.1533,0.211575,0
44.958,-36.1339,0.208841,0
45.022,-36.1131,0.206146,0
45.0854,-36.0909,0.20348,0
45.1483,-36.0672,0.200843,0
45.2103,-36.0416,0.19805,0
45.2716,-36.0142,0.195101,0
45.3323,-35.9854,0.1922,0
45.3921,-35.9553,0.189368,0
45.4514,-35.9239,0.186575,0
45.5098,-35.8912,0.183861,0
45.5674,-35.8572,0.181185,0
45.6242,-35.8219,0.178568,0
45.6803,-35.7854,0.176019,0
45.7355,-35.7477,0.173538,0
45.7897,-35.7087,0.171107,0
45.843,-35.6686,0.168753,0
45.8955,-35.6273,0.166458,0
45.947,-35.5848,0.164222,0
45.9975,-35.5413,0.162064,0
46.047,-35.4966,0.159974,0
46.0954,-35.4509,0.157943,0
46.1428,-35.4041,0.155989,0
46.1891,-35.3562,0.154105,0
46.2344,-35.3074,0.152288,0
46.2784,-35.2576,0.15054,0
46.3215,-35.2068,0.14888,0
46.3634,-35.1551,0.147279,0
46.404,-35.1025,0.145755,0
46.4435,-35.049,0.14431,0
46.4818,-34.9947,0.142943,0
46.5188,-34.9395,0.141644,0
46.5546,-34.8835,0.140433,0
46.5891,-34.8268,0.13929,0
46.6224,-34.7693,0.138226,0
46.6545,-34.7111,0.137249,0
46.6852,-34.6522,0.136341,0
46.7145,-34.5926,0.135521,0
46.7425,-34.5324,0.134769,0
46.7692,-34.4716,0.134105,0
46.7945,-34.4102,0.133519,0
46.8184,-34.3483,0.133021,0
46.8411,-34.2858,0.132591,0
46.8623,-34.2229,0.132249,0
46.882,-34.1595,0.131986,0
46.9003,-34.0956,0.13181,0
46.9173,-34.0314,0.131712,0
46.9328,-33.9668,0.131693,0
46.947,-33.9019,0.131751,0
46.9595,-33.8366,0.131907,0
42.3514,-35.6083,0.321966,0
42.4035,-35.6497,0.320218,0
42.4566,-35.6899,0.31846,0
42.5106,-35.7289,0.316673,0
42.5655,-35.7667,0.314866,0
42.6213,-35.8032,0.31304,0
42.6778,-35.8385,0.311224,0
42.7355,-35.8719,0.309075,0
42.7943,-35.9035,0.306653,0
42.8539,-35.9333,0.304056,0
42.9145,-35.961,0.301029,0
42.9757,-35.9873,0.297982,0
43.0376,-36.0121,0.294935,0
43.0998,-36.0355,0.291878,0
43.1627,-36.0575,0.288812,0
43.2258,-36.0783,0.285882,0
43.2895,-36.0976,0.282943,0
43.3535,-36.1154,0.279993,0
43.418,-36.1317,0.277044,0
43.4827,-36.1465,0.274075,0
43.5477,-36.1598,0.271116,0
43.613,-36.1716,0.268148,0
43.6787,-36.1818,0.265179,0
43.7444,-36.1906,0.26222,0
43.8103,-36.1978,0.259251,0
43.8764,-36.2035,0.256292,0
43.9425,-36.2076,0.253333,0
44.0088,-36.2102,0.250384,0
44.0749,-36.2113,0.247445,0
44.1412,-36.2108,0.244515,0
44.2073,-36.2088,0.241605,0
44.2734,-36.2053,0.238704,0
44.3394,-36.2003,0.235814,0
44.4052,-36.1937,0.232943,0
44.4708,-36.1856,0.230081,0
44.5362,-36.1761,0.227259,0
44.6013,-36.165,0.224446,0
44.6662,-36.1524,0.221654,0
44.7306,-36.1383,0.21888,0
44.7948,-36.1228,0.216136,0
44.8586,-36.1058,0.213431,0
44.922,-36.0873,0.210745,0
44.9848,-36.0673,0.208079,0
45.0472,-36.0462,0.20553,0
45.1091,-36.0237,0.20307,0
45.1706,-35.9998,0.200657,0
45.231,-35.9735,0.197796,0
45.2907,-35.9457,0.194945,0
45.3498,-35.9166,0.192132,0
45.4081,-35.8862,0.189378,0
45.4657,-35.8545,0.186683,0
45.5226,-35.8216,0.184046,0
45.5787,-35.7874,0.181468,0
45.6339,-35.752,0.178939,0
45.6883,-35.7154,0.176478,0
45.7419,-35.6775,0.174075,0
45.7946,-35.6385,0.171741,0
45.8463,-35.5984,0.169466,0
45.8972,-35.5571,0.167259,0
45.947,-35.5147,0.165111,0
45.9959,-35.4712,0.16303,0
46.0438,-35.4267,0.161019,0
46.0907,-35.3811,0.159075,0
46.1366,-35.3345,0.1572,0
46.1813,-35.2869,0.155394,0
46.225,-35.2383,0.153665,0
46.2676,-35.1888,0.151995,0
46.3091,-35.1384,0.150404,0
46.3494,-35.087,0.14888,0
46.3885,-35.0348,0.147445,0
46.4265,-34.9817,0.146077,0
46.4633,-34.9279,0.144779,0
46.4987,-34.8731,0.143558,0
46.5331,-34.8177,0.142415,0
46.5662,-34.7615,0.141341,0
46.598,-34.7046,0.140355,0
46.6285,-34.647,0.139446,0
46.6578,-34.5887,0.138607,0
46.6858,-34.5298,0.137855,0
46.7123,-34.4703,0.137181,0
46.7377,-34.4102,0.136575,0
46.7616,-34.3496,0.136058,0
46.7842,-34.2885,0.135618,0
46.8055,-34.2268,0.135247,0
46.8253,-34.1647,0.134974,0
46.8438,-34.1022,0.134759,0
46.8609,-34.0393,0.134642,0
46.8765,-33.976,0.134593,0
46.8909,-33.9123,0.134642,0
46.9037,-33.8484,0.134759,0
42.3084,-35.5727,0.323402,0
42.3598,-35.6151,0.321673,0
42.412,-35.6563,0.319935,0
42.4653,-35.6963,0.318157,0
42.5195,-35.7351,0.31638,0
42.5745,-35.7727,0.314573,0
42.6303,-35.809,0.312747,0
42.6871,-35.8441,0.310911,0
42.745,-35.8771,0.308685,0
42.8039,-35.9084,0.306253,0
42.8637,-35.9379,0.303568,0
42.9244,-35.9654,0.30053,0
42.9858,-35.9914,0.297493,0
43.0476,-36.016,0.294437,0
43.11,-36.0392,0.29138,0
43.1729,-36.0609,0.288333,0
43.2362,-36.0815,0.285404,0
43.2998,-36.1005,0.282464,0
43.364,-36.1181,0.279515,0
43.4284,-36.1342,0.276556,0
43.4933,-36.1487,0.273597,0
43.5583,-36.1618,0.270638,0
43.6237,-36.1733,0.267669,0
43.6893,-36.1834,0.2647,0
43.7551,-36.1918,0.261732,0
43.8211,-36.1988,0.258773,0
43.8871,-36.2042,0.255814,0
43.9533,-36.2081,0.252855,0
44.0195,-36.2105,0.249905,0
44.0857,-36.2113,0.246976,0
44.1519,-36.2106,0.244056,0
44.218,-36.2084,0.241136,0
44.2841,-36.2046,0.238236,0
44.3501,-36.1993,0.235345,0
44.4159,-36.1925,0.232484,0
44.4814,-36.1842,0.229622,0
44.5468,-36.1744,0.22679,0
44.6118,-36.163,0.223978,0
44.6766,-36.1502,0.221195,0
44.7412,-36.1359,0.218431,0
44.8052,-36.1201,0.215696,0
44.8688,-36.1029,0.212991,0
44.9321,-36.0841,0.210306,0
44.9949,-36.064,0.20765,0
45.0573,-36.0426,0.20513,0
45.1191,-36.0199,0.202679,0
45.1805,-35.9957,0.200237,0
45.2407,-35.969,0.197327,0
45.3003,-35.9411,0.194476,0
45.3592,-35.9118,0.191683,0
45.4174,-35.8812,0.188939,0
45.475,-35.8493,0.186253,0
45.5316,-35.8162,0.183626,0
45.5876,-35.7817,0.181048,0
45.6427,-35.7461,0.178538,0
45.697,-35.7093,0.176087,0
45.7505,-35.6713,0.173704,0
45.803,-35.6321,0.17137,0
45.8546,-35.5918,0.169105,0
45.9053,-35.5503,0.166898,0
45.955,-35.5077,0.164759,0
46.0038,-35.4641,0.162698,0
46.0516,-35.4194,0.160696,0
46.0983,-35.3736,0.158763,0
46.1439,-35.3269,0.156907,0
46.1885,-35.2791,0.155111,0
46.232,-35.2304,0.153382,0
46.2744,-35.1807,0.151732,0
46.3157,-35.1301,0.150159,0
46.3559,-35.0786,0.148655,0
46.3948,-35.0262,0.14722,0
46.4325,-34.973,0.145863,0
46.4691,-34.919,0.144573,0
46.5045,-34.8642,0.143372,0
46.5386,-34.8086,0.142239,0
46.5715,-34.7523,0.141185,0
46.603,-34.6953,0.140208,0
46.6334,-34.6376,0.1393,0
46.6625,-34.5792,0.13848,0
46.6902,-34.5202,0.137747,0
46.7166,-34.4606,0.137073,0
46.7416,-34.4004,0.136487,0
46.7654,-34.3397,0.13598,0
46.7877,-34.2785,0.13555,0
46.8088,-34.2168,0.135198,0
46.8284,-34.1546,0.134935,0
46.8466,-34.092,0.134739,0
46.8635,-34.029,0.134632,0
46.8789,-33.9657,0.134603,0
46.893,-33.902,0.134652,0
46.9056,-33.838,0.134788,0
42.3168,-35.5797,0.323128,0
42.3682,-35.6219,0.32139,0
42.4206,-35.6629,0.319652,0
42.4741,-35.7027,0.317874,0
42.5284,-35.7413,0.316087,0
42.5834,-35.7787,0.31428,0
42.6395,-35.8148,0.312454,0
42.6964,-35.8496,0.310618,0
42.7545,-35.8823,0.308294,0
42.8135,-35.9134,0.305862,0
42.8735,-35.9425,0.303079,0
42.9344,-35.9697,0.300032,0
42.9957,-35.9955,0.296995,0
43.0577,-36.0199,0.293939,0
43.1202,-36.0428,0.290892,0
43.1831,-36.0644,0.287864,0
43.2465,-36.0847,0.284935,0
43.3102,-36.1035,0.281986,0
43.3744,-36.1208,0.279036,0
43.4389,-36.1367,0.276087,0
43.5037,-36.151,0.273118,0
43.569,-36.1638,0.27015,0
43.6343,-36.1751,0.267191,0
43.7,-36.1848,0.264222,0
43.7658,-36.1931,0.261253,0
43.8318,-36.1998,0.258294,0
43.8978,-36.205,0.255335,0
43.9641,-36.2086,0.252376,0
44.0302,-36.2107,0.249437,0
44.0964,-36.2113,0.246497,0
44.1627,-36.2104,0.243577,0
44.2288,-36.2079,0.240657,0
44.2948,-36.2039,0.237767,0
44.3608,-36.1983,0.234876,0
44.4265,-36.1913,0.232015,0
44.492,-36.1827,0.229163,0
44.5573,-36.1726,0.226331,0
44.6224,-36.1611,0.223529,0
44.6872,-36.148,0.220745,0
44.7516,-36.1334,0.217991,0
44.8155,-36.1174,0.215257,0
44.8792,-36.0999,0.212552,0
44.9423,-36.081,0.209876,0
45.0051,-36.0606,0.20722,0
45.0673,-36.039,0.20473,0
45.1291,-36.0161,0.202288,0
45.1902,-35.9915,0.199759,0
45.2505,-35.9646,0.196868,0
45.3099,-35.9364,0.194017,0
45.3687,-35.9069,0.191234,0
45.4269,-35.8761,0.188499,0
45.4842,-35.844,0.185823,0
45.5408,-35.8107,0.183206,0
45.5966,-35.7761,0.180638,0
45.6516,-35.7403,0.178138,0
45.7058,-35.7032,0.175696,0
45.7591,-35.665,0.173304,0
45.8115,-35.6256,0.170989,0
45.8629,-35.5851,0.168743,0
45.9134,-35.5435,0.166546,0
45.963,-35.5007,0.164427,0
46.0116,-35.4569,0.162366,0
46.0591,-35.412,0.160374,0
46.1057,-35.3661,0.15846,0
46.1512,-35.3192,0.156614,0
46.1956,-35.2713,0.154827,0
46.239,-35.2224,0.153109,0
46.2812,-35.1725,0.151468,0
46.3223,-35.1218,0.149915,0
46.3623,-35.0702,0.148411,0
46.401,-35.0177,0.146995,0
46.4385,-34.9643,0.145648,0
46.4749,-34.9102,0.144378,0
46.5101,-34.8553,0.143187,0
46.544,-34.7995,0.142064,0
46.5766,-34.7431,0.141019,0
46.6081,-34.686,0.140052,0
46.6382,-34.6281,0.139163,0
46.667,-34.5697,0.138353,0
46.6945,-34.5106,0.13763,0
46.7208,-34.4509,0.136976,0
46.7456,-34.3906,0.1364,0
46.7691,-34.3298,0.135902,0
46.7912,-34.2685,0.135482,0
46.812,-34.2067,0.13515,0
46.8314,-34.1445,0.134896,0
46.8495,-34.0818,0.13471,0
46.8661,-34.0188,0.134622,0
46.8813,-33.9554,0.134603,0
46.8952,-33.8916,0.134671,0
46.9075,-33.8276,0.134818,0
42.3845,-35.5662,0.321282,0
42.4357,-35.6068,0.319573,0
42.4877,-35.6463,0.317845,0
42.5407,-35.6846,0.316097,0
42.5946,-35.7216,0.31432,0
42.6494,-35.7574,0.312542,0
42.7049,-35.792,0.310736,0
42.7618,-35.8243,0.308382,0
42.8195,-35.8553,0.306009,0
42.8778,-35.8849,0.303607,0
42.9373,-35.9121,0.300638,0
42.9973,-35.9379,0.29765,0
43.058,-35.9623,0.294661,0
43.1191,-35.9853,0.291663,0
43.1807,-36.0068,0.288655,0
43.2428,-36.027,0.285648,0
43.3053,-36.0457,0.28265,0
43.3682,-36.063,0.279671,0
