40.9014,-37.9541,-0.100053,174
41.1837,-37.6889,-0.120028,174
41.4596,-37.529,-0.132952,174
41.73,-37.388,-0.14423,174
41.9978,-37.2765,-0.153237,174
42.3161,-37.614,-0.134385,174
43.505,-43.8446,0.243973,0
51.4073,-32.485,-0.124059,0
51.5432,-32.2234,-0.127311,0
51.6706,-31.9582,-0.130602,0
51.7899,-31.6899,-0.133903,0
51.9052,-31.4209,-0.13695,0
52.0165,-31.1513,-0.139723,0
52.1293,-30.8836,-0.141882,0
52.239,-30.6154,-0.143737,0
52.345,-30.3461,-0.145329,0
52.4473,-30.0758,-0.146667,0
52.5459,-29.8043,-0.147751,0
52.6383,-29.5309,-0.148727,0
52.7253,-29.2559,-0.149567,0
52.8087,-28.9799,-0.150124,0
52.8886,-28.7029,-0.150427,0
52.9805,-28.4286,-0.149548,0
53.0725,-28.1534,-0.14818,0
53.1526,-27.8743,-0.147067,0
53.2291,-27.5935,-0.14569,0
53.3021,-27.311,-0.14405,0
53.3716,-27.0266,-0.142145,0
53.4375,-26.7403,-0.139977,0
53.4998,-26.4521,-0.137546,0
53.5586,-26.1619,-0.134831,0
53.6137,-25.8697,-0.131862,0
53.4753,-25.5728,-0.139691,174
53.713,-25.2788,-0.125055,0
32.808,-40.993,0.449554,0
33.1524,-41.2107,0.447269,0
33.8393,-40.6856,0.384147,174
33.8591,-41.6216,0.442445,0
34.22,-41.8167,0.440071,0
34.5816,-42.0162,0.438626,0
34.9449,-42.2186,0.437991,0
35.3145,-42.4125,0.437239,0
35.6982,-42.5705,0.43432,0
36.0866,-42.7187,0.431263,0
37.1069,-40.3428,0.239678,174
36.884,-42.9503,0.422239,0
37.287,-43.0532,0.417757,0
37.6923,-43.1474,0.413323,0
38.108,-43.181,0.405164,0
38.9411,-39.9904,0.166436,174
39.28,-40.0148,0.160709,174
39.4151,-42.4827,0.328459,174
39.8127,-42.462,0.319643,174
40.1761,-43.3129,0.372464,0
40.5912,-43.2121,0.359139,0
40.9489,-37.5059,-0.04169,174
41.2249,-37.399,-0.0523969,174
41.5022,-37.3968,-0.0553895,174
41.7722,-37.2943,-0.0648036,174
42.0368,-37.175,-0.0748799,174
42.9553,-42.3029,0.273763,0
43.3183,-42.0715,0.256536,0
43.6724,-41.8365,0.239749,0
44.0178,-41.598,0.223363,0
44.3545,-41.3563,0.207386,0
44.6827,-41.1116,0.19182,0
45.0052,-40.8739,0.177318,0
45.3177,-40.6263,0.162728,0
45.617,-40.3597,0.147376,0
45.9079,-40.0922,0.132503,0
46.1909,-39.8239,0.118099,0
46.4659,-39.555,0.104144,0
46.7332,-39.2854,0.0906281,0
46.993,-39.0153,0.077552,0
47.2454,-38.7447,0.0648957,0
47.4914,-38.4752,0.0527668,0
47.7312,-38.2066,0.0411359,0
47.9598,-37.9296,0.0293098,0
48.1815,-37.6529,0.0179133,0
48.3966,-37.3765,0.00692696,0
48.6055,-37.1004,-0.00365898,0
48.8082,-36.8247,-0.0138543,0
49.0047,-36.5491,-0.0236785,0
49.1952,-36.274,-0.0331219,0
49.3811,-36.0004,-0.0420965,0
49.5652,-35.7317,-0.0503387,0
49.744,-35.4629,-0.0582488,0
49.9175,-35.1941,-0.0658172,0
50.0859,-34.9253,-0.0730633,0
50.2418,-34.6492,-0.0806121,0
50.3911,-34.372,-0.0879656,0
50.5355,-34.0954,-0.0949773,0
50.6753,-33.8195,-0.101647,0
50.8136,-33.5468,-0.107731,0
50.9648,-33.288,-0.112184,0
51.1121,-33.0286,-0.116335,0
51.2557,-32.7685,-0.120192,0
51.3954,-32.5077,-0.123766,0
51.5315,-32.2462,-0.127048,0
51.6599,-31.9815,-0.1303,0
51.7797,-31.7132,-0.13363,0
51.8953,-31.4443,-0.136696,0
52.007,-31.1748,-0.139499,0
52.1196,-30.9069,-0.141716,0
52.2297,-30.6388,-0.143581,0
52.3359,-30.3696,-0.145212,0
52.4385,-30.0993,-0.146569,0
52.5374,-29.828,-0.147673,0
52.6306,-29.5548,-0.148649,0
52.7178,-29.2799,-0.149499,0
52.8016,-29.0039,-0.150095,0
52.8818,-28.727,-0.150417,0
52.9723,-28.4525,-0.149655,0
53.0651,-28.1775,-0.148288,0
53.1457,-27.8987,-0.147165,0
53.2226,-27.618,-0.145817,0
53.2959,-27.3356,-0.144206,0
53.3656,-27.0514,-0.142321,0
53.4319,-26.7653,-0.140182,0
53.4945,-26.4773,-0.13777,0
53.5536,-26.1872,-0.135085,0
53.6091,-25.8952,-0.132126,0
53.4755,-25.5982,-0.139721,174
53.709,-25.3047,-0.125378,0
32.7805,-40.9694,0.449378,0
33.1222,-41.1922,0.447493,0
33.8134,-40.661,0.383729,174
33.8279,-41.6043,0.44265,0
34.1884,-41.8,0.440267,0
34.5502,-41.9982,0.438675,0
35.0638,-41.7739,0.404523,174
35.2816,-42.3974,0.437425,0
35.6646,-42.5571,0.434573,0
36.0523,-42.7076,0.431644,0
37.0737,-40.3476,0.241026,174
36.8491,-42.9409,0.42263,0
37.2517,-43.0446,0.418148,0
37.6569,-43.1396,0.413704,0
38.0722,-43.1765,0.405726,0
38.9098,-40.0021,0.167953,174
39.2504,-40.0141,0.161282,174
39.3803,-42.4859,0.329354,174
39.7786,-42.4573,0.319925,174
40.1401,-43.3127,0.373026,0
40.5553,-43.2226,0.360389,0
40.9253,-37.614,-0.0338906,174
41.2008,-37.4018,-0.0519287,174
41.4778,-37.3924,-0.0554584,174
41.7492,-37.3074,-0.063716,174
42.0138,-37.1845,-0.074081,174
42.3535,-37.7055,-0.039998,174
43.287,-42.0918,0.258021,0
43.642,-41.8571,0.241195,0
43.988,-41.6189,0.224769,0
44.3255,-41.3775,0.208763,0
44.6545,-41.1331,0.193157,0
44.9772,-40.894,0.178519,0
45.2913,-40.6495,0.164075,0
45.5912,-40.3829,0.148695,0
45.883,-40.1155,0.133782,0
46.1665,-39.8473,0.119329,0
46.4423,-39.5784,0.105345,0
46.7102,-39.3089,0.0918,0
46.9707,-39.0388,0.0786848,0
47.2237,-38.7682,0.0659895,0
47.47,-38.4981,0.0537727,0
47.711,-38.2308,0.0421906,0
47.9401,-37.9537,0.0303352,0
48.1624,-37.677,0.0188898,0
48.3783,-37.4006,0.00786446,0
48.5877,-37.1245,-0.00276054,0
48.7908,-36.8487,-0.0129852,0
48.9878,-36.5731,-0.0228289,0
49.1789,-36.2979,-0.0323113,0
49.3648,-36.0238,-0.0413543,0
49.5494,-35.7551,-0.0496355,0
49.7286,-35.4863,-0.0575652,0
49.9026,-35.2175,-0.0651726,0
50.0713,-34.9487,-0.072448,0
50.2286,-34.6733,-0.0799578,0
50.3783,-34.3961,-0.0873309,0
50.5231,-34.1195,-0.0943719,0
50.6633,-33.8435,-0.101071,0
50.8002,-33.5693,-0.107331,0
50.9518,-33.3105,-0.111804,0
51.0995,-33.0512,-0.115983,0
51.2433,-32.7912,-0.11987,0
51.3834,-32.5304,-0.123464,0
51.5198,-32.269,-0.126764,0
51.6494,-32.0048,-0.129997,0
51.7695,-31.7366,-0.133356,0
51.8854,-31.4677,-0.136432,0
51.9974,-31.1982,-0.139264,0
52.1098,-30.9302,-0.14154,0
52.2202,-30.6621,-0.143425,0
52.3269,-30.393,-0.145075,0
52.4298,-30.1229,-0.146462,0
52.529,-29.8517,-0.147585,0
52.6228,-29.5787,-0.148561,0
52.7105,-29.3038,-0.14944,0
52.7945,-29.028,-0.150046,0
52.875,-28.7512,-0.150397,0
52.964,-28.4763,-0.149762,0
53.057,-28.2015,-0.148415,0
53.1388,-27.923,-0.147282,0
53.216,-27.6425,-0.145944,0
53.2897,-27.3603,-0.144352,0
53.3597,-27.0762,-0.142497,0
53.4263,-26.7903,-0.140378,0
53.4892,-26.5024,-0.137985,0
53.5487,-26.2126,-0.135319,0
53.6044,-25.9207,-0.132399,0
53.4779,-25.6237,-0.139615,174
53.705,-25.3306,-0.12569,0
32.7531,-40.9458,0.449212,0
33.0919,-41.1737,0.447708,0
33.7831,-40.6462,0.384121,174
33.7967,-41.587,0.442864,0
34.1569,-41.7833,0.440482,0
34.5189,-41.9803,0.438743,0
35.0504,-41.7072,0.400672,174
35.2494,-42.3806,0.437464,0
35.6311,-42.5436,0.434827,0
36.0183,-42.6949,0.431898,0
37.0341,-40.3779,0.244297,174
36.8142,-42.9315,0.423021,0
37.2166,-43.0359,0.418538,0
37.6216,-43.1316,0.41409,0
38.036,-43.1742,0.406453,0
38.8779,-40.0171,0.16972,174
39.2208,-40.0133,0.161858,174
39.3455,-42.4889,0.330248,174
39.7445,-42.4525,0.320208,174
40.1041,-43.3124,0.373602,0
40.5193,-43.2331,0.361649,0
40.9022,-37.8764,-0.0153787,174
41.1769,-37.4078,-0.0512475,174
41.4535,-37.39,-0.0553905,174
41.7261,-37.3206,-0.0626226,174
41.9909,-37.1941,-0.0732778,174
42.3103,-37.5563,-0.0500699,174
43.2558,-42.1121,0.259505,0
50.8262,-32.0952,-0.0793719,0
50.9484,-31.8441,-0.0831316,0
51.0665,-31.5923,-0.086618,0
51.1807,-31.3399,-0.0898504,0
51.2916,-31.087,-0.0927703,0
51.4034,-30.8358,-0.095075,0
51.5116,-30.5837,-0.0971258,0
51.6161,-30.3304,-0.0989324,0
51.7169,-30.0761,-0.100475,0
51.814,-29.8208,-0.101784,0
51.9075,-29.5643,-0.102819,0
51.9973,-29.3067,-0.10362,0
52.0812,-29.0471,-0.104343,0
52.1596,-28.7859,-0.104919,0
52.2402,-28.5253,-0.10486,0
52.3236,-28.265,-0.104118,0
52.4036,-28.0031,-0.103132,0
52.4801,-27.7395,-0.101882,0
52.5529,-27.4741,-0.100387,0
52.6214,-27.2069,-0.098698,0
52.6855,-26.9379,-0.0967937,0
52.7463,-26.6671,-0.0946453,0
52.8034,-26.3946,-0.0922234,0
52.8569,-26.1203,-0.0895281,0
52.9065,-25.8441,-0.0866082,0
52.947,-25.566,-0.0837566,0
52.9837,-25.2862,-0.0806609,0
33.5041,-39.6446,0.449652,0
33.8091,-39.8631,0.449652,0
34.1259,-40.0631,0.448499,0
34.4502,-40.2516,0.446868,0
34.7792,-40.4335,0.445257,0
35.113,-40.6088,0.443646,0
35.4556,-40.7656,0.441048,0
36.0293,-40.2155,0.378999,174
36.1514,-41.0616,0.436214,0
36.7197,-40.4162,0.368758,174
37.123,-40.2842,0.345481,174
37.2259,-41.4398,0.428226,0
37.5936,-41.5363,0.424446,0
37.9697,-41.5906,0.417943,0
38.3507,-41.6101,0.409388,0
38.9466,-39.9594,0.269663,174
39.2877,-39.9563,0.261675,174
39.5243,-41.1893,0.350728,174
39.8645,-41.6236,0.377386,0
40.2941,-40.1465,0.25701,174
40.6158,-41.5344,0.358294,0
40.9485,-37.3465,0.0330609,174
41.2209,-37.2428,0.0219092,174
41.4905,-37.1668,0.0134206,174
41.7612,-37.1409,0.00924248,174
42.0296,-37.0939,0.00397034,174
42.7695,-40.8102,0.283372,0
43.1052,-40.6321,0.268978,0
43.4336,-40.4454,0.254573,0
43.7552,-40.2547,0.24053,0
44.0699,-40.0603,0.226829,0
44.378,-39.8622,0.21347,0
44.6795,-39.6607,0.200443,0
44.9744,-39.4559,0.187747,0
45.2602,-39.2399,0.174759,0
45.533,-39.0029,0.160736,0
45.7987,-38.7646,0.147122,0
46.0573,-38.5251,0.133929,0
46.312,-38.2911,0.121654,0
46.5601,-38.0557,0.109759,0
46.8019,-37.8191,0.0982453,0
47.0373,-37.5812,0.0871027,0
47.2668,-37.3422,0.076302,0
47.4902,-37.1021,0.0658723,0
47.7058,-36.858,0.0555402,0
47.911,-36.6058,0.0449543,0
48.1103,-36.3534,0.0347395,0
48.3038,-36.1007,0.0248957,0
48.4952,-35.8526,0.0158137,0
48.6816,-35.6049,0.0071418,0
48.863,-35.3568,-0.00118828,0
49.0392,-35.1083,-0.00918632,0
49.2105,-34.8594,-0.0168719,0
49.3767,-34.6102,-0.0242352,0
49.538,-34.3606,-0.0312762,0
49.6947,-34.1105,-0.0380242,0
49.8466,-33.8601,-0.0444598,0
49.9939,-33.6094,-0.0506121,0
50.1411,-33.362,-0.0560711,0
50.2844,-33.1143,-0.0612078,0
50.4234,-32.8659,-0.0660809,0
50.5582,-32.617,-0.0706707,0
50.6887,-32.3673,-0.0749871,0
50.8154,-32.117,-0.0790301,0
50.9379,-31.866,-0.0828094,0
51.0563,-31.6143,-0.086325,0
51.1709,-31.3619,-0.0895769,0
51.2817,-31.1088,-0.0925457,0
51.3939,-30.8577,-0.0948797,0
51.5023,-30.6056,-0.0969598,0
51.6071,-30.3525,-0.0987859,0
51.7082,-30.0983,-0.100358,0
51.8057,-29.843,-0.101677,0
51.8995,-29.5866,-0.102741,0
51.9897,-29.3291,-0.103561,0
52.0742,-29.0698,-0.104274,0
52.1529,-28.8087,-0.10488,0
52.2327,-28.5479,-0.104919,0
52.3165,-28.2877,-0.104196,0
52.3967,-28.0259,-0.10322,0
52.4735,-27.7625,-0.102009,0
52.5467,-27.4973,-0.100524,0
52.6157,-27.2303,-0.0988543,0
52.6802,-26.9614,-0.0969793,0
52.7412,-26.6908,-0.0948406,0
52.7985,-26.4184,-0.092448,0
52.8523,-26.1442,-0.089782,0
52.9027,-25.8682,-0.0868523,0
52.9437,-25.5903,-0.0840203,0
52.9807,-25.3106,-0.0809441,0
33.4778,-39.6253,0.449652,0
33.7823,-39.8443,0.449652,0
34.0979,-40.0464,0.448636,0
34.4217,-40.2355,0.447015,0
34.7504,-40.4179,0.445394,0
35.0838,-40.5938,0.443782,0
35.4252,-40.7534,0.44137,0
36.0032,-40.1946,0.378474,174
36.1207,-41.0496,0.436458,0
36.6781,-40.4493,0.372626,174
37.0973,-40.2601,0.344529,174
37.1943,-41.4299,0.42846,0
37.5613,-41.5285,0.424798,0
37.9366,-41.5885,0.418685,0
38.3175,-41.6087,0.41013,0
38.9153,-39.9711,0.271286,174
39.2576,-39.9607,0.262671,174
39.4926,-41.1859,0.351104,174
39.8319,-41.6226,0.377904,0
40.2632,-40.1794,0.260039,174
40.5833,-41.543,0.359427,0
40.9246,-37.3644,0.0347333,174
41.1973,-37.2494,0.0226731,174
41.4672,-37.1734,0.0141388,174
41.7375,-37.1403,0.00937523,174
42.007,-37.1053,0.00496651,174
42.3525,-37.6881,0.0477172,174
43.0764,-40.6482,0.270238,0
43.4053,-40.4618,0.255823,0
43.7274,-40.2714,0.241732,0
44.0428,-40.0773,0.228001,0
44.3515,-39.8796,0.214622,0
44.6535,-39.6784,0.201556,0
44.949,-39.4739,0.188841,0
45.2361,-39.2604,0.176009,0
45.5096,-39.0236,0.161937,0
45.7758,-38.7854,0.148294,0
46.035,-38.5459,0.135052,0
46.29,-38.3115,0.122708,0
46.5387,-38.0763,0.110784,0
46.7811,-37.8397,0.0992414,0
47.0171,-37.602,0.08805,0
47.247,-37.3631,0.0772297,0
47.4709,-37.1231,0.0667707,0
47.6877,-36.88,0.0564777,0
47.8934,-36.6278,0.0458625,0
48.0932,-36.3754,0.0356184,0
48.2873,-36.1228,0.0257453,0
48.4786,-35.8741,0.0165754,0
48.6657,-35.6265,0.00788399,0
48.8474,-35.3784,-0.000475388,0
49.0241,-35.13,-0.00850273,0
49.1958,-34.8811,-0.0162078,0
49.3624,-34.6319,-0.0236004,0
49.5243,-34.3823,-0.0306805,0
49.6812,-34.1323,-0.037448,0
49.8337,-33.882,-0.0439129,0
49.9813,-33.6312,-0.0500848,0
50.1284,-33.3835,-0.0556023,0
50.272,-33.1358,-0.0607781,0
50.4115,-32.8876,-0.0656707,0
50.5466,-32.6387,-0.0702703,0
50.6777,-32.3891,-0.074616,0
50.8045,-32.1388,-0.0786883,0
50.9273,-31.8879,-0.0824969,0
51.0462,-31.6362,-0.086032,0
51.1611,-31.3839,-0.0893133,0
51.272,-31.1308,-0.0923113,0
51.3843,-30.8796,-0.0946941,0
51.4931,-30.6276,-0.0967937,0
51.5981,-30.3746,-0.0986395,0
51.6995,-30.1205,-0.100231,0
51.7973,-29.8653,-0.101569,0
51.8914,-29.609,-0.102663,0
51.982,-29.3516,-0.103503,0
52.0671,-29.0924,-0.104216,0
52.1462,-28.8315,-0.104841,0
52.2252,-28.5705,-0.104968,0
52.3094,-28.3104,-0.104264,0
52.3899,-28.0488,-0.103317,0
52.467,-27.7855,-0.102116,0
52.5405,-27.5204,-0.100671,0
52.6098,-27.2536,-0.0990008,0
52.6746,-26.9848,-0.0971551,0
52.7359,-26.7144,-0.0950457,0
52.7937,-26.4422,-0.0926629,0
52.8478,-26.1682,-0.0900262,0
52.8984,-25.8923,-0.087116,0
52.9402,-25.6145,-0.0842742,0
52.9776,-25.335,-0.0812176,0
33.4516,-39.606,0.449652,0
33.7555,-39.8255,0.449652,0
34.07,-40.0297,0.448782,0
34.3933,-40.2193,0.447161,0
34.7216,-40.4023,0.44553,0
35.0546,-40.5788,0.443929,0
35.3948,-40.7411,0.441702,0
35.9754,-40.1789,0.378388,174
36.0901,-41.0376,0.436683,0
36.6328,-40.4949,0.377556,174
37.0716,-40.2362,0.343603,174
37.1627,-41.4198,0.428695,0
37.5292,-41.5207,0.42515,0
37.9034,-41.5863,0.419437,0
38.2845,-41.6073,0.410872,0
38.8839,-39.9828,0.272923,174
39.2276,-39.9652,0.263673,174
39.4599,-41.1947,0.352439,174
39.7992,-41.6215,0.378421,0
40.1743,-41.6301,0.372493,0
40.5506,-41.5516,0.36056,0
40.9008,-37.4016,0.0378874,174
41.1737,-37.256,0.0234409,174
41.4438,-37.18,0.0148603,174
41.7137,-37.1398,0.00951076,174
41.9845,-37.1181,0.00606689,174
42.3087,-37.5344,0.0361976,174
43.0474,-40.6642,0.271507,0
50.2954,-31.7392,-0.0401629,0
50.4124,-31.5024,-0.0438348,0
50.5258,-31.2649,-0.047243,0
50.637,-31.0275,-0.0502312,0
50.7475,-30.7909,-0.0527312,0
50.8544,-30.5533,-0.0549871,0
50.9576,-30.3146,-0.0569793,0
51.055,-30.0738,-0.0589129,0
51.1479,-29.8316,-0.0606609,0
51.237,-29.5884,-0.0621746,0
51.3225,-29.3443,-0.0634539,0
51.4042,-29.0991,-0.0644891,0
51.4823,-28.853,-0.0652801,0
51.5584,-28.6063,-0.0657098,0
51.6404,-28.3611,-0.0651922,0
51.7187,-28.1144,-0.0644402,0
51.7936,-27.866,-0.0634441,0
51.865,-27.6161,-0.0622039,0
51.933,-27.3646,-0.0607195,0
51.9973,-27.1115,-0.0589812,0
52.0583,-26.8568,-0.0570086,0
52.1132,-26.6001,-0.054948,0
52.1568,-26.3413,-0.0532,0
52.199,-26.0813,-0.0510516,0
52.2412,-25.8201,-0.0483758,0
52.2796,-25.5573,-0.0454559,0
52.3141,-25.293,-0.042282,0
34.0901,-38.5095,0.44971,0
34.3729,-38.7061,0.449652,0
34.6608,-38.8979,0.449652,0
34.9568,-39.0771,0.448987,0
35.2609,-39.2419,0.447503,0
35.5763,-39.3819,0.44428,0
35.8959,-39.5127,0.440833,0
36.2187,-39.6363,0.437386,0
36.5445,-39.7528,0.433929,0
36.8688,-39.8775,0.431878,0
37.1966,-39.9949,0.429798,0
37.5278,-40.105,0.427718,0
37.8657,-40.1891,0.423978,0
38.2138,-40.2202,0.416273,0
38.5618,-40.2428,0.408577,0
38.9519,-39.9295,0.372643,174
39.293,-39.9199,0.363805,174
39.6028,-40.2608,0.385521,0
39.9482,-40.2503,0.377884,0
40.2965,-40.1218,0.361023,174
40.6359,-40.1595,0.358861,0
40.9483,-37.2029,0.106926,174
41.2172,-37.0949,0.0947586,174
41.4835,-37.0207,0.0859852,174
41.747,-36.9463,0.0777577,174
42.0107,-36.898,0.0722358,174
42.6164,-39.5799,0.293187,0
42.9282,-39.4356,0.280696,0
43.2331,-39.2773,0.267698,0
43.5323,-39.1146,0.254964,0
43.8256,-38.9475,0.242513,0
44.1131,-38.7762,0.230316,0
44.395,-38.601,0.218402,0
44.672,-38.4252,0.207015,0
44.9441,-38.248,0.196087,0
45.2098,-38.0641,0.185179,0
45.4628,-37.8574,0.172884,0
45.7096,-37.6487,0.160931,0
45.9504,-37.4378,0.14932,0
46.1853,-37.225,0.13804,0
46.4143,-37.0104,0.127093,0
46.6375,-36.7941,0.116468,0
46.855,-36.576,0.106146,0
47.067,-36.3564,0.0961359,0
47.2734,-36.1352,0.0864484,0
47.4784,-35.9193,0.0776594,0
47.6793,-35.7032,0.0692902,0
47.868,-35.4751,0.060257,0
48.0516,-35.2462,0.0515363,0
48.2302,-35.0166,0.0431379,0
48.4039,-34.7863,0.0350715,0
48.5727,-34.5554,0.0273078,0
48.7369,-34.3237,0.0198566,0
48.8963,-34.0915,0.012718,0
49.0512,-33.8586,0.0058625,0
49.2015,-33.625,-0.000690231,0
49.3509,-33.3941,-0.00659843,0
49.4966,-33.163,-0.0121648,0
49.6382,-32.9312,-0.017448,0
49.7755,-32.6985,-0.0224676,0
49.909,-32.465,-0.0272039,0
50.0383,-32.2307,-0.0316863,0
50.1636,-31.9956,-0.0358855,0
50.2849,-31.7597,-0.0398406,0
50.4024,-31.5231,-0.0435223,0
50.516,-31.2856,-0.04695,0
50.6273,-31.0481,-0.0500066,0
50.738,-30.8116,-0.0525262,0
50.8452,-30.574,-0.0548016,0
50.9487,-30.3354,-0.056823,0
51.0467,-30.0948,-0.0587469,0
51.1398,-29.8527,-0.0605145,0
51.2294,-29.6096,-0.0620574,0
51.3152,-29.3656,-0.0633465,0
51.3973,-29.1205,-0.0644109,0
51.4756,-28.8744,-0.0652312,0
51.5513,-28.6276,-0.0657391,0
51.6334,-28.3825,-0.0652508,0
51.712,-28.1359,-0.0645184,0
51.7873,-27.8877,-0.0635418,0
51.8589,-27.6379,-0.0623211,0
51.9272,-27.3866,-0.0608562,0
51.9919,-27.1336,-0.0591375,0
52.053,-26.879,-0.0571941,0
52.1091,-26.6226,-0.0550945,0
52.1532,-26.3639,-0.053366,0
52.1952,-26.1039,-0.0512762,0
52.2377,-25.8429,-0.0486199,0
52.2765,-25.5802,-0.0457195,0
52.3112,-25.316,-0.0425652,0
34.0654,-38.4926,0.449769,0
34.3481,-38.6892,0.449652,0
34.6355,-38.8814,0.449652,0
34.9305,-39.0625,0.449114,0
35.2342,-39.2278,0.44763,0
35.5487,-39.3702,0.444573,0
35.868,-39.5016,0.441126,0
36.1905,-39.6258,0.437679,0
36.516,-39.7429,0.434222,0
36.8405,-39.8669,0.432054,0
37.168,-39.985,0.429984,0
37.4988,-40.0957,0.427894,0
37.8355,-40.186,0.424642,0
38.1835,-40.2178,0.416937,0
38.5315,-40.2412,0.409241,0
38.9208,-39.9402,0.374295,174
39.263,-39.9243,0.364853,174
39.5727,-40.2613,0.386185,0
39.9182,-40.2515,0.378548,0
40.2673,-40.1109,0.360595,174
40.6062,-40.1655,0.359798,0
40.9247,-37.2203,0.108686,174
41.1939,-37.1014,0.0955488,174
41.4604,-37.0272,0.0867266,174
41.7242,-36.9528,0.0784524,174
41.9873,-36.8977,0.0723185,174
42.3515,-37.6708,0.135282,174
42.9014,-39.4492,0.281839,0
43.2068,-39.2913,0.268812,0
43.5065,-39.1289,0.256058,0
43.8002,-38.9622,0.243577,0
44.0884,-38.7913,0.23137,0
44.3707,-38.6164,0.219427,0
44.6481,-38.4405,0.207982,0
44.9207,-38.2635,0.197034,0
45.1876,-38.082,0.186263,0
45.441,-37.8755,0.173939,0
45.6884,-37.6669,0.161956,0
45.9297,-37.4562,0.150316,0
46.1651,-37.2436,0.139017,0
46.3946,-37.0292,0.12803,0
46.6184,-36.8129,0.117366,0
46.8363,-36.595,0.107025,0
47.0487,-36.3755,0.0969953,0
47.2556,-36.1545,0.0872785,0
47.4606,-35.9379,0.0783918,0
47.6627,-35.723,0.0701008,0
47.8518,-35.4949,0.0610188,0
48.0358,-35.2662,0.0522785,0
48.2148,-35.0366,0.0438508,0
48.389,-34.8064,0.0357551,0
48.5582,-34.5755,0.0279719,0
48.7227,-34.3439,0.0205012,0
48.8827,-34.1117,0.0133234,0
49.0379,-33.8788,0.00644844,0
49.1886,-33.6454,-0.000123825,0
49.338,-33.4142,-0.00610039,0
49.4841,-33.1832,-0.0116961,0
49.6261,-32.9514,-0.0169988,0
49.7638,-32.7188,-0.0220477,0
49.8975,-32.4853,-0.0268035,0
50.0272,-32.2511,-0.0313055,0
50.1529,-32.0161,-0.035534,0
50.2745,-31.7803,-0.0395086,0
50.3924,-31.5437,-0.0432098,0
50.5063,-31.3063,-0.0466668,0
50.6173,-31.0686,-0.0497723,0
50.7285,-30.8322,-0.0523211,0
50.836,-30.5947,-0.0546062,0
50.9398,-30.3562,-0.0566473,0
51.0384,-30.1158,-0.0585809,0
51.132,-29.8738,-0.0603777,0
51.2217,-29.6308,-0.0619305,0
51.3079,-29.3869,-0.0632488,0
51.3902,-29.1419,-0.064323,0
51.469,-28.8959,-0.0651726,0
51.544,-28.6489,-0.0657684,0
51.6263,-28.4039,-0.0653094,0
51.7053,-28.1574,-0.0645965,0
51.7808,-27.9094,-0.0636394,0
51.8528,-27.6598,-0.0624383,0
51.9213,-27.4086,-0.060993,0
51.9864,-27.1557,-0.0593035,0
52.0479,-26.9013,-0.0573699,0
52.1052,-26.6451,-0.0552312,0
52.1495,-26.3864,-0.0535223,0
52.1912,-26.1266,-0.0515008,0
52.2341,-25.8657,-0.0488543,0
52.2732,-25.6031,-0.0459734,0
52.3084,-25.3391,-0.0428582,0
34.0408,-38.4757,0.449827,0
34.3234,-38.6722,0.449652,0
34.6104,-38.8649,0.449652,0
34.9042,-39.0478,0.449241,0
35.2077,-39.2136,0.447757,0
35.5211,-39.3584,0.444876,0
35.8401,-39.4904,0.441429,0
36.1623,-39.6153,0.437982,0
36.4876,-39.733,0.434515,0
36.8122,-39.8563,0.43223,0
37.1394,-39.975,0.430169,0
37.47,-40.0863,0.428079,0
37.8052,-40.1828,0.425316,0
38.1532,-40.2154,0.417611,0
38.5012,-40.2395,0.409905,0
38.8895,-39.9518,0.376034,174
39.233,-39.9287,0.365905,174
39.5429,-40.2589,0.386633,174
39.8881,-40.2527,0.379212,0
40.2381,-40.1001,0.36018,174
40.5764,-40.1715,0.360736,0
40.9011,-37.2378,0.110455,174
41.1706,-37.1078,0.096343,174
41.4374,-37.0336,0.0874727,174
41.7013,-36.9593,0.0791519,174
41.964,-36.8973,0.0724043,174
42.3078,-37.5175,0.122663,174
42.8745,-39.4627,0.282982,0
49.8176,-31.4188,-0.00488945,0
49.928,-31.1935,-0.00866875,0
50.0373,-30.9691,-0.0119207,0
50.1445,-30.7446,-0.0148113,0
50.2478,-30.519,-0.0174578,0
50.3474,-30.2925,-0.0198602,0
50.4434,-30.0649,-0.0220379,0
50.5358,-29.8363,-0.0239715,0
50.6245,-29.6067,-0.0256707,0
50.7097,-29.3761,-0.0271355,0
50.7912,-29.1445,-0.0283758,0
50.8691,-28.9119,-0.0293719,0
50.9434,-28.6783,-0.0301434,0
51.0227,-28.4463,-0.0299773,0
51.1,-28.2132,-0.02945,0
51.1738,-27.9786,-0.028698,0
51.2442,-27.7426,-0.0277019,0
51.3112,-27.5051,-0.0264715,0
51.3691,-27.2651,-0.0254559,0
51.4208,-27.0234,-0.0244207,0
51.4688,-26.7806,-0.0231609,0
51.513,-26.5366,-0.0216766,0
51.5534,-26.2914,-0.0199773,0
51.593,-26.0453,-0.0177996,0
51.6315,-25.798,-0.0151824,0
51.6662,-25.5493,-0.0123211,0
51.697,-25.2992,-0.00924492,0
34.5762,-37.5676,0.452689,0
34.8426,-37.7425,0.452142,0
35.1134,-37.9122,0.451605,0
35.3921,-38.0679,0.450179,0
35.6817,-38.2009,0.447005,0
35.9745,-38.3275,0.443841,0
36.2703,-38.4475,0.440638,0
36.569,-38.5609,0.437454,0
36.8705,-38.6676,0.434261,0
37.1745,-38.7676,0.431068,0
37.4805,-38.8622,0.428011,0
37.7873,-38.9578,0.425706,0
38.1066,-38.9966,0.418646,0
38.4263,-39.0277,0.411566,0
38.7458,-39.0511,0.404495,0
39.0652,-39.0668,0.397425,0
39.3841,-39.0748,0.390364,0
39.7025,-39.0753,0.383323,0
40.0202,-39.0682,0.376292,0
40.3373,-39.043,0.368294,0
40.6725,-37.5398,0.226311,174
40.948,-37.0624,0.179119,174
41.2136,-36.9505,0.165894,174
41.4766,-36.878,0.156853,174
41.7369,-36.8052,0.148384,174
41.9987,-36.7707,0.14394,174
42.4842,-38.5183,0.300482,0
42.7772,-38.415,0.29097,0
43.0619,-38.2797,0.279222,0
43.3417,-38.1399,0.267718,0
43.6166,-37.9958,0.256448,0
43.8867,-37.8477,0.245433,0
44.1519,-37.6955,0.234652,0
44.4121,-37.5394,0.224124,0
44.6675,-37.3796,0.213831,0
44.918,-37.2162,0.203773,0
45.1636,-37.0492,0.193958,0
45.3972,-36.8609,0.182718,0
45.6248,-36.6694,0.171683,0
45.8472,-36.4756,0.16096,0
46.0641,-36.2798,0.15053,0
46.2759,-36.082,0.140404,0
46.4866,-35.8904,0.131351,0
46.6933,-35.6979,0.122669,0
46.8952,-35.5033,0.11428,0
47.0924,-35.3068,0.106165,0
47.2851,-35.1085,0.0983234,0
47.4731,-34.9083,0.0907355,0
47.6562,-34.7058,0.0833723,0
47.8274,-34.4919,0.0752473,0
47.9941,-34.2772,0.0674348,0
48.1561,-34.0615,0.0599152,0
48.3136,-33.8449,0.0526887,0
48.4667,-33.6276,0.0457551,0
48.6183,-33.4123,0.0394367,0
48.7665,-33.1967,0.0334797,0
48.9105,-32.9801,0.0277961,0
49.0504,-32.7626,0.0223957,0
49.1864,-32.5442,0.0172395,0
49.3184,-32.3248,0.0123566,0
49.4465,-32.1045,0.00774727,0
49.5707,-31.8833,0.00338203,0
49.6911,-31.6612,-0.000719528,0
49.8077,-31.4382,-0.00455742,0
49.9185,-31.2131,-0.00834648,0
50.0278,-30.9885,-0.0116668,0
50.1352,-30.7641,-0.0145672,0
50.2389,-30.5387,-0.0172332,0
50.3389,-30.3122,-0.0196648,0
50.4352,-30.0847,-0.0218523,0
50.528,-29.8562,-0.0238055,0
50.617,-29.6267,-0.025534,0
50.7024,-29.3962,-0.0270184,0
50.7842,-29.1647,-0.0282781,0
50.8625,-28.9322,-0.0293035,0
50.9371,-28.6987,-0.0300945,0
51.0159,-28.4665,-0.0300066,0
51.0934,-28.2335,-0.0295086,0
51.1675,-27.9991,-0.0287762,0
51.2382,-27.7632,-0.0277996,0
51.3055,-27.5258,-0.0265887,0
51.3643,-27.2861,-0.0255437,0
51.4164,-27.0445,-0.0245184,0
51.4648,-26.8018,-0.0232781,0
51.5092,-26.5579,-0.021823,0
51.5499,-26.3128,-0.0201336,0
51.5895,-26.0668,-0.0180144,0
51.6283,-25.8196,-0.015407,0
51.6634,-25.571,-0.0125848,0
51.6945,-25.321,-0.00951836,0
34.5533,-37.5522,0.452737,0
34.8192,-37.7275,0.452181,0
35.0896,-37.8976,0.451644,0
35.3671,-38.056,0.450462,0
35.6564,-38.1896,0.447288,0
35.9488,-38.3168,0.444114,0
36.2445,-38.4374,0.440931,0
36.5428,-38.5513,0.437737,0
36.8441,-38.6586,0.434534,0
37.1479,-38.7591,0.431341,0
37.4541,-38.8532,0.428167,0
37.7598,-38.9532,0.426234,0
38.0789,-38.9936,0.419261,0
38.3984,-39.0253,0.412191,0
38.718,-39.0494,0.405111,0
39.0373,-39.0657,0.39804,0
39.3563,-39.0745,0.39098,0
39.6748,-39.0756,0.383929,0
39.9925,-39.0691,0.376898,0
40.3096,-39.0475,0.369173,0
40.6462,-37.6642,0.23801,174
40.9247,-37.0795,0.180963,174
41.1906,-36.9568,0.166709,174
41.4538,-36.8843,0.157616,174
41.7144,-36.8116,0.149099,174
41.9747,-36.7615,0.14321,174
42.3505,-37.6535,0.222704,174
42.7523,-38.4266,0.291995,0
43.0373,-38.2916,0.280228,0
43.3176,-38.1522,0.268704,0
43.5929,-38.0086,0.257425,0
43.8634,-37.8607,0.24638,0
44.129,-37.7089,0.235589,0
44.3897,-37.5531,0.225032,0
44.6455,-37.3936,0.21472,0
44.8964,-37.2305,0.204642,0
45.1424,-37.0638,0.194798,0
45.377,-36.8775,0.183695,0
45.6052,-36.6861,0.17264,0
45.828,-36.4926,0.161878,0
46.0455,-36.2969,0.151429,0
46.2577,-36.0993,0.141273,0
46.4684,-35.9071,0.132113,0
46.6755,-35.7147,0.123421,0
46.8778,-35.5203,0.115003,0
47.0754,-35.324,0.106859,0
47.2685,-35.1258,0.0989875,0
47.4569,-34.9258,0.0913898,0
47.6409,-34.724,0.0840559,0
47.8127,-34.5106,0.0759406,0
47.9797,-34.2959,0.0680988,0
48.1421,-34.0803,0.06055,0
48.3001,-33.8638,0.0533039,0
48.4536,-33.6465,0.046341,0
48.6053,-33.431,0.0399738,0
48.7537,-33.2155,0.0339875,0
48.8981,-32.999,0.0282746,0
49.0384,-32.7816,0.0228449,0
49.1748,-32.5632,0.0176789,0
49.307,-32.3439,0.0127766,0
49.4355,-32.1237,0.00813789,0
49.56,-31.9026,0.00374336,0
49.6807,-31.6806,-0.000377731,0
49.7977,-31.4577,-0.00424492,0
49.9091,-31.2328,-0.00802422,0
50.0183,-31.008,-0.0114031,0
50.126,-30.7837,-0.014323,0
50.23,-30.5583,-0.0170086,0
50.3303,-30.332,-0.0194598,0
50.427,-30.1046,-0.0216668,0
50.5201,-29.8762,-0.0236492,0
50.6094,-29.6468,-0.0253973,0
50.6951,-29.4163,-0.0269012,0
50.7773,-29.1849,-0.0281707,0
50.8558,-28.9525,-0.0292156,0
50.9307,-28.7191,-0.0300359,0
51.009,-28.4867,-0.0300359,0
51.0868,-28.2538,-0.0295672,0
51.1612,-28.0196,-0.0288445,0
51.2322,-27.7838,-0.0278973,0
51.2998,-27.5465,-0.0267059,0
51.3597,-27.307,-0.0256219,0
51.412,-27.0656,-0.024616,0
51.4607,-26.8229,-0.0233953,0
51.5055,-26.5792,-0.02195,0
51.5466,-26.3342,-0.0202898,0
51.5859,-26.0883,-0.0182293,0
51.6251,-25.8412,-0.0156414,0
51.6604,-25.5927,-0.0128387,0
51.692,-25.3428,-0.00979179,0
34.5304,-37.5367,0.452796,0
34.7959,-37.7124,0.45223,0
35.0659,-37.883,0.451693,0
35.3421,-38.0441,0.450726,0
35.6311,-38.1782,0.447562,0
35.9233,-38.3059,0.444388,0
36.2186,-38.4271,0.441204,0
36.5167,-38.5417,0.438011,0
36.8177,-38.6496,0.434818,0
37.1213,-38.7507,0.431614,0
37.4275,-38.8449,0.428411,0
37.733,-38.9448,0.426409,0
38.0511,-38.9904,0.419876,0
38.3705,-39.0229,0.412806,0
38.6902,-39.0476,0.405726,0
39.0095,-39.0646,0.398665,0
39.3286,-39.074,0.391595,0
39.6471,-39.0758,0.384554,0
39.9649,-39.07,0.377513,0
40.282,-39.0518,0.370042,0
40.5983,-38.9981,0.360042,0
40.9014,-37.0965,0.182816,174
41.1676,-36.9631,0.167528,174
41.4311,-36.8907,0.158385,174
41.6918,-36.8179,0.149818,174
41.9521,-36.7654,0.143659,174
42.3069,-37.5007,0.208992,174
42.7272,-38.4381,0.29304,0
49.3723,-31.1202,0.0256477,0
49.4822,-30.9092,0.0223762,0
49.5885,-30.6973,0.0193293,0
49.6912,-30.4842,0.0165266,0
49.7904,-30.2701,0.0139582,0
49.8859,-30.055,0.0116242,0
49.978,-29.8388,0.00951485,0
50.0664,-29.6216,0.00763008,0
50.1513,-29.4034,0.00597969,0
50.2328,-29.1841,0.00455391,0
50.3107,-28.9638,0.00335274,0
50.3851,-28.7426,0.00238594,0
50.461,-28.522,0.00209297,0
50.5374,-28.3013,0.00239571,0
50.6073,-28.0783,0.00263008,0
50.6705,-27.8533,0.00278633,0
50.73,-27.6271,0.00316719,0
50.7859,-27.3997,0.00375313,0
50.8381,-27.1713,0.00456367,0
50.8867,-26.9418,0.0055793,0
50.9316,-26.7112,0.00681953,0
50.9728,-26.4794,0.00825508,0
51.0103,-26.2466,0.00991524,0
51.0477,-26.013,0.0121223,0
51.083,-25.7782,0.0146809,0
51.1146,-25.5421,0.0174641,0
51.1424,-25.3048,0.0204719,0
34.9978,-36.7511,0.455277,0
35.2472,-36.9121,0.454759,0
35.5086,-37.0509,0.452288,0
35.7752,-37.1799,0.449349,0
36.0447,-37.303,0.446409,0
36.3172,-37.42,0.44345,0
36.5924,-37.5309,0.440501,0
36.8704,-37.6355,0.437523,0
37.1509,-37.734,0.434544,0
37.4337,-37.8262,0.431575,0
37.7188,-37.9119,0.428597,0
38.0127,-37.9613,0.422523,0
38.3084,-37.998,0.415853,0
38.6043,-38.0279,0.409212,0
38.9002,-38.0508,0.402591,0
39.1959,-38.0668,0.395989,0
39.4913,-38.076,0.389427,0
39.7863,-38.0784,0.382884,0
40.0806,-38.0741,0.37639,0
40.3745,-38.0543,0.369066,0
40.6765,-37.3267,0.29284,174
40.9478,-36.9251,0.249705,174
41.2101,-36.8095,0.235384,174
41.4709,-36.7567,0.227855,174
41.7307,-36.713,0.221833,174
41.998,-36.7532,0.224605,174
42.374,-37.6324,0.309564,0
42.6489,-37.5478,0.301409,0
42.9167,-37.4333,0.290999,0
43.1791,-37.3079,0.280179,0
43.4372,-37.1783,0.269573,0
43.6909,-37.0446,0.259183,0
43.9402,-36.907,0.249017,0
44.1851,-36.7655,0.239075,0
44.4256,-36.6203,0.229339,0
44.6616,-36.4715,0.219827,0
44.8933,-36.3192,0.21054,0
45.1205,-36.1635,0.201468,0
45.3393,-35.9954,0.191693,0
45.5541,-35.8259,0.182298,0
45.7642,-35.654,0.173177,0
45.9698,-35.4797,0.16432,0
46.1712,-35.3032,0.155736,0
46.368,-35.1246,0.147415,0
46.5604,-34.9438,0.139359,0
46.7485,-34.7611,0.131556,0
46.9323,-34.5763,0.124017,0
47.1117,-34.3896,0.116722,0
47.287,-34.2011,0.109681,0
47.4581,-34.0107,0.102894,0
47.625,-33.8187,0.0963605,0
47.7816,-33.6176,0.0892121,0
47.9355,-33.4173,0.082552,0
48.0859,-33.2162,0.0762141,0
48.2321,-33.0141,0.0701594,0
48.3737,-32.81,0.0642707,0
48.5111,-32.6047,0.0586164,0
48.6445,-32.3983,0.0532063,0
48.7738,-32.1909,0.0480598,0
48.8994,-31.9824,0.0431574,0
49.021,-31.7729,0.0384992,0
49.1387,-31.5625,0.0340852,0
49.2527,-31.351,0.0299152,0
49.3629,-31.1387,0.0259797,0
49.4728,-30.9276,0.0226496,0
49.5794,-30.7158,0.019593,0
49.6824,-30.5028,0.0167707,0
49.7819,-30.2888,0.014173,0
49.8777,-30.0738,0.0118195,0
49.97,-29.8577,0.00969063,0
50.0588,-29.6406,0.0077961,0
50.1441,-29.4224,0.00610664,0
50.2258,-29.2032,0.0046711,0
50.3041,-28.9831,0.00345039,0
50.3787,-28.7619,0.00246407,0
50.4542,-28.5411,0.00208321,0
50.5309,-28.3205,0.00236641,0
50.6017,-28.0978,0.00262032,0
50.6651,-27.8729,0.0027668,0
50.725,-27.6468,0.00312813,0
50.7812,-27.4196,0.0037043,0
50.8337,-27.1912,0.00447578,0
50.8827,-26.9618,0.00548164,0
50.9279,-26.7313,0.00670235,0
50.9694,-26.4996,0.00812813,0
51.0072,-26.2669,0.00977852,0
51.0445,-26.0334,0.0119172,0
51.0801,-25.7987,0.0144465,0
51.112,-25.5627,0.0172102,0
51.1402,-25.3255,0.0201984,0
34.9762,-36.7369,0.455316,0
35.2254,-36.8983,0.454808,0
35.4856,-37.0394,0.452542,0
35.7519,-37.1689,0.449612,0
36.0211,-37.2925,0.446663,0
36.2934,-37.41,0.443704,0
36.5684,-37.5214,0.440755,0
36.8461,-37.6267,0.437777,0
37.1263,-37.7257,0.434818,0
37.409,-37.8184,0.431839,0
37.6939,-37.9047,0.428861,0
37.987,-37.9578,0.423099,0
38.2827,-37.9951,0.416439,0
38.5785,-38.0255,0.409788,0
38.8745,-38.0491,0.403167,0
39.1702,-38.0657,0.396566,0
39.4656,-38.0755,0.389993,0
39.7607,-38.0785,0.38346,0
40.0551,-38.0747,0.376946,0
40.349,-38.0571,0.369779,0
40.6517,-37.3831,0.298749,174
40.9248,-36.9417,0.251627,174
41.1873,-36.8157,0.236222,174
41.4483,-36.7605,0.228406,174
41.7082,-36.7168,0.222335,174
41.9735,-36.7381,0.223207,174
42.3499,-37.6395,0.310286,0
42.6252,-37.5553,0.302112,0
42.8936,-37.444,0.291956,0
43.1565,-37.319,0.281107,0
43.4149,-37.1897,0.270482,0
43.669,-37.0564,0.260081,0
43.9187,-36.9191,0.249896,0
44.164,-36.778,0.239925,0
44.4048,-36.6331,0.230179,0
44.6413,-36.4846,0.220648,0
44.8733,-36.3325,0.211341,0
45.1009,-36.1771,0.202249,0
45.3204,-36.01,0.192523,0
45.5355,-35.8407,0.183099,0
45.7461,-35.669,0.173958,0
45.9523,-35.495,0.165081,0
46.1538,-35.3187,0.156468,0
46.351,-35.1402,0.148128,0
46.5438,-34.9596,0.140042,0
46.7323,-34.7771,0.13223,0
46.9165,-34.5925,0.124661,0
47.0963,-34.406,0.117357,0
47.272,-34.2176,0.110296,0
47.4434,-34.0274,0.10348,0
47.6105,-33.8355,0.0969172,0
47.7681,-33.6353,0.0898273,0
47.9223,-33.4347,0.0831086,0
48.0729,-33.2338,0.0767609,0
48.2196,-33.0317,0.070677,0
48.3616,-32.8279,0.0647688,0
48.4993,-32.6226,0.0590949,0
48.633,-32.4163,0.053675,0
48.7628,-32.209,0.0484992,0
48.8886,-32.0006,0.0435773,0
49.0106,-31.7912,0.0388898,0
49.1287,-31.5808,0.0344563,0
49.243,-31.3695,0.0302668,0
49.3534,-31.1572,0.0263117,0
49.4633,-30.946,0.022923,0
49.5703,-30.7343,0.0198469,0
49.6736,-30.5214,0.0170051,0
49.7733,-30.3075,0.0143879,0
49.8695,-30.0925,0.0120148,0
49.9622,-29.8765,0.00986641,0
50.0513,-29.6595,0.00794258,0
50.1368,-29.4414,0.00625313,0
50.2188,-29.2224,0.00478828,0
50.2973,-29.0023,0.00354805,0
50.3723,-28.7812,0.00253242,0
50.4473,-28.5602,0.00207344,0
50.5245,-28.3398,0.00232735,0
50.5959,-28.1174,0.00262032,0
50.6598,-27.8925,0.00274727,0
50.7199,-27.6665,0.00308907,0
50.7764,-27.4394,0.00363594,0
50.8293,-27.2112,0.00439766,0
50.8784,-26.9818,0.00538399,0
50.924,-26.7514,0.00658516,0
50.9659,-26.5198,0.00799141,0
51.0041,-26.2872,0.00962227,0
51.0412,-26.0537,0.0117023,0
51.0771,-25.8192,0.0142219,0
51.1094,-25.5833,0.016966,0
51.1378,-25.3462,0.0199348,0
34.9548,-36.7226,0.455355,0
35.2035,-36.8845,0.454847,0
35.4626,-37.0279,0.452796,0
35.7286,-37.1579,0.449866,0
35.9976,-37.282,0.446917,0
36.2695,-37.4,0.443968,0
36.5444,-37.512,0.440999,0
36.8218,-37.6178,0.43804,0
37.1018,-37.7173,0.435071,0
37.3843,-37.8106,0.432093,0
37.669,-37.8974,0.429124,0
37.9613,-37.9542,0.423675,0
38.257,-37.9921,0.417015,0
38.5527,-38.0232,0.410374,0
38.8487,-38.0473,0.403743,0
39.1445,-38.0645,0.397142,0
39.44,-38.0749,0.39057,0
39.7351,-38.0785,0.384027,0
40.0295,-38.0753,0.377513,0
40.3234,-38.0599,0.370501,0
40.6266,-37.4401,0.304724,174
40.9017,-36.9584,0.25356,174
41.1646,-36.8218,0.237064,174
41.4256,-36.7643,0.228961,174
41.6856,-36.7206,0.222841,174
41.9493,-36.7265,0.222157,174
42.3106,-37.5213,0.298839,174
42.6012,-37.5629,0.302816,0
48.9731,-30.8525,0.0538605,0
49.0788,-30.652,0.050677,0
49.181,-30.4505,0.047718,0
49.2796,-30.2478,0.0450031,0
49.3748,-30.0441,0.0425031,0
49.4666,-29.8393,0.0402277,0
49.5549,-29.6334,0.038177,0
49.6398,-29.4265,0.0363508,0
49.7212,-29.2185,0.0347395,0
49.7992,-29.0096,0.0333527,0
49.8702,-28.7982,0.0318293,0
49.9382,-28.5863,0.0305695,0
50.0086,-28.3754,0.0301203,0
50.0755,-28.1633,0.0298664,0
50.1391,-27.9501,0.0298273,0
50.199,-27.7358,0.0299934,0
50.2554,-27.5204,0.0303742,0
50.3083,-27.304,0.0309504,0
50.3576,-27.0865,0.0317414,0
50.4034,-26.8679,0.0327277,0
50.4455,-26.6483,0.0339387,0
50.4841,-26.4277,0.0353449,0
50.5191,-26.2061,0.0369758,0
50.5545,-25.9837,0.0391926,0
50.587,-25.7603,0.0416926,0
50.6159,-25.5356,0.0443977,0
50.641,-25.3098,0.0473273,0
35.3701,-36.0301,0.456741,0
35.6129,-36.1618,0.454114,0
35.8591,-36.2873,0.45138,0
36.1084,-36.4073,0.448636,0
36.3605,-36.5217,0.445882,0
36.6153,-36.6305,0.443118,0
36.8727,-36.7335,0.440355,0
37.1325,-36.8307,0.437581,0
37.3947,-36.9221,0.434808,0
37.6591,-37.0076,0.432025,0
37.9302,-37.0685,0.427171,0
38.2051,-37.1108,0.42095,0
38.4805,-37.1467,0.414739,0
38.756,-37.1761,0.408548,0
39.0316,-37.1991,0.402376,0
39.3073,-37.2157,0.396224,0
39.5827,-37.2259,0.390091,0
39.8577,-37.2297,0.383997,0
40.1323,-37.2272,0.377923,0
40.4066,-37.2085,0.370833,0
40.68,-37.1474,0.359997,174
40.9486,-36.8915,0.329346,174
41.2083,-36.723,0.30868,174
41.467,-36.668,0.300641,174
41.7248,-36.6248,0.294499,174
41.9992,-36.7548,0.30712,174
42.2776,-36.8576,0.317513,0
42.5355,-36.7811,0.309847,0
42.7892,-36.6903,0.301341,0
43.0362,-36.5769,0.291126,0
43.2794,-36.4595,0.281097,0
43.5186,-36.338,0.271282,0
43.7538,-36.2126,0.261663,0
43.985,-36.0835,0.252239,0
44.2139,-35.9558,0.243568,0
44.4393,-35.8257,0.235228,0
44.6612,-35.6922,0.227103,0
44.8792,-35.5553,0.219183,0
45.0934,-35.415,0.211468,0
45.3003,-35.2634,0.20305,0
45.5006,-35.1038,0.1943,0
45.6967,-34.9419,0.185814,0
45.8887,-34.7776,0.177562,0
46.0766,-34.6111,0.169583,0
46.2604,-34.4425,0.161829,0
46.4402,-34.2717,0.154329,0
46.6158,-34.0988,0.147073,0
46.7874,-33.924,0.140052,0
46.9551,-33.7473,0.133275,0
47.1187,-33.5687,0.126732,0
47.2785,-33.3883,0.120433,0
47.4344,-33.2061,0.114359,0
47.5863,-33.0222,0.108519,0
47.7318,-32.8339,0.102532,0
47.8716,-32.6424,0.0965559,0
48.0076,-32.4496,0.0908332,0
48.1397,-32.2557,0.0853449,0
48.268,-32.0605,0.0801008,0
48.3926,-31.8643,0.075091,0
48.5134,-31.6669,0.0703352,0
48.6305,-31.4685,0.0658234,0
48.7437,-31.269,0.0615266,0
48.8543,-31.0691,0.0575715,0
48.9637,-30.8699,0.0541438,0
49.0697,-30.6695,0.0509406,0
49.1723,-30.4681,0.0479719,0
49.2712,-30.2655,0.0452277,0
49.3667,-30.0618,0.0427082,0
49.4587,-29.8571,0.0404231,0
49.5473,-29.6513,0.038343,0
49.6326,-29.4445,0.0364973,0
49.7143,-29.2367,0.0348762,0
49.7927,-29.0278,0.0334699,0
49.8643,-28.8167,0.0319758,0
49.9319,-28.6045,0.0306184,0
50.0027,-28.3937,0.0301496,0
50.0699,-28.1818,0.0298859,0
50.1337,-27.9687,0.0298273,0
50.1939,-27.7545,0.0299738,0
50.2505,-27.5392,0.0303352,0
50.3038,-27.3229,0.0308918,0
50.3534,-27.1054,0.0316633,0
50.3995,-26.887,0.0326398,0
50.442,-26.6674,0.0338215,0
50.4809,-26.4469,0.035218,0
50.5162,-26.2254,0.0368195,0
50.5516,-26.0031,0.0389875,0
50.5844,-25.7798,0.0414582,0
50.6134,-25.5552,0.0441535,0
50.639,-25.3295,0.0470734,0
35.3491,-36.0181,0.456937,0
35.5916,-36.1506,0.454349,0
35.8376,-36.2766,0.451614,0
36.0866,-36.3971,0.44888,0
36.3384,-36.512,0.446126,0
36.593,-36.6212,0.443363,0
36.8502,-36.7248,0.440599,0
37.1098,-36.8225,0.437816,0
37.3717,-36.9144,0.435042,0
37.6359,-37.0004,0.432269,0
37.9062,-37.0645,0.427718,0
38.1811,-37.1074,0.421487,0
38.4565,-37.1438,0.415286,0
38.732,-37.1738,0.409085,0
39.0077,-37.1973,0.402913,0
39.2834,-37.2145,0.396761,0
39.5588,-37.2252,0.390618,0
39.8338,-37.2296,0.384525,0
40.1084,-37.2277,0.37845,0
40.3827,-37.2109,0.371497,0
40.6559,-37.1805,0.363821,0
40.9257,-36.9107,0.331652,174
41.186,-36.7358,0.310248,174
41.4445,-36.6718,0.301207,174
41.7024,-36.6286,0.29501,174
41.9733,-36.7256,0.304132,174
42.255,-36.864,0.318187,0
42.5132,-36.7879,0.310511,0
42.7675,-36.7,0.302239,0
43.0148,-36.587,0.292005,0
43.2584,-36.4699,0.281966,0
43.4979,-36.3487,0.272132,0
43.7334,-36.2237,0.262484,0
43.9651,-36.0949,0.25306,0
44.1941,-35.9669,0.24431,0
44.4198,-35.8372,0.23595,0
44.642,-35.7039,0.227796,0
44.8603,-35.5673,0.219857,0
45.075,-35.4274,0.212122,0
45.2827,-35.2772,0.203831,0
45.4834,-35.1178,0.195052,0
45.6798,-34.9561,0.186536,0
45.8722,-34.792,0.178275,0
46.0604,-34.6257,0.170257,0
46.2445,-34.4572,0.162493,0
46.4246,-34.2866,0.154974,0
46.6006,-34.114,0.147698,0
46.7726,-33.9393,0.140657,0
46.9406,-33.7628,0.133851,0
47.1047,-33.5843,0.127298,0
47.2648,-33.4041,0.12097,0
47.4209,-33.222,0.114876,0
47.5732,-33.0383,0.109017,0
47.7195,-32.8505,0.10307,0
47.8596,-32.6591,0.0970734,0
47.9959,-32.4664,0.0913117,0
48.1284,-32.2726,0.0858039,0
48.257,-32.0776,0.08055,0
48.3819,-31.8814,0.0755207,0
48.503,-31.6841,0.0707453,0
48.6204,-31.4858,0.0662043,0
48.7341,-31.2864,0.0618977,0
48.8446,-31.0864,0.057884,0
48.9545,-30.8873,0.054427,0
49.0607,-30.687,0.0512141,0
49.1634,-30.4856,0.0482258,0
49.2627,-30.2832,0.0454621,0
49.3586,-30.0796,0.042923,0
49.4509,-29.875,0.0405988,0
49.5398,-29.6693,0.0385188,0
49.6252,-29.4626,0.0366535,0
49.7073,-29.2548,0.0350031,0
49.7859,-29.046,0.0335773,0
49.8584,-28.8352,0.0321125,0
49.9256,-28.6229,0.0306672,0
49.9966,-28.4121,0.0301789,0
50.0642,-28.2003,0.0299055,0
50.1283,-27.9873,0.0298273,0
50.1888,-27.7732,0.0299543,0
50.2459,-27.558,0.0302863,0
50.2993,-27.3417,0.0308332,0
50.3493,-27.1244,0.0315852,0
50.3956,-26.906,0.032552,0
50.4384,-26.6866,0.0337141,0
50.4777,-26.4662,0.035091,0
50.5133,-26.2447,0.0366731,0
50.5485,-26.0225,0.0387824,0
50.5816,-25.7992,0.0412336,0
50.6111,-25.5748,0.0439094,0
50.6369,-25.3492,0.0468098,0
35.3284,-36.0061,0.457132,0
35.5703,-36.1394,0.454583,0
35.8161,-36.2659,0.451859,0
36.0648,-36.3868,0.449105,0
36.3164,-36.5022,0.446361,0
36.5707,-36.612,0.443607,0
36.8277,-36.716,0.440833,0
37.0871,-36.8142,0.43806,0
37.3489,-36.9066,0.435286,0
37.6129,-36.9931,0.432513,0
37.8823,-37.0605,0.428265,0
38.1572,-37.1039,0.422034,0
38.4325,-37.1409,0.415814,0
38.708,-37.1715,0.409622,0
38.9837,-37.1956,0.403441,0
39.2594,-37.2132,0.397298,0
39.5348,-37.2245,0.391155,0
39.8099,-37.2295,0.385052,0
40.0845,-37.2281,0.378978,0
40.3589,-37.2132,0.372171,0
40.6322,-37.1834,0.364486,0
40.9027,-36.9299,0.333971,174
41.1636,-36.7485,0.311825,174
41.4221,-36.676,0.301825,174
41.68,-36.6324,0.295525,174
41.9483,-36.7057,0.302106,174
42.2324,-36.8704,0.318861,0
42.4908,-36.7948,0.311175,0
48.6093,-30.6084,0.0795734,0
48.7109,-30.4175,0.0764875,0
48.8092,-30.2253,0.0736164,0
48.9041,-30.0321,0.0709699,0
48.9958,-29.8378,0.0685383,0
49.0825,-29.6416,0.0661652,0
49.1633,-29.4432,0.0637043,0
49.2405,-29.2438,0.0614484,0
49.3141,-29.0436,0.0593977,0
49.3841,-28.8425,0.0575324,0
49.4509,-28.6406,0.0559113,0
49.5216,-28.4405,0.0552668,0
49.5887,-28.2392,0.0548371,0
49.6526,-28.0369,0.0546027,0
49.713,-27.8335,0.0545734,0
49.7701,-27.629,0.0547395,0
49.8237,-27.4234,0.0551105,0
49.8738,-27.2169,0.055677,0
49.9205,-27.0093,0.0564484,0
49.9637,-26.8007,0.057425,0
50.0035,-26.5912,0.0585969,0
50.0398,-26.3807,0.0599836,0
50.0727,-26.1692,0.0615754,0
50.1062,-25.9571,0.0637922,0
50.1362,-25.744,0.0662238,0
50.1627,-25.5297,0.0688703,0
50.1856,-25.3144,0.0717316,0
35.7158,-35.3602,0.45346,0
35.9423,-35.4855,0.451312,0
36.172,-35.6056,0.449134,0
36.4046,-35.7205,0.446927,0
36.6401,-35.8301,0.444691,0
36.8782,-35.9342,0.442435,0
37.1188,-36.0329,0.44015,0
37.3627,-36.1243,0.43763,0
37.6087,-36.2095,0.435032,0
37.8595,-36.2793,0.431224,0
38.1162,-36.3263,0.425404,0
38.3733,-36.3672,0.419583,0
38.6309,-36.4021,0.413763,0
38.8888,-36.431,0.407972,0
39.1468,-36.4539,0.402181,0
39.4048,-36.4707,0.396419,0
39.6627,-36.4816,0.390677,0
39.9203,-36.4865,0.384954,0
40.1775,-36.4855,0.379271,0
40.4345,-36.4677,0.372366,0
40.6904,-36.4409,0.365179,0
40.9448,-36.4085,0.35803,0
41.1977,-36.3705,0.35096,0
41.449,-36.3269,0.343948,0
41.6983,-36.2778,0.337005,0
41.9457,-36.2233,0.33014,0
42.1912,-36.1635,0.323343,0
42.4345,-36.0985,0.316624,0
42.6757,-36.0291,0.310071,0
42.9109,-35.9358,0.301507,0
43.142,-35.8336,0.292562,0
43.3698,-35.7275,0.283821,0
43.5941,-35.6177,0.275286,0
43.8152,-35.5042,0.266937,0
44.0327,-35.3872,0.258782,0
44.2469,-35.2667,0.250814,0
44.4577,-35.1427,0.24306,0
44.6651,-35.0154,0.235491,0
44.8688,-34.8849,0.228109,0
45.0693,-34.7512,0.220941,0
45.2635,-34.609,0.213314,0
45.4509,-34.4579,0.20514,0
45.6345,-34.3043,0.19722,0
45.8141,-34.1485,0.189534,0
45.9899,-33.9905,0.182083,0
46.162,-33.8303,0.174857,0
46.3302,-33.668,0.167874,0
46.4945,-33.5037,0.161107,0
46.6552,-33.3375,0.154583,0
46.8121,-33.1693,0.148265,0
46.9653,-32.9993,0.142181,0
47.1148,-32.8274,0.136321,0
47.2605,-32.6538,0.130687,0
47.4027,-32.4785,0.125267,0
47.5411,-32.3016,0.120062,0
47.675,-32.1222,0.114954,0
47.8023,-31.9384,0.109632,0
47.9258,-31.7534,0.104544,0
48.0459,-31.5673,0.0996906,0
48.1622,-31.3799,0.0950617,0
48.275,-31.1915,0.090677,0
48.386,-31.0032,0.0867414,0
48.4948,-30.8147,0.0831867,0
48.6002,-30.625,0.0798566,0
48.7023,-30.4341,0.0767512,0
48.8008,-30.2421,0.0738605,0
48.896,-30.049,0.0711945,0
48.9879,-29.8547,0.0687434,0
49.0754,-29.6589,0.0663996,0
49.1564,-29.4605,0.0639191,0
49.2339,-29.2612,0.0616438,0
49.3078,-29.061,0.0595637,0
49.3781,-28.86,0.0576887,0
49.4451,-28.6581,0.0560188,0
49.5155,-28.4579,0.0553156,0
49.5831,-28.2568,0.0548664,0
49.6472,-28.0546,0.0546223,0
49.708,-27.8512,0.0545637,0
49.7652,-27.6468,0.0547199,0
49.8191,-27.4414,0.0550715,0
49.8696,-27.2349,0.0556281,0
49.9166,-27.0274,0.0563801,0
49.9602,-26.8189,0.0573371,0
50.0002,-26.6094,0.0584895,0
50.0367,-26.399,0.0598566,0
50.0698,-26.1877,0.0614094,0
50.1034,-25.9757,0.0635969,0
50.1337,-25.7625,0.066009,0
50.1605,-25.5484,0.0686359,0
50.1838,-25.3332,0.071468,0
35.6963,-35.349,0.453655,0
35.9226,-35.4748,0.451507,0
36.1519,-35.5954,0.44932,0
36.3843,-35.7107,0.447122,0
36.6195,-35.8208,0.444896,0
36.8574,-35.9254,0.44263,0
37.0978,-36.0245,0.440345,0
37.3412,-36.1166,0.437855,0
37.5873,-36.2023,0.435257,0
37.8373,-36.2749,0.431741,0
38.0938,-36.3224,0.425911,0
38.3509,-36.3639,0.420081,0
38.6084,-36.3993,0.414271,0
38.8663,-36.4287,0.40847,0
39.1243,-36.4521,0.402689,0
39.3823,-36.4695,0.396927,0
39.6402,-36.4809,0.391175,0
39.8979,-36.4863,0.385462,0
40.1551,-36.4858,0.379759,0
40.4122,-36.4697,0.373001,0
40.6682,-36.4435,0.365794,0
40.9227,-36.4116,0.358655,0
41.1758,-36.374,0.351566,0
41.4272,-36.3309,0.344564,0
41.6766,-36.2823,0.337611,0
41.9243,-36.2283,0.330736,0
42.1699,-36.1689,0.323929,0
42.4134,-36.1044,0.31721,0
42.6548,-36.0352,0.310628,0
42.8907,-35.9445,0.302288,0
43.122,-35.8426,0.293343,0
43.35,-35.7369,0.284573,0
43.5747,-35.6274,0.276009,0
43.796,-35.5143,0.26765,0
44.0139,-35.3975,0.259486,0
44.2284,-35.2773,0.251507,0
44.4395,-35.1536,0.243724,0
44.6471,-35.0266,0.236146,0
44.8513,-34.8964,0.228743,0
45.052,-34.763,0.221556,0
45.247,-34.6221,0.214036,0
45.4347,-34.4711,0.205853,0
45.6186,-34.3178,0.197894,0
45.7987,-34.1621,0.190189,0
45.9748,-34.0043,0.182728,0
46.1471,-33.8443,0.175472,0
46.3156,-33.6822,0.16847,0
46.4804,-33.5181,0.161693,0
46.6414,-33.352,0.15514,0
46.7986,-33.184,0.148812,0
46.9521,-33.0141,0.142708,0
47.102,-32.8425,0.136829,0
47.248,-32.669,0.131165,0
47.3904,-32.4939,0.125726,0
47.5291,-32.3171,0.120511,0
47.6637,-32.1381,0.115423,0
47.7913,-31.9545,0.110091,0
47.9152,-31.7696,0.104974,0
48.0355,-31.5835,0.100111,0
48.1522,-31.3963,0.0954621,0
48.2653,-31.2079,0.091048,0
48.3765,-31.0196,0.0870637,0
48.4855,-30.8312,0.0834895,0
48.5912,-30.6416,0.0801398,0
48.6935,-30.4508,0.0770051,0
48.7923,-30.2589,0.0740949,0
48.8879,-30.0658,0.0714191,0
48.9801,-29.8717,0.0689484,0
49.0681,-29.6761,0.0666145,0
49.1495,-29.4778,0.0641242,0
49.2273,-29.2786,0.0618293,0
49.3016,-29.0785,0.0597395,0
49.3722,-28.8775,0.0578449,0
49.4393,-28.6757,0.0561555,0
49.5095,-28.4754,0.0553645,0
49.5773,-28.2744,0.0548957,0
49.6417,-28.0722,0.054632,0
49.7027,-27.869,0.0545637,0
49.7604,-27.6647,0.0547004,0
49.8145,-27.4593,0.0550324,0
49.8653,-27.2529,0.0555598,0
49.9127,-27.0455,0.0563117,0
49.9565,-26.8371,0.0572492,0
49.9969,-26.6277,0.058382,0
50.0337,-26.4174,0.0597199,0
50.067,-26.2061,0.0612727,0
