39.6169,-1.87818,0.797376,0
39.5295,-1.44996,0.805794,0
40.5827,-0.686035,0.908275,0
42.2952,0.346602,1.06861,0
43.3456,1.24592,1.179,0
43.8684,2.013,1.24901,0
44.4041,2.82245,1.3234,0
32.7294,-1.48614,0.33702,174
32.2829,-1.37005,0.314172,174
32.0573,-1.16669,0.311047,174
31.908,-0.930733,0.31536,174
31.8022,-0.672832,0.324448,174
21.2643,-15.7086,0.42182,0
21.482,-15.8018,0.423294,0
21.7041,-15.8919,0.424827,0
21.9308,-15.979,0.426429,0
22.162,-16.0627,0.428099,0
22.3977,-16.1429,0.429818,0
22.638,-16.2196,0.431614,0
22.8827,-16.2924,0.43348,0
23.1273,-16.3374,0.432757,0
23.3737,-16.3721,0.431419,0
23.6233,-16.4021,0.430159,0
23.8757,-16.4274,0.428958,0
24.131,-16.4478,0.427835,0
24.3891,-16.4631,0.426771,0
24.6501,-16.4732,0.425784,0
24.9137,-16.478,0.424876,0
25.1798,-16.4774,0.424046,0
25.4509,-16.4763,0.42387,0
25.7093,-16.4365,0.420159,0
25.9684,-16.3904,0.416487,0
26.228,-16.3381,0.412894,0
26.4872,-16.2782,0.409202,0
26.7442,-16.2079,0.40515,0
27.0006,-16.1307,0.401087,0
27.2561,-16.0465,0.397044,0
27.5105,-15.9553,0.39303,0
27.7637,-15.857,0.389027,0
28.0353,-15.7786,0.388118,0
28.3251,-15.7163,0.389945,0
28.6137,-15.6434,0.391517,0
28.8999,-15.5586,0.392689,0
29.1859,-15.4654,0.39388,0
29.4717,-15.3638,0.39512,0
29.7567,-15.2536,0.396361,0
30.0406,-15.1346,0.39764,0
30.3232,-15.0068,0.398939,0
30.6355,-14.8982,0.403841,0
30.9513,-14.783,0.409202,0
31.2666,-14.6575,0.414583,0
31.5805,-14.5214,0.419974,0
31.8927,-14.3747,0.425374,0
32.2027,-14.2172,0.430775,0
32.5097,-14.0488,0.436165,0
32.8118,-13.8685,0.4414,0
33.1021,-13.6726,0.445911,0
33.3895,-13.4673,0.450579,0
33.6722,-13.2518,0.455306,0
33.9497,-13.0261,0.460081,0
34.2213,-12.7903,0.464896,0
34.4865,-12.5445,0.469739,0
34.7447,-12.2888,0.474613,0
34.9953,-12.0232,0.479515,0
35.2377,-11.7481,0.484427,0
34.6185,-11.1631,0.420185,174
35.7408,-11.1848,0.497894,0
35.9898,-10.8917,0.50554,0
34.712,-10.1685,0.393898,174
36.4567,-10.2755,0.520716,0
36.6706,-9.9525,0.52803,0
36.8601,-9.61809,0.534339,0
36.8764,-9.24698,0.528376,174
37.0024,-8.89538,0.531792,174
37.3834,-8.57457,0.555443,0
37.568,-8.21671,0.565198,0
36.5586,-7.74803,0.486143,174
37.8949,-7.47797,0.584515,0
38.0362,-7.09832,0.594095,0
38.1579,-6.71255,0.603265,0
38.2648,-6.32158,0.612435,0
38.3701,-5.92571,0.622611,0
38.4541,-5.52561,0.632337,0
38.5162,-5.12227,0.641556,0
38.5559,-4.71694,0.650257,0
38.5728,-4.3107,0.658392,0
38.5955,-3.90063,0.668148,0
38.8926,-3.44123,0.700355,0
39.1744,-2.96757,0.732962,0
39.4391,-2.48045,0.765843,0
39.6385,-1.99186,0.795228,0
39.5365,-1.56778,0.802142,0
40.1209,-0.946504,0.86596,0
41.9623,0.101611,1.03556,0
43.2003,1.04644,1.1604,0
43.7341,1.80775,1.23049,0
44.2498,2.59946,1.3023,0
32.8917,-1.50164,0.34687,174
32.3844,-1.40645,0.318763,174
32.0971,-1.22939,0.310036,174
31.9475,-0.993157,0.314141,174
31.823,-0.745154,0.321276,174
31.8833,-0.393934,0.346751,174
21.1635,-15.2345,0.4343,0
21.3674,-15.2679,0.429261,0
21.5741,-15.321,0.4272,0
21.7857,-15.3992,0.428724,0
22.0013,-15.4741,0.430286,0
22.2209,-15.5456,0.431917,0
22.4445,-15.6136,0.433616,0
22.672,-15.6778,0.435364,0
22.9035,-15.7382,0.437181,0
23.1284,-15.7464,0.433343,0
23.3527,-15.7404,0.428411,0
23.581,-15.7421,0.425013,0
23.818,-15.7633,0.424534,0
24.0571,-15.7785,0.423968,0
24.2983,-15.7875,0.423323,0
24.5415,-15.7903,0.422591,0
24.7862,-15.7865,0.421771,0
25.0324,-15.7761,0.420862,0
25.28,-15.7589,0.419857,0
25.5285,-15.7348,0.418763,0
25.7777,-15.7036,0.417581,0
26.0275,-15.6652,0.416312,0
26.2669,-15.6004,0.412689,0
26.5048,-15.528,0.408929,0
26.742,-15.4491,0.405169,0
26.9781,-15.3637,0.401439,0
27.2129,-15.2719,0.397738,0
27.4462,-15.1735,0.394036,0
27.678,-15.0686,0.390384,0
27.9114,-14.9618,0.387327,0
28.1741,-14.8856,0.388987,0
28.4365,-14.8017,0.390657,0
28.6985,-14.7097,0.392318,0
28.9598,-14.6098,0.393958,0
29.2198,-14.5017,0.395609,0
29.4784,-14.3854,0.397239,0
29.735,-14.2608,0.398861,0
29.9894,-14.1278,0.400472,0
30.2398,-13.9852,0.401907,0
30.5023,-13.8463,0.405062,0
30.7727,-13.7066,0.409407,0
31.0395,-13.5568,0.413626,0
31.3029,-13.3975,0.417796,0
31.5622,-13.2286,0.421888,0
31.8169,-13.0502,0.425921,0
32.0664,-12.8622,0.429866,0
32.3102,-12.6648,0.433714,0
32.5477,-12.4581,0.437474,0
32.7784,-12.242,0.441116,0
33.009,-12.0204,0.445355,0
33.2334,-11.7904,0.449612,0
33.4491,-11.5512,0.453704,0
33.6597,-11.3048,0.458001,0
33.8786,-11.0562,0.463724,0
34.0882,-10.7987,0.469329,0
34.2882,-10.5325,0.474808,0
34.4777,-10.2581,0.48014,0
34.6562,-9.97573,0.485316,0
34.8232,-9.68587,0.490316,0
34.978,-9.38896,0.49513,0
35.12,-9.08546,0.499749,0
35.2639,-8.77846,0.505413,0
35.4307,-8.47056,0.51387,0
35.5861,-8.15569,0.522288,0
35.7278,-7.83413,0.530501,0
35.8553,-7.50649,0.538519,0
35.968,-7.17336,0.546273,0
36.0653,-6.83542,0.553763,0
36.1467,-6.49341,0.56098,0
36.2259,-6.14777,0.569027,0
36.2929,-5.79875,0.577142,0
36.3433,-5.44707,0.584925,0
36.3633,-5.09465,0.591263,0
36.3601,-4.74243,0.596751,0
36.3384,-4.39106,0.601761,0
36.2983,-4.04144,0.606273,0
36.2966,-3.68424,0.61513,0
36.2993,-3.32336,0.625462,0
36.2825,-2.96338,0.635296,0
36.1391,-2.63212,0.635228,0
35.971,-2.31043,0.633929,0
35.7821,-1.99864,0.631683,0
35.5734,-1.69768,0.628528,0
35.3928,-1.39198,0.628753,0
35.1477,-1.11395,0.62387,0
34.9216,-0.834717,0.621458,0
32.5315,-1.48994,0.413468,174
32.2043,-1.3264,0.399403,174
32.0536,-1.08896,0.402891,174
32.5267,-0.533011,0.469685,174
32.0774,-0.442364,0.445295,174
21.1098,-15.2251,0.435638,0
21.3132,-15.2594,0.430589,0
21.5187,-15.2998,0.42682,0
21.7293,-15.3788,0.428314,0
21.9438,-15.4546,0.429866,0
22.1623,-15.527,0.431488,0
22.3848,-15.5959,0.433157,0
22.6113,-15.6612,0.434896,0
22.8417,-15.7226,0.436693,0
23.0692,-15.7472,0.434652,0
23.2931,-15.7425,0.42972,0
23.5187,-15.7355,0.42513,0
23.7549,-15.7582,0.424671,0
23.9935,-15.775,0.424134,0
24.2342,-15.7857,0.423499,0
24.4769,-15.7902,0.422796,0
24.7212,-15.7881,0.421995,0
24.9671,-15.7795,0.421107,0
25.2143,-15.7641,0.42013,0
25.4625,-15.7419,0.419066,0
25.7116,-15.7125,0.417904,0
25.9613,-15.676,0.416654,0
26.2037,-15.6185,0.413695,0
26.4419,-15.5478,0.409915,0
26.6792,-15.4706,0.406175,0
26.9157,-15.387,0.402425,0
27.1509,-15.2968,0.398714,0
27.3846,-15.2002,0.395013,0
27.6167,-15.097,0.391341,0
27.847,-14.9873,0.387708,0
28.1045,-14.9066,0.388548,0
28.367,-14.8247,0.390218,0
28.6291,-14.7349,0.391868,0
28.8906,-14.6371,0.393519,0
29.151,-14.5312,0.395169,0
29.41,-14.417,0.3968,0
29.6672,-14.2946,0.398431,0
29.9223,-14.1638,0.400052,0
30.1741,-14.0241,0.401566,0
30.4292,-13.881,0.403802,0
30.7015,-13.7447,0.408284,0
30.9691,-13.5974,0.412513,0
31.2334,-13.4406,0.416693,0
31.4938,-13.2743,0.420804,0
31.7498,-13.0984,0.424857,0
32.0008,-12.913,0.428821,0
32.2463,-12.718,0.432708,0
32.4855,-12.5137,0.436487,0
32.718,-12.3001,0.440159,0
32.9482,-12.0798,0.444202,0
33.1748,-11.8523,0.448499,0
33.3928,-11.6155,0.45264,0
33.6017,-11.3697,0.456595,0
33.8214,-11.1229,0.46222,0
34.0336,-10.8678,0.467864,0
34.2362,-10.6039,0.473372,0
34.4286,-10.3316,0.478743,0
34.6101,-10.0513,0.483958,0
34.7802,-9.76338,0.489007,0
34.9382,-9.46829,0.49387,0
35.0837,-9.16648,0.498548,0
35.2194,-8.85906,0.503275,0
35.3874,-8.55279,0.511614,0
35.5462,-8.23979,0.520071,0
35.6916,-7.91996,0.528353,0
35.823,-7.59386,0.536409,0
35.9396,-7.26211,0.544241,0
36.041,-6.92539,0.55181,0
36.1267,-6.58438,0.559095,0
36.2054,-6.2397,0.566829,0
36.2768,-5.89151,0.575013,0
36.3316,-5.54046,0.582884,0
36.361,-5.188,0.58973,0
36.3627,-4.83571,0.595345,0
36.346,-4.48403,0.600482,0
36.3107,-4.13387,0.60513,0
36.2928,-3.77989,0.612318,0
36.3005,-3.41894,0.622777,0
36.2888,-3.05861,0.632738,0
36.1801,-2.71889,0.635413,0
36.0177,-2.39474,0.634368,0
35.8341,-2.08024,0.632366,0
35.6305,-1.77631,0.629446,0
35.408,-1.48383,0.625628,0
35.2045,-1.19,0.624339,0
34.9834,-0.907451,0.622181,0
32.6585,-1.51821,0.421055,174
32.2444,-1.38952,0.398621,174
32.0934,-1.15176,0.401885,174
32.6473,-0.559329,0.47625,174
32.1955,-0.465075,0.451697,174
21.2591,-15.2507,0.431917,0
21.4638,-15.2824,0.426927,0
21.6732,-15.3582,0.427913,0
21.8866,-15.4348,0.429446,0
22.1041,-15.5081,0.431048,0
22.3255,-15.578,0.432708,0
22.5509,-15.6442,0.434427,0
22.7803,-15.7067,0.436214,0
23.0101,-15.7476,0.43596,0
23.2337,-15.7443,0.431029,0
23.4584,-15.7358,0.426107,0
23.6921,-15.7528,0.424798,0
23.9301,-15.7712,0.42428,0
24.1703,-15.7835,0.423675,0
24.4124,-15.7896,0.422982,0
24.6563,-15.7893,0.42221,0
24.9018,-15.7825,0.421351,0
25.1487,-15.7689,0.420394,0
25.3966,-15.7484,0.419349,0
25.6455,-15.721,0.418226,0
25.8952,-15.6864,0.416995,0
26.1405,-15.6362,0.414681,0
26.3789,-15.5671,0.410921,0
26.6165,-15.4917,0.407161,0
26.8531,-15.4098,0.403421,0
27.0887,-15.3213,0.399691,0
27.3228,-15.2264,0.395989,0
27.5555,-15.125,0.392318,0
27.7862,-15.017,0.388665,0
28.0349,-14.9269,0.388109,0
28.2975,-14.8471,0.389769,0
28.5598,-14.7594,0.391429,0
28.8214,-14.6638,0.393089,0
29.0821,-14.56,0.394739,0
29.3415,-14.4481,0.39637,0
29.5993,-14.3278,0.398001,0
29.8548,-14.1993,0.399632,0
30.1081,-14.0624,0.401234,0
30.3561,-13.915,0.402532,0
30.6301,-13.7821,0.407152,0
30.8985,-13.6373,0.41139,0
31.1637,-13.4831,0.415589,0
31.4252,-13.3193,0.41972,0
31.6824,-13.1459,0.423792,0
31.9348,-12.963,0.427786,0
32.1818,-12.7706,0.431683,0
32.4227,-12.5688,0.435501,0
32.657,-12.3576,0.439193,0
32.8868,-12.1385,0.44303,0
33.1155,-11.9135,0.447376,0
33.3359,-11.6791,0.451556,0
33.5473,-11.4357,0.45557,0
33.7637,-11.1891,0.460706,0
33.9783,-10.9362,0.46638,0
34.1834,-10.6746,0.471917,0
34.3786,-10.4046,0.477337,0
34.563,-10.1263,0.482601,0
34.7362,-9.84039,0.487689,0
34.8975,-9.54715,0.492601,0
35.0464,-9.24704,0.497327,0
35.1823,-8.94066,0.501849,0
35.3431,-8.6345,0.509339,0
35.5054,-8.3234,0.517855,0
35.6545,-8.00532,0.526175,0
35.7895,-7.68084,0.53429,0
35.9101,-7.35055,0.542191,0
36.0157,-7.01506,0.549818,0
36.1055,-6.67514,0.5572,0
36.1837,-6.33139,0.564603,0
36.2595,-5.98408,0.572874,0
36.3187,-5.63371,0.580833,0
36.3574,-5.28129,0.588177,0
36.3641,-4.92902,0.5939,0
36.3523,-4.5771,0.599163,0
36.3219,-4.22644,0.603948,0
36.2877,-3.8755,0.609456,0
36.3003,-3.51455,0.620052,0
36.2938,-3.15398,0.630159,0
36.2195,-2.80627,0.635521,0
36.0628,-2.47974,0.63473,0
35.8848,-2.16259,0.632991,0
35.6864,-1.85576,0.630316,0
35.4688,-1.56017,0.626732,0
35.2599,-1.26688,0.62473,0
35.0438,-0.981094,0.622855,0
32.8107,-1.5374,0.43101,174
32.3338,-1.43102,0.402615,174
32.1333,-1.21463,0.400938,174
32.7684,-0.586639,0.482855,174
32.3143,-0.48872,0.458144,174
31.8933,-0.391047,0.436505,174
21.1636,-14.8523,0.447591,0
21.3586,-14.8828,0.442825,0
21.5552,-14.9098,0.438157,0
21.753,-14.9333,0.433577,0
21.9554,-14.983,0.432962,0
22.1625,-15.0458,0.434534,0
22.3731,-15.1051,0.436155,0
22.5873,-15.1607,0.437835,0
22.8049,-15.2126,0.439573,0
23.0217,-15.2409,0.4389,0
23.2333,-15.2331,0.434271,0
23.4455,-15.2204,0.429652,0
23.6582,-15.2028,0.425052,0
23.8714,-15.1802,0.420482,0
24.0851,-15.1529,0.41597,0
24.31,-15.1505,0.415228,0
24.5362,-15.1421,0.414407,0
24.7635,-15.1276,0.413509,0
24.9917,-15.1067,0.412513,0
25.2207,-15.0795,0.411458,0
25.4501,-15.0458,0.410306,0
25.6798,-15.0054,0.409066,0
25.9094,-14.9583,0.407737,0
26.1388,-14.9045,0.406331,0
26.3677,-14.8437,0.404837,0
26.5959,-14.776,0.403265,0
26.823,-14.7013,0.401605,0
27.0487,-14.6195,0.399847,0
27.2664,-14.522,0.396888,0
27.4798,-14.4151,0.393509,0
27.691,-14.3022,0.390169,0
27.9025,-14.1863,0.387269,0
28.1405,-14.0958,0.388773,0
28.3773,-13.9981,0.390277,0
28.613,-13.8929,0.391761,0
28.8468,-13.7804,0.393245,0
29.0787,-13.6603,0.39472,0
29.3084,-13.5328,0.396165,0
29.5352,-13.3977,0.397601,0
29.7591,-13.2551,0.399017,0
29.9796,-13.1049,0.400413,0
30.1964,-12.9473,0.40178,0
30.4143,-12.7858,0.403743,0
30.6428,-12.6264,0.407347,0
30.867,-12.4586,0.410902,0
31.0862,-12.2826,0.414368,0
31.3001,-12.0983,0.417737,0
31.5081,-11.906,0.421038,0
31.7098,-11.7058,0.424222,0
31.9048,-11.4977,0.427308,0
32.0976,-11.2843,0.430784,0
32.294,-11.0679,0.435257,0
32.4832,-10.844,0.439671,0
32.6648,-10.6127,0.444007,0
32.8389,-10.3744,0.448314,0
33.0106,-10.1311,0.453109,0
33.173,-9.88088,0.457777,0
33.3259,-9.62395,0.462298,0
33.4685,-9.36073,0.466673,0
33.6005,-9.0916,0.470872,0
33.7297,-8.81857,0.475657,0
33.875,-8.54475,0.482747,0
34.0098,-8.26486,0.48973,0
34.1337,-7.97937,0.496595,0
34.2461,-7.68867,0.503314,0
34.3467,-7.39325,0.509886,0
34.4177,-7.09273,0.514769,0
34.4711,-6.78914,0.518987,0
34.5098,-6.48346,0.522884,0
34.5569,-6.17592,0.52848,0
34.5964,-5.86629,0.534368,0
34.621,-5.55523,0.539905,0
34.6303,-5.24346,0.545071,0
34.6245,-4.93168,0.549837,0
34.6019,-4.62082,0.554114,0
34.528,-4.31707,0.554661,0
34.4377,-4.01746,0.554661,0
34.3556,-3.71793,0.556312,0
34.2652,-3.42119,0.558148,0
34.1589,-3.12954,0.559388,0
34.0369,-2.84375,0.560062,0
33.8656,-2.57467,0.556839,0
33.667,-2.31863,0.551751,0
33.4555,-2.07247,0.546038,0
33.2318,-1.83666,0.539798,0
32.997,-1.6115,0.533011,0
32.5347,-1.49071,0.503355,174
32.2022,-1.3296,0.487054,174
32.0075,-1.11366,0.485591,174
31.8905,-0.861979,0.493166,174
31.7309,-0.632812,0.496917,0
21.1121,-14.8437,0.448861,0
21.3068,-14.875,0.444085,0
21.5029,-14.9029,0.439388,0
21.7005,-14.9274,0.434788,0
21.9012,-14.9658,0.432562,0
22.1073,-15.0295,0.434114,0
22.317,-15.0897,0.435716,0
22.5302,-15.1464,0.437386,0
22.7469,-15.1992,0.439105,0
22.9659,-15.2422,0.44013,0
23.1772,-15.2356,0.435491,0
23.3892,-15.2242,0.430872,0
23.6018,-15.2079,0.426263,0
23.8148,-15.1866,0.421693,0
24.0284,-15.1603,0.417122,0
24.2503,-15.1517,0.415433,0
24.4761,-15.1449,0.414632,0
24.7032,-15.132,0.413753,0
24.9312,-15.1129,0.412786,0
25.1599,-15.0874,0.411741,0
25.3893,-15.0554,0.410609,0
25.6189,-15.0168,0.409398,0
25.8486,-14.9715,0.408099,0
26.0781,-14.9194,0.406712,0
26.3072,-14.8605,0.405247,0
26.5355,-14.7946,0.403695,0
26.763,-14.7217,0.402044,0
26.9891,-14.6418,0.400325,0
27.2096,-14.5493,0.397777,0
27.4234,-14.444,0.394407,0
27.6352,-14.3327,0.391058,0
27.8448,-14.2154,0.387737,0
28.0775,-14.1205,0.388382,0
28.3147,-14.0247,0.389876,0
28.5507,-13.9215,0.39137,0
28.7851,-13.8109,0.392855,0
29.0175,-13.6929,0.394329,0
29.2477,-13.5673,0.395784,0
29.4754,-13.4342,0.39722,0
29.7001,-13.2936,0.398646,0
29.9216,-13.1454,0.400052,0
30.1394,-12.9897,0.401419,0
30.3531,-12.8266,0.402777,0
30.5827,-12.6694,0.406409,0
30.808,-12.5039,0.409974,0
31.0286,-12.33,0.41346,0
31.2439,-12.1479,0.416859,0
31.4536,-11.9578,0.420169,0
31.6571,-11.7596,0.423392,0
31.8538,-11.5536,0.426497,0
32.0444,-11.3403,0.429593,0
32.2425,-11.126,0.434085,0
32.4338,-10.9041,0.438509,0
32.6174,-10.6747,0.442864,0
32.7931,-10.4381,0.447142,0
32.9659,-10.1963,0.451849,0
33.1309,-9.94784,0.456546,0
33.2864,-9.69267,0.461116,0
33.4317,-9.43106,0.46553,0
33.5666,-9.16347,0.469779,0
33.6906,-8.89027,0.473861,0
33.8376,-8.61791,0.480882,0
33.9752,-8.3396,0.487894,0
34.102,-8.05556,0.494788,0
34.2175,-7.76618,0.501556,0
34.3212,-7.47198,0.508177,0
34.4012,-7.1727,0.513577,0
34.4584,-6.86982,0.517913,0
34.5009,-6.56462,0.521888,0
34.544,-6.25763,0.526859,0
34.5874,-5.94851,0.532845,0
34.6159,-5.63776,0.53848,0
34.6294,-5.3261,0.543743,0
34.6275,-5.01425,0.548626,0
34.6103,-4.70295,0.553109,0
34.5491,-4.39718,0.554564,0
34.4633,-4.09639,0.55471,0
34.3768,-3.7973,0.555726,0
34.2908,-3.49937,0.557718,0
34.1886,-3.20627,0.559105,0
34.0707,-2.91886,0.559935,0
33.9159,-2.6441,0.558089,0
33.721,-2.38554,0.553157,0
33.5128,-2.13672,0.547611,0
33.2922,-1.89811,0.541497,0
33.0603,-1.67011,0.534866,0
32.665,-1.51761,0.512038,174
32.2562,-1.38644,0.487797,174
32.0533,-1.17322,0.485304,174
31.9178,-0.930605,0.490666,174
31.8026,-0.677656,0.499046,0
21.2551,-14.8671,0.445345,0
21.4509,-14.8959,0.440618,0
21.648,-14.9213,0.436009,0
21.8471,-14.9483,0.432152,0
22.0523,-15.0129,0.433685,0
22.2611,-15.0741,0.435277,0
22.4734,-15.1317,0.436937,0
22.6891,-15.1856,0.438636,0
22.9084,-15.2356,0.440404,0
23.1211,-15.2379,0.436722,0
23.333,-15.2277,0.432093,0
23.5454,-15.2127,0.427484,0
23.7584,-15.1927,0.422894,0
23.9718,-15.1678,0.418333,0
24.1906,-15.1525,0.415628,0
24.4162,-15.1473,0.414847,0
24.643,-15.1361,0.413997,0
24.8706,-15.1186,0.41305,0
25.0992,-15.0947,0.412025,0
25.3284,-15.0645,0.410921,0
25.558,-15.0276,0.40973,0
25.7877,-14.9841,0.40845,0
26.0173,-14.9339,0.407093,0
26.2466,-14.8768,0.405638,0
26.4751,-14.8127,0.404105,0
26.7028,-14.7417,0.402493,0
26.9293,-14.6637,0.400784,0
27.1526,-14.5762,0.398685,0
27.367,-14.4725,0.395296,0
27.5794,-14.3628,0.391937,0
27.7895,-14.2471,0.388616,0
28.0145,-14.1447,0.387982,0
28.252,-14.0508,0.389486,0
28.4883,-13.9496,0.39098,0
28.7231,-13.8409,0.392464,0
28.9562,-13.7249,0.393929,0
29.187,-13.6013,0.395404,0
29.4153,-13.4702,0.396839,0
29.6409,-13.3316,0.398265,0
29.8633,-13.1854,0.399671,0
30.082,-13.0317,0.401058,0
30.2969,-12.8706,0.402415,0
30.5223,-12.7119,0.405443,0
30.7487,-12.5486,0.409036,0
30.9706,-12.3769,0.412542,0
31.1874,-12.197,0.41596,0
31.3986,-12.0089,0.4193,0
31.6038,-11.8129,0.422552,0
31.8023,-11.6089,0.425687,0
31.994,-11.3972,0.428714,0
32.1907,-11.1835,0.432903,0
32.3838,-10.9636,0.437337,0
32.5695,-10.7362,0.441712,0
32.7474,-10.5015,0.446009,0
32.9207,-10.261,0.450589,0
33.0881,-10.0143,0.455316,0
33.2461,-9.7609,0.459925,0
33.3942,-9.50098,0.464378,0
33.5319,-9.23493,0.468665,0
33.6588,-8.96316,0.472806,0
33.7993,-8.69061,0.478997,0
33.9397,-8.4139,0.486038,0
34.0695,-8.13133,0.492972,0
34.188,-7.84334,0.499779,0
34.2949,-7.55036,0.506429,0
34.3837,-7.25252,0.512386,0
34.4446,-6.95036,0.51681,0
34.4911,-6.64569,0.520863,0
34.53,-6.33916,0.525208,0
34.5773,-6.03059,0.531282,0
34.6098,-5.72022,0.537025,0
34.6273,-5.40872,0.542396,0
34.6295,-5.09686,0.547376,0
34.6163,-4.78532,0.551956,0
34.5692,-4.47758,0.554456,0
34.4876,-4.17566,0.55472,0
34.3967,-3.87695,0.555091,0
34.3151,-3.57786,0.557249,0
34.2173,-3.28343,0.558802,0
34.1034,-2.99445,0.559779,0
33.9652,-2.7142,0.55929,0
33.774,-2.4531,0.554515,0
33.5692,-2.20166,0.549134,0
33.3519,-1.9603,0.543167,0
33.1228,-1.72945,0.536673,0
32.7974,-1.54505,0.520921,174
32.3109,-1.44331,0.488653,174
32.1068,-1.22937,0.485882,174
31.945,-0.999155,0.48823,174
31.8422,-0.740036,0.497758,174
31.6029,-0.555244,0.49303,0
21.1637,-14.5012,0.459798,0
21.3505,-14.529,0.455286,0
21.5388,-14.5535,0.450862,0
21.7284,-14.5746,0.446527,0
21.9192,-14.5923,0.442288,0
22.1113,-14.6065,0.438157,0
22.3092,-14.649,0.438431,0
22.5114,-14.6974,0.440042,0
22.7166,-14.7421,0.441702,0
22.925,-14.7829,0.443421,0
23.126,-14.7772,0.439525,0
23.3268,-14.7633,0.435169,0
23.528,-14.7447,0.430833,0
23.7295,-14.7215,0.426517,0
23.9312,-14.6934,0.42222,0
24.1331,-14.6606,0.417962,0
24.3349,-14.6229,0.413743,0
24.5367,-14.5804,0.409534,0
24.7407,-14.5385,0.406126,0
24.9528,-14.5092,0.405081,0
25.1652,-14.4738,0.403958,0
25.3777,-14.4324,0.402767,0
25.59,-14.3847,0.401497,0
25.802,-14.3308,0.40014,0
26.0132,-14.2706,0.398714,0
26.2236,-14.204,0.39721,0
26.4329,-14.131,0.395618,0
26.6408,-14.0516,0.393958,0
26.8471,-13.9657,0.39222,0
27.0515,-13.8733,0.390404,0
27.2564,-13.7776,0.388987,0
27.4623,-13.6791,0.388021,0
27.6663,-13.5743,0.387044,0
27.8682,-13.4633,0.386058,0
28.0844,-13.3627,0.387611,0
28.3,-13.2564,0.38931,0
28.5135,-13.1432,0.390989,0
28.7236,-13.0219,0.392464,0
28.9299,-12.8929,0.393773,0
29.1333,-12.7571,0.395062,0
29.3333,-12.6145,0.396321,0
29.5298,-12.4652,0.397562,0
29.7223,-12.3092,0.398782,0
29.9107,-12.1466,0.399974,0
30.0944,-11.9774,0.401136,0
30.2734,-11.8019,0.402269,0
30.4559,-11.625,0.404398,0
30.6405,-11.4454,0.407318,0
30.8255,-11.2619,0.410814,0
31.0108,-11.0744,0.414935,0
31.1904,-10.88,0.418997,0
31.3638,-10.6788,0.423021,0
31.5308,-10.4709,0.426966,0
31.6908,-10.2567,0.430853,0
31.8434,-10.0363,0.434661,0
31.9884,-9.80993,0.438392,0
32.125,-9.57781,0.441995,0
32.2445,-9.33802,0.444642,0
32.3541,-9.09326,0.447073,0
32.4578,-8.84495,0.44972,0
32.5769,-8.59727,0.45471,0
32.6859,-8.34468,0.459515,0
32.7846,-8.08754,0.464144,0
32.8748,-7.82657,0.468773,0
32.9552,-7.56193,0.473304,0
33.0238,-7.29397,0.477591,0
33.0802,-7.02317,0.481595,0
33.1245,-6.75005,0.485296,0
33.1562,-6.47521,0.488714,0
33.1943,-6.19889,0.493646,0
33.2167,-5.92121,0.497972,0
33.2097,-5.64387,0.500394,0
33.1885,-5.36724,0.502337,0
33.1534,-5.09203,0.503851,0
33.1043,-4.8189,0.504886,0
33.0414,-4.54847,0.505462,0
32.9652,-4.28143,0.505579,0
32.8755,-4.01836,0.505238,0
32.7731,-3.75988,0.504446,0
32.6581,-3.50656,0.503216,0
32.5311,-3.25892,0.501556,0
32.3925,-3.01744,0.499466,0
32.2428,-2.7826,0.496946,0
32.0826,-2.55483,0.494056,0
31.9082,-2.33613,0.490296,0
31.6935,-2.13784,0.482786,0
31.4716,-1.94892,0.474945,0
31.243,-1.76947,0.466849,0
31.0088,-1.59957,0.458499,0
30.7737,-1.43716,0.450404,0
30.5494,-1.27589,0.443939,0
21.1143,-14.4933,0.461019,0
21.3009,-14.522,0.456468,0
21.4888,-14.5474,0.452025,0
21.678,-14.5694,0.447669,0
21.8685,-14.588,0.443402,0
22.0602,-14.6031,0.439251,0
22.2561,-14.6356,0.438011,0
22.4575,-14.6849,0.439613,0
22.662,-14.7306,0.441263,0
22.8695,-14.7725,0.442962,0
23.0729,-14.7801,0.440687,0
23.2735,-14.7674,0.436321,0
23.4746,-14.7501,0.431976,0
23.6761,-14.7281,0.427659,0
23.8777,-14.7013,0.423362,0
24.0797,-14.6698,0.419095,0
24.2815,-14.6334,0.414857,0
24.4833,-14.5921,0.410648,0
24.6848,-14.546,0.406478,0
24.8966,-14.5175,0.405374,0
25.1089,-14.4838,0.404271,0
25.3214,-14.4439,0.403089,0
25.5337,-14.398,0.401839,0
25.7459,-14.3457,0.400511,0
25.9573,-14.2872,0.399105,0
26.1679,-14.2223,0.39762,0
26.3775,-14.151,0.396048,0
26.5859,-14.0733,0.394407,0
26.7926,-13.9891,0.392679,0
26.9975,-13.8984,0.390892,0
27.2016,-13.8027,0.389232,0
27.408,-13.7058,0.388275,0
27.6125,-13.6027,0.387298,0
27.8149,-13.4933,0.386321,0
28.0269,-13.3897,0.387152,0
28.243,-13.2853,0.388861,0
28.4572,-13.1738,0.39054,0
28.6684,-13.055,0.392122,0
28.8755,-12.9278,0.393431,0
29.0797,-12.7937,0.39472,0
29.2805,-12.6529,0.395989,0
29.478,-12.5054,0.397239,0
29.6716,-12.3512,0.39846,0
29.8612,-12.1903,0.399661,0
30.0462,-12.0229,0.400833,0
30.2264,-11.849,0.401976,0
30.4061,-11.6714,0.403607,0
30.5923,-11.4937,0.406556,0
30.7755,-11.3104,0.40972,0
30.9622,-11.1247,0.413841,0
31.1434,-10.9321,0.417933,0
31.3184,-10.7327,0.421956,0
31.4872,-10.5266,0.425931,0
31.6491,-10.3141,0.429837,0
31.8037,-10.0953,0.433665,0
31.9508,-9.87048,0.437405,0
32.0898,-9.6399,0.441058,0
32.2139,-9.40207,0.443968,0
32.3261,-9.15857,0.446439,0
32.4279,-8.91042,0.448695,0
32.5462,-8.66339,0.453402,0
32.658,-8.41206,0.458255,0
32.7595,-8.15609,0.462933,0
32.8516,-7.89604,0.467523,0
32.935,-7.6324,0.472132,0
33.0066,-7.36528,0.476487,0
33.0665,-7.09517,0.48056,0
33.114,-6.82261,0.484349,0
33.1491,-6.54817,0.487845,0
33.1839,-6.27228,0.49222,0
33.2162,-5.99474,0.497269,0
33.2129,-5.71731,0.499798,0
33.1955,-5.44043,0.501868,0
33.1641,-5.16477,0.503489,0
33.1187,-4.89102,0.504652,0
33.0595,-4.6198,0.505345,0
32.9866,-4.35183,0.505599,0
32.9005,-4.08765,0.505374,0
32.8014,-3.82792,0.50472,0
32.6898,-3.57316,0.503597,0
32.5659,-3.32396,0.502034,0
32.4302,-3.08081,0.500062,0
32.2835,-2.84416,0.497659,0
32.126,-2.61449,0.494866,0
31.9585,-2.39214,0.491673,0
31.7512,-2.18948,0.484808,0
31.531,-1.99805,0.477054,0
31.3042,-1.8161,0.469036,0
31.0714,-1.64364,0.460726,0
30.8334,-1.48082,0.45222,0
30.6094,-1.31769,0.445687,0
21.2513,-14.5147,0.457659,0
21.4389,-14.541,0.453196,0
21.6278,-14.5639,0.448812,0
21.8179,-14.5834,0.444534,0
22.0094,-14.5994,0.440335,0
22.2033,-14.6219,0.437591,0
22.4038,-14.6722,0.439183,0
22.6076,-14.7189,0.440823,0
22.8142,-14.7618,0.442503,0
23.0198,-14.7827,0.441839,0
23.2203,-14.7712,0.437474,0
23.4213,-14.7552,0.433128,0
23.6227,-14.7344,0.428802,0
23.8243,-14.7089,0.424495,0
24.0262,-14.6786,0.420228,0
24.228,-14.6435,0.41598,0
24.4298,-14.6035,0.411761,0
24.6314,-14.5587,0.407581,0
24.8403,-14.5255,0.405648,0
25.0527,-14.4933,0.404564,0
25.2652,-14.4551,0.403411,0
25.4775,-14.4107,0.402181,0
25.6897,-14.3602,0.400862,0
25.9013,-14.3033,0.399486,0
26.1122,-14.2401,0.398011,0
26.3221,-14.1705,0.396468,0
26.5308,-14.0945,0.394847,0
26.738,-14.012,0.393148,0
26.9434,-13.9231,0.39137,0
27.1468,-13.8276,0.389525,0
27.3534,-13.7321,0.388528,0
27.5585,-13.6306,0.387562,0
27.7615,-13.5229,0.386575,0
27.9694,-13.4162,0.386683,0
28.186,-13.3136,0.388421,0
28.4006,-13.2041,0.390101,0
28.613,-13.0875,0.391751,0
28.8209,-12.9621,0.393089,0
29.0259,-12.8299,0.394378,0
29.2277,-12.6909,0.395657,0
29.4261,-12.5451,0.396907,0
29.6208,-12.3927,0.398138,0
29.8114,-12.2336,0.399349,0
29.9976,-12.0679,0.400521,0
30.1791,-11.8957,0.401683,0
30.3559,-11.7173,0.402816,0
30.5434,-11.5415,0.405784,0
30.7254,-11.3586,0.408665,0
30.9133,-11.1746,0.412757,0
31.0959,-10.9838,0.416849,0
31.2727,-10.7862,0.420902,0
31.4431,-10.5819,0.424886,0
31.6069,-10.371,0.428802,0
31.7634,-10.1539,0.432659,0
31.9125,-9.93062,0.436419,0
32.0537,-9.70154,0.440101,0
32.1824,-9.46573,0.443265,0
32.2973,-9.22355,0.445804,0
32.402,-8.97662,0.448128,0
32.5149,-8.72915,0.452093,0
32.6294,-8.47911,0.456995,0
32.7337,-8.22434,0.461712,0
32.8275,-7.96524,0.466263,0
32.914,-7.70262,0.470931,0
32.9889,-7.43638,0.475364,0
33.0518,-7.167,0.479505,0
33.1026,-6.89504,0.483362,0
33.141,-6.62105,0.486946,0
33.1727,-6.34553,0.490775,0
33.2105,-6.06838,0.496116,0
33.2152,-5.79079,0.499163,0
33.2015,-5.51369,0.50137,0
33.1737,-5.23764,0.503109,0
33.132,-4.96332,0.504398,0
33.0765,-4.69138,0.505208,0
33.0072,-4.42248,0.50557,0
32.9246,-4.15724,0.505472,0
32.8295,-3.89615,0.504993,0
32.7205,-3.64015,0.503929,0
32.5998,-3.38942,0.502493,0
32.4673,-3.14463,0.500628,0
32.3234,-2.90619,0.498323,0
32.1688,-2.67465,0.495648,0
32.0039,-2.45033,0.492571,0
31.8083,-2.24175,0.4868,0
31.5901,-2.04785,0.479134,0
31.3649,-1.86337,0.471175,0
31.1336,-1.68841,0.462952,0
30.897,-1.52303,0.454495,0
30.669,-1.36016,0.447415,0
30.4262,-1.21209,0.43889,0
21.1637,-14.1774,0.471058,0
21.3431,-14.203,0.466761,0
21.5238,-14.2253,0.462571,0
21.7055,-14.2443,0.45845,0
21.8886,-14.26,0.454437,0
22.0727,-14.2722,0.450521,0
22.258,-14.2811,0.446693,0
22.4441,-14.2864,0.442972,0
22.6373,-14.3185,0.443626,0
22.8342,-14.3534,0.445286,0
23.029,-14.3653,0.444271,0
23.2195,-14.3505,0.44015,0
23.4104,-14.3312,0.436048,0
23.6014,-14.3075,0.431966,0
23.7927,-14.2793,0.427913,0
23.9838,-14.2465,0.42389,0
24.175,-14.2092,0.419896,0
24.3659,-14.1672,0.415931,0
24.5564,-14.1206,0.412005,0
24.7466,-14.0693,0.408128,0
24.9361,-14.0133,0.40429,0
25.125,-13.9526,0.400491,0
25.313,-13.8872,0.396741,0
25.507,-13.8287,0.39472,0
25.7053,-13.773,0.39387,0
25.9034,-13.7121,0.39305,0
26.1007,-13.6455,0.39221,0
26.2973,-13.5733,0.391361,0
26.4927,-13.4955,0.390501,0
26.6869,-13.4119,0.389632,0
26.8796,-13.3227,0.388734,0
27.0706,-13.2276,0.387825,0
27.2598,-13.1269,0.386907,0
27.4467,-13.0204,0.385989,0
27.6312,-12.9082,0.385042,0
27.8134,-12.7903,0.384095,0
28.0025,-12.6757,0.384652,0
28.1951,-12.5604,0.386116,0
28.385,-12.4387,0.387532,0
28.572,-12.3107,0.388909,0
28.7556,-12.1763,0.390218,0
28.9356,-12.0356,0.391478,0
29.1118,-11.8887,0.392689,0
29.2836,-11.7357,0.393841,0
29.451,-11.5766,0.394915,0
29.6134,-11.4116,0.395941,0
29.7739,-11.2425,0.397279,0
29.9309,-11.0686,0.398773,0
30.0824,-10.889,0.400208,0
30.2284,-10.704,0.401595,0
30.3703,-10.5146,0.403148,0
30.5222,-10.3267,0.406517,0
30.6673,-10.1328,0.40972,0
30.805,-9.93313,0.412777,0
30.9352,-9.72794,0.415657,0
31.0574,-9.5175,0.418362,0
31.1714,-9.30213,0.420892,0
31.2766,-9.08213,0.423226,0
31.3757,-8.85847,0.425638,0
31.488,-8.63559,0.430228,0
31.5916,-8.40814,0.434671,0
31.6865,-8.17651,0.438987,0
31.7721,-7.941,0.443118,0
31.8483,-7.70194,0.447064,0
31.9148,-7.45983,0.450843,0
31.9673,-7.21469,0.453987,0
31.9969,-6.96682,0.455618,0
32.0151,-6.71783,0.456917,0
32.022,-6.46829,0.457894,0
32.0334,-6.21843,0.460247,0
32.0382,-5.96812,0.462757,0
32.0315,-5.71783,0.464935,0
32.0133,-5.46815,0.46679,0
31.9835,-5.21953,0.468294,0
31.9424,-4.97257,0.469476,0
31.8838,-4.72871,0.469642,0
31.8073,-4.48896,0.468734,0
31.7198,-4.25301,0.467454,0
31.6216,-4.02129,0.465814,0
31.5192,-3.79271,0.464495,0
31.4098,-3.56814,0.463167,0
31.2905,-3.34875,0.461468,0
31.1615,-3.13495,0.459427,0
30.9945,-2.93719,0.453724,0
30.8194,-2.74695,0.447669,0
30.637,-2.56443,0.441341,0
30.448,-2.38978,0.43472,0
30.2665,-2.21698,0.429476,0
30.0922,-2.04534,0.425599,0
29.9098,-1.8822,0.421204,0
29.6916,-1.74293,0.412737,0
21.1163,-14.1701,0.47221,0
21.2955,-14.1965,0.467894,0
21.4758,-14.2197,0.463665,0
21.6573,-14.2396,0.459534,0
21.84,-14.2562,0.455491,0
22.0238,-14.2693,0.451546,0
22.2087,-14.2791,0.447698,0
22.3947,-14.2854,0.443948,0
22.5855,-14.3086,0.443206,0
22.7817,-14.3445,0.444837,0
22.9787,-14.3684,0.445374,0
23.1691,-14.3548,0.441243,0
23.3598,-14.3368,0.437132,0
23.5508,-14.3143,0.43305,0
23.742,-14.2872,0.428988,0
23.9332,-14.2557,0.424954,0
24.1243,-14.2195,0.42096,0
24.3153,-14.1788,0.416986,0
24.5059,-14.1334,0.41304,0
24.6962,-14.0833,0.409154,0
24.8859,-14.0286,0.405296,0
25.075,-13.9692,0.401487,0
25.2632,-13.905,0.397728,0
25.4549,-13.8435,0.395071,0
25.6527,-13.7882,0.394085,0
25.8509,-13.7288,0.393275,0
26.0485,-13.6637,0.392435,0
26.2453,-13.593,0.391595,0
26.4411,-13.5167,0.390736,0
26.6356,-13.4346,0.389857,0
26.8287,-13.3469,0.388968,0
27.0202,-13.2534,0.38807,0
27.2098,-13.1542,0.387152,0
27.3974,-13.0492,0.386234,0
27.5827,-12.9385,0.385296,0
27.7654,-12.8221,0.384349,0
27.9509,-12.7051,0.384261,0
28.1443,-12.5915,0.385736,0
28.335,-12.4716,0.387161,0
28.5228,-12.3452,0.388548,0
28.7073,-12.2125,0.389886,0
28.8883,-12.0735,0.391155,0
29.0655,-11.9282,0.392376,0
29.2385,-11.7768,0.393538,0
29.4071,-11.6193,0.394642,0
29.5709,-11.4559,0.395677,0
29.7315,-11.2876,0.396868,0
29.8898,-11.1152,0.398382,0
30.0428,-10.9371,0.399827,0
30.1902,-10.7535,0.401234,0
30.3318,-10.5646,0.402571,0
30.4827,-10.3771,0.405638,0
30.6295,-10.1847,0.40889,0
30.7693,-9.98657,0.411986,0
30.9016,-9.78283,0.414915,0
31.0259,-9.57376,0.417669,0
31.142,-9.35965,0.420237,0
31.2496,-9.14086,0.42263,0
31.3484,-8.91766,0.424808,0
31.459,-8.69512,0.429036,0
31.565,-8.46884,0.433519,0
31.6622,-8.23828,0.437855,0
31.7503,-8.00375,0.442044,0
31.8291,-7.76561,0.446038,0
31.8981,-7.52427,0.449866,0
31.9573,-7.28011,0.45348,0
31.9901,-7.03262,0.455218,0
32.0113,-6.78389,0.456605,0
32.0212,-6.53444,0.457679,0
32.0302,-6.2847,0.459525,0
32.038,-6.03445,0.462122,0
32.0345,-5.78412,0.464388,0
32.0192,-5.53423,0.466331,0
31.9926,-5.28526,0.467933,0
31.9545,-5.03782,0.469202,0
31.9022,-4.79279,0.469808,0
31.8287,-4.55213,0.469007,0
31.7441,-4.31514,0.467825,0
31.6487,-4.08226,0.466292,0
31.5466,-3.85304,0.464788,0
31.4398,-3.62717,0.463558,0
31.323,-3.40637,0.461966,0
31.1966,-3.19103,0.459993,0
31.0396,-2.98886,0.455267,0
30.8665,-2.79664,0.44932,0
30.6859,-2.61205,0.44305,0
30.4987,-2.43528,0.436507,0
30.3117,-2.26359,0.430472,0
30.1389,-2.09015,0.426634,0
29.9608,-1.92357,0.422659,0
29.7496,-1.77905,0.414984,0
21.2479,-14.1898,0.469036,0
21.4279,-14.2139,0.464788,0
21.6091,-14.2347,0.460618,0
21.7915,-14.2521,0.456546,0
21.975,-14.2662,0.452581,0
22.1596,-14.2768,0.448704,0
22.3453,-14.2841,0.444935,0
22.534,-14.2985,0.442786,0
22.7295,-14.3354,0.444398,0
22.9276,-14.3685,0.446068,0
23.1185,-14.3588,0.442327,0
23.3092,-14.342,0.438216,0
23.5002,-14.3207,0.434134,0
23.6913,-14.2948,0.430062,0
23.8825,-14.2645,0.426019,0
24.0737,-14.2296,0.422005,0
24.2647,-14.19,0.41803,0
24.4555,-14.1459,0.414095,0
24.6458,-14.0971,0.410179,0
24.8357,-14.0436,0.406321,0
25.025,-13.9854,0.402493,0
25.2135,-13.9225,0.398714,0
25.4028,-13.8578,0.395423,0
25.6002,-13.803,0.3943,0
25.7985,-13.745,0.39348,0
25.9963,-13.6815,0.392659,0
26.1933,-13.6123,0.39182,0
26.3893,-13.5375,0.39097,0
26.5842,-13.4569,0.390091,0
26.7777,-13.3707,0.389212,0
26.9696,-13.2787,0.388304,0
27.1598,-13.181,0.387405,0
27.3479,-13.0775,0.386478,0
27.5338,-12.9684,0.38555,0
27.7173,-12.8535,0.384603,0
27.8994,-12.7342,0.38387,0
28.0933,-12.6223,0.385355,0
28.2848,-12.504,0.38679,0
28.4733,-12.3793,0.388187,0
28.6587,-12.2483,0.389525,0
28.8407,-12.1109,0.390814,0
29.019,-11.9673,0.392054,0
29.193,-11.8175,0.393236,0
29.3628,-11.6616,0.394359,0
29.528,-11.4997,0.395413,0
29.6886,-11.3323,0.396468,0
29.8484,-11.1614,0.397982,0
30.0029,-10.9848,0.399446,0
30.1518,-10.8027,0.400862,0
30.2949,-10.6151,0.40222,0
30.4425,-10.427,0.404749,0
30.5912,-10.2363,0.40805,0
30.733,-10.0396,0.411185,0
30.8672,-9.83735,0.414154,0
30.9937,-9.62967,0.416956,0
31.112,-9.41687,0.419573,0
31.222,-9.19927,0.422015,0
31.323,-8.97719,0.424241,0
31.4295,-8.75429,0.427816,0
31.5378,-8.52921,0.432337,0
31.6373,-8.29977,0.436732,0
31.7279,-8.06625,0.44096,0
31.8091,-7.82901,0.444993,0
31.8808,-7.58849,0.448861,0
31.9426,-7.34504,0.452542,0
31.9826,-7.09835,0.454798,0
32.0069,-6.84989,0.456273,0
32.0198,-6.60061,0.457435,0
32.0262,-6.3509,0.458782,0
32.0371,-6.10079,0.461468,0
32.0365,-5.85043,0.463821,0
32.0243,-5.60035,0.465853,0
32.0007,-5.35109,0.467542,0
31.9657,-5.10319,0.46889,0
31.9192,-4.85718,0.469915,0
31.8493,-4.61559,0.469271,0
31.7675,-4.37755,0.468177,0
31.675,-4.14353,0.466732,0
31.573,-3.91369,0.465052,0
31.4691,-3.68654,0.463919,0
31.355,-3.46436,0.462415,0
31.231,-3.24752,0.46054,0
31.0841,-3.04102,0.45678,0
30.913,-2.84683,0.450921,0
30.7345,-2.6602,0.444739,0
30.5489,-2.48133,0.438255,0
30.357,-2.31042,0.431517,0
30.1852,-2.13545,0.427679,0
30.0085,-1.96706,0.423743,0
29.8075,-1.81572,0.41722,0
29.5882,-1.68022,0.408753,0
21.1637,-13.8779,0.481487,0
21.3363,-13.9015,0.477386,0
21.5098,-13.9218,0.473382,0
21.6845,-13.939,0.469476,0
21.8603,-13.9529,0.465657,0
22.0371,-13.9635,0.461927,0
22.2149,-13.9708,0.458304,0
22.3936,-13.9747,0.454779,0
22.5732,-13.9752,0.451351,0
22.7536,-13.9722,0.44803,0
22.941,-13.9911,0.448577,0
23.1222,-13.9757,0.444671,0
23.3036,-13.956,0.440784,0
23.4852,-13.9321,0.436917,0
23.6669,-13.9038,0.43307,0
23.8485,-13.8712,0.429261,0
24.0299,-13.8343,0.425482,0
24.21,-13.7904,0.421351,0
24.3891,-13.7409,0.417073,0
24.5673,-13.6867,0.412786,0
24.7445,-13.6278,0.408489,0
24.9205,-13.5641,0.404183,0
25.0953,-13.4957,0.399886,0
25.2687,-13.4225,0.395589,0
25.4431,-13.349,0.391966,0
25.63,-13.2918,0.391595,0
25.8161,-13.2292,0.391195,0
26.0014,-13.1612,0.390775,0
26.1849,-13.087,0.390189,0
26.3662,-13.006,0.389359,0
26.5459,-12.9197,0.388519,0
26.724,-12.8281,0.387659,0
26.9002,-12.7312,0.3868,0
27.0742,-12.629,0.385921,0
27.246,-12.5215,0.385042,0
27.4153,-12.4088,0.384144,0
27.5819,-12.2908,0.383255,0
27.7456,-12.1677,0.382337,0
27.9083,-12.0412,0.381751,0
28.0798,-11.9192,0.383001,0
28.2482,-11.7913,0.384193,0
28.4131,-11.6578,0.385335,0
28.5744,-11.5187,0.386419,0
28.7316,-11.374,0.387454,0
28.8878,-11.2258,0.38888,0
29.0404,-11.0726,0.390325,0
29.1884,-10.914,0.391722,0
29.3317,-10.7503,0.393079,0
29.4699,-10.5815,0.394398,0
29.6029,-10.4078,0.395657,0
29.7304,-10.2294,0.396868,0
29.8522,-10.0463,0.398021,0
29.9679,-9.85889,0.399124,0
30.0774,-9.66728,0.400159,0
30.1805,-9.47167,0.401136,0
30.277,-9.27234,0.402054,0
30.3685,-9.07001,0.403109,0
30.4637,-8.86722,0.405364,0
30.5704,-8.66521,0.409642,0
30.6617,-8.45726,0.412904,0
30.7443,-8.24555,0.415931,0
30.818,-8.03039,0.418695,0
30.8824,-7.81224,0.421234,0
30.9376,-7.59142,0.423499,0
30.983,-7.36836,0.425491,0
31.0188,-7.14351,0.42722,0
31.0447,-6.91728,0.428675,0
31.0607,-6.69012,0.429847,0
31.0667,-6.46247,0.430736,0
31.0763,-6.23454,0.432845,0
31.0797,-6.00625,0.435111,0
31.073,-5.77802,0.437083,0
31.0502,-5.55082,0.43807,0
31.0136,-5.32525,0.438333,0
30.9667,-5.10161,0.438275,0
30.9099,-4.88032,0.437894,0
30.8433,-4.66179,0.437161,0
30.767,-4.44646,0.436107,0
30.6814,-4.23475,0.43473,0
30.5866,-4.02704,0.43305,0
30.4877,-3.82247,0.431595,0
30.3604,-3.62835,0.427484,0
30.2412,-3.43479,0.424993,0
30.1159,-3.24591,0.422415,0
29.9841,-3.06228,0.419652,0
29.8457,-2.88407,0.416712,0
29.7015,-2.71153,0.413626,0
29.5516,-2.54478,0.410345,0
29.3923,-2.38598,0.40639,0
29.2028,-2.24644,0.398929,0
29.0104,-2.11395,0.39138,0
21.1183,-13.8712,0.482581,0
21.2905,-13.8955,0.47846,0
21.4637,-13.9168,0.474437,0
21.6382,-13.9348,0.470501,0
21.8136,-13.9496,0.466653,0
21.9902,-13.9611,0.462903,0
22.1677,-13.9692,0.459251,0
22.3462,-13.974,0.455696,0
22.5255,-13.9754,0.452249,0
22.7057,-13.9733,0.4489,0
22.8907,-13.9846,0.448148,0
23.0742,-13.9802,0.445706,0
23.2555,-13.9617,0.44182,0
23.4371,-13.9388,0.437943,0
23.6187,-13.9117,0.434095,0
23.8004,-13.8803,0.430267,0
23.9819,-13.8445,0.426478,0
24.1624,-13.8028,0.422474,0
24.3417,-13.7545,0.418206,0
24.5202,-13.7016,0.413929,0
24.6976,-13.6439,0.409632,0
24.874,-13.5814,0.405335,0
25.0491,-13.5143,0.401038,0
25.2229,-13.4424,0.396732,0
25.3951,-13.3658,0.392435,0
25.5805,-13.3075,0.391693,0
25.7668,-13.2464,0.391312,0
25.9523,-13.1798,0.390882,0
26.1367,-13.1076,0.390404,0
26.3183,-13.028,0.389573,0
26.4984,-12.9431,0.388734,0
26.677,-12.8529,0.387894,0
26.8537,-12.7574,0.387025,0
27.0284,-12.6566,0.386165,0
27.2007,-12.5505,0.385277,0
27.3707,-12.4392,0.384388,0
27.538,-12.3226,0.38348,0
27.7025,-12.2008,0.382581,0
27.864,-12.074,0.381673,0
28.0347,-11.9521,0.382669,0
28.2039,-11.8258,0.38388,0
28.3698,-11.6937,0.385032,0
28.532,-11.5561,0.386136,0
28.6904,-11.4129,0.387191,0
28.8467,-11.2655,0.388489,0
29.0004,-11.1137,0.389945,0
29.1496,-10.9566,0.391351,0
29.2942,-10.7942,0.392728,0
29.4338,-10.6267,0.394056,0
29.5682,-10.4543,0.395335,0
29.6972,-10.2771,0.396546,0
29.8205,-10.0952,0.397718,0
29.9378,-9.90895,0.398831,0
30.049,-9.71843,0.399886,0
30.1538,-9.52387,0.400882,0
30.252,-9.32551,0.40181,0
30.3435,-9.12355,0.402679,0
30.4381,-8.92104,0.404661,0
30.5429,-8.71916,0.408529,0
30.6384,-8.51275,0.412064,0
30.7233,-8.30198,0.41514,0
30.7994,-8.08771,0.417982,0
30.8663,-7.8703,0.420579,0
30.9239,-7.65015,0.422913,0
30.972,-7.42765,0.424984,0
31.0103,-7.20323,0.426771,0
31.0388,-6.97732,0.428314,0
31.0574,-6.75037,0.429554,0
31.0661,-6.5228,0.430521,0
31.0737,-6.29497,0.4322,0
31.0798,-6.06677,0.434554,0
31.0759,-5.83845,0.436585,0
31.0581,-5.61086,0.437952,0
31.0243,-5.38486,0.438304,0
30.9801,-5.16066,0.438323,0
30.9259,-4.93871,0.438021,0
30.8619,-4.71937,0.437366,0
30.7881,-4.50317,0.436409,0
30.705,-4.29048,0.43513,0
30.6127,-4.08167,0.433538,0
30.5139,-3.87647,0.431907,0
30.3953,-3.67915,0.428655,0
30.2732,-3.48567,0.425638,0
30.1498,-3.29543,0.423099,0
30.0196,-3.11041,0.420404,0
29.8829,-2.93074,0.417513,0
29.7402,-2.75668,0.414446,0
29.5917,-2.58839,0.411224,0
29.438,-2.426,0.407845,0
29.2533,-2.28272,0.400902,0
29.0616,-2.14837,0.393392,0
21.2447,-13.8894,0.479544,0
21.4177,-13.9114,0.475491,0
21.5918,-13.9303,0.471527,0
21.767,-13.946,0.467659,0
21.9433,-13.9583,0.46389,0
22.1205,-13.9674,0.460208,0
22.2987,-13.9731,0.456634,0
22.4779,-13.9754,0.453157,0
22.6578,-13.9742,0.449778,0
22.8406,-13.9778,0.447718,0
23.0262,-13.9844,0.446741,0
23.2075,-13.967,0.442845,0
23.389,-13.9453,0.438968,0
23.5706,-13.9193,0.435111,0
23.7523,-13.889,0.431273,0
23.9338,-13.8544,0.427484,0
24.1148,-13.8148,0.423607,0
24.2943,-13.7678,0.419339,0
24.473,-13.7161,0.415062,0
24.6507,-13.6596,0.410775,0
24.8273,-13.5984,0.406478,0
25.0028,-13.5325,0.402171,0
25.177,-13.4619,0.397864,0
25.3496,-13.3865,0.393568,0
25.531,-13.3228,0.39179,0
25.7176,-13.2631,0.391419,0
25.9033,-13.1979,0.390999,0
26.088,-13.1274,0.39056,0
26.2703,-13.0496,0.389798,0
26.4509,-12.9661,0.388958,0
26.6298,-12.8774,0.388118,0
26.807,-12.7833,0.387259,0
26.9822,-12.6838,0.38639,0
27.1552,-12.5792,0.385511,0
27.3259,-12.4692,0.384632,0
27.494,-12.354,0.383734,0
27.6593,-12.2336,0.382825,0
27.8215,-12.1081,0.381917,0
27.9894,-11.9846,0.382347,0
28.1594,-11.8598,0.383558,0
28.3263,-11.7293,0.384739,0
28.4894,-11.5931,0.385853,0
28.6488,-11.4514,0.386917,0
28.8053,-11.3048,0.388089,0
28.9601,-11.1545,0.389554,0
29.1105,-10.9987,0.390989,0
29.2564,-10.8377,0.392366,0
29.3973,-10.6716,0.393704,0
29.5331,-10.5004,0.394993,0
29.6636,-10.3245,0.396234,0
29.7884,-10.1439,0.397415,0
29.9073,-9.95874,0.398548,0
30.0202,-9.76932,0.399612,0
30.1267,-9.57581,0.400628,0
30.2267,-9.37845,0.401585,0
30.32,-9.17741,0.402464,0
30.4136,-8.97498,0.404114,0
30.5148,-8.77279,0.407386,0
30.6145,-8.56795,0.411204,0
30.7016,-8.35817,0.414359,0
30.7802,-8.1448,0.417269,0
30.8495,-7.92819,0.419925,0
30.9095,-7.70872,0.422318,0
30.9601,-7.48682,0.424466,0
31.001,-7.26286,0.426331,0
31.0323,-7.0373,0.427933,0
31.0534,-6.81061,0.429261,0
31.0648,-6.58315,0.430296,0
31.0704,-6.35538,0.431536,0
31.0791,-6.12725,0.433948,0
31.0778,-5.89893,0.436077,0
31.0655,-5.67095,0.437806,0
31.0342,-5.44459,0.438245,0
30.9927,-5.21987,0.438362,0
30.9412,-4.99727,0.438138,0
30.8798,-4.77721,0.437581,0
30.8086,-4.56013,0.436693,0
30.7279,-4.34646,0.435501,0
30.638,-4.1366,0.433987,0
30.5395,-3.9308,0.43221,0
30.4295,-3.73033,0.429779,0
30.3048,-3.5369,0.426273,0
30.1831,-3.34535,0.423792,0
30.0548,-3.1589,0.421126,0
29.9197,-2.97781,0.418304,0
29.7786,-2.80225,0.415277,0
29.6316,-2.6324,0.412093,0
29.4792,-2.46842,0.408753,0
29.3036,-2.31949,0.402884,0
29.1127,-2.18328,0.395394,0
28.919,-2.0541,0.387835,0
21.1635,-13.5623,0.485023,0
21.3287,-13.5876,0.481732,0
21.4952,-13.6094,0.478441,0
21.6628,-13.6275,0.47514,0
21.8314,-13.6419,0.471849,0
22.001,-13.6526,0.468568,0
22.1715,-13.6595,0.465286,0
22.3427,-13.6626,0.462015,0
22.5147,-13.6618,0.458763,0
22.6873,-13.6571,0.455511,0
22.8604,-13.6484,0.452288,0
23.0316,-13.6271,0.447737,0
23.2014,-13.597,0.442454,0
23.3734,-13.571,0.43848,0
23.5451,-13.5407,0.434486,0
23.7166,-13.5059,0.430482,0
23.8876,-13.4667,0.426448,0
24.0579,-13.423,0.422396,0
24.2276,-13.3749,0.418343,0
24.3964,-13.3224,0.414261,0
24.5641,-13.2653,0.410189,0
24.7309,-13.2038,0.406107,0
24.8963,-13.1379,0.402034,0
25.0604,-13.0675,0.397952,0
25.223,-12.9928,0.39388,0
25.3839,-12.9136,0.389827,0
25.5555,-12.8483,0.388792,0
25.7289,-12.7819,0.388362,0
25.9012,-12.7105,0.387923,0
26.0721,-12.6339,0.387435,0
26.2415,-12.5523,0.386917,0
26.4093,-12.4655,0.38637,0
26.5752,-12.3737,0.385794,0
26.7389,-12.2768,0.385179,0
26.9004,-12.1748,0.384525,0
27.0595,-12.0678,0.383851,0
27.2158,-11.9558,0.383148,0
27.3692,-11.8388,0.382405,0
27.5195,-11.717,0.381634,0
27.6663,-11.5901,0.380765,0
27.8096,-11.4586,0.379896,0
27.9559,-11.3272,0.380032,0
28.1075,-11.1971,0.381468,0
28.2555,-11.062,0.382864,0
28.3998,-10.9218,0.384232,0
28.5401,-10.7767,0.38557,0
28.6762,-10.6267,0.386859,0
28.8078,-10.4721,0.388118,0
28.9349,-10.3129,0.38932,0
29.057,-10.1492,0.390472,0
29.1739,-9.98129,0.391585,0
29.2855,-9.8092,0.39264,0
29.3917,-9.63316,0.393655,0
29.4921,-9.45333,0.394603,0
29.5866,-9.26992,0.395501,0
29.675,-9.08314,0.396341,0
29.7571,-8.89321,0.397122,0
29.8378,-8.70166,0.39846,0
29.9124,-8.50729,0.399788,0
29.9805,-8.31021,0.401048,0
30.0419,-8.11069,0.402259,0
30.0964,-7.90899,0.403421,0
30.144,-7.70533,0.404495,0
30.1846,-7.50001,0.40554,0
30.218,-7.29328,0.406527,0
30.2443,-7.08538,0.407415,0
30.2633,-6.87663,0.408255,0
30.2751,-6.66729,0.409027,0
30.2778,-6.45768,0.409544,0
30.277,-6.24801,0.410413,0
30.2727,-6.03836,0.411673,0
30.2605,-5.82903,0.412806,0
30.2406,-5.62032,0.413812,0
30.213,-5.41254,0.4147,0
30.1779,-5.20598,0.415443,0
30.1352,-5.00095,0.416058,0
30.0849,-4.79776,0.416556,0
30.0273,-4.59669,0.416907,0
29.9626,-4.39803,0.417142,0
29.8716,-4.20683,0.414857,0
29.7675,-4.0212,0.411644,0
29.6634,-3.83802,0.409085,0
29.5577,-3.6576,0.406986,0
29.4455,-3.4816,0.40471,0
29.3274,-3.3102,0.402249,0
29.2034,-3.1436,0.399642,0
29.0738,-2.982,0.396878,0
28.9338,-2.828,0.393255,0
28.7686,-2.68936,0.386614,0
28.6,-2.55698,0.379915,0
28.4284,-2.43088,0.373148,0
21.1199,-13.555,0.485902,0
21.2848,-13.5813,0.482601,0
21.451,-13.604,0.4793,0
21.6184,-13.623,0.476009,0
21.7867,-13.6384,0.472728,0
21.956,-13.6501,0.469437,0
22.1262,-13.658,0.466155,0
22.2972,-13.6621,0.462884,0
22.4691,-13.6624,0.459622,0
22.6415,-13.6587,0.45637,0
22.8145,-13.6511,0.453138,0
22.9868,-13.6351,0.449251,0
23.1559,-13.6035,0.443568,0
23.3278,-13.5783,0.439534,0
23.4996,-13.5491,0.43555,0
23.6712,-13.5155,0.431536,0
23.8423,-13.4775,0.427513,0
24.0129,-13.435,0.42347,0
24.1827,-13.3881,0.419407,0
24.3518,-13.3367,0.415345,0
24.5198,-13.2809,0.411273,0
24.6868,-13.2206,0.407191,0
24.8527,-13.1558,0.403109,0
25.017,-13.0866,0.399036,0
25.1801,-13.013,0.394964,0
25.3413,-12.935,0.390892,0
25.5095,-12.8651,0.3889,0
25.683,-12.8,0.38848,0
25.8556,-12.7299,0.38804,0
26.027,-12.6547,0.387562,0
26.1968,-12.5744,0.387054,0
26.365,-12.489,0.386517,0
26.5314,-12.3985,0.385941,0
26.6958,-12.3029,0.385345,0
26.8579,-12.2023,0.38471,0
27.0176,-12.0966,0.384036,0
27.1746,-11.9859,0.383333,0
27.3289,-11.8703,0.382601,0
27.4801,-11.7498,0.381849,0
27.6277,-11.6242,0.380999,0
27.772,-11.4939,0.38013,0
27.9154,-11.361,0.379671,0
28.0676,-11.2321,0.381087,0
28.2166,-11.0983,0.382513,0
28.362,-10.9594,0.38388,0
28.5034,-10.8156,0.385228,0
28.6405,-10.6669,0.386527,0
28.7734,-10.5135,0.387786,0
28.9016,-10.3555,0.388997,0
29.0251,-10.193,0.390179,0
29.1434,-10.0262,0.391292,0
29.2566,-9.8552,0.392376,0
29.3641,-9.68018,0.393392,0
29.4661,-9.50133,0.394359,0
29.5621,-9.31885,0.395267,0
29.6521,-9.13295,0.396126,0
29.736,-8.94383,0.396927,0
29.817,-8.75268,0.398089,0
29.8933,-8.55905,0.399437,0
29.963,-8.36268,0.400726,0
30.0262,-8.16378,0.401937,0
30.0826,-7.96263,0.403109,0
30.132,-7.75948,0.404232,0
30.1745,-7.55457,0.405277,0
30.2098,-7.34814,0.406253,0
30.238,-7.14057,0.407191,0
30.259,-6.93201,0.40804,0
30.2727,-6.72281,0.408841,0
30.2791,-6.51323,0.409554,0
30.2768,-6.30354,0.410052,0
30.2745,-6.0939,0.411351,0
30.2645,-5.88445,0.412513,0
30.2466,-5.67556,0.413568,0
30.2212,-5.46748,0.414476,0
30.188,-5.26058,0.415257,0
30.1472,-5.05512,0.415911,0
30.0989,-4.85141,0.416439,0
30.0433,-4.64975,0.41682,0
29.9804,-4.45043,0.417103,0
29.898,-4.25671,0.415687,0
29.7957,-4.06997,0.412513,0
29.6902,-3.88652,0.409613,0
29.5863,-3.70498,0.407552,0
29.4759,-3.52779,0.405335,0
29.3593,-3.35515,0.402913,0
29.2368,-3.18728,0.400364,0
29.1087,-3.02433,0.39763,0
28.9754,-2.86649,0.394749,0
28.8127,-2.72549,0.388392,0
28.645,-2.59146,0.381712,0
28.4741,-2.46369,0.374954,0
21.2411,-13.5747,0.48347,0
21.4069,-13.5983,0.480179,0
21.5739,-13.6183,0.476888,0
21.742,-13.6347,0.473597,0
21.911,-13.6474,0.470306,0
22.0811,-13.6563,0.467025,0
22.2518,-13.6614,0.463753,0
22.4234,-13.6627,0.460491,0
22.5957,-13.6601,0.457239,0
22.7685,-13.6535,0.453997,0
22.9419,-13.6429,0.450765,0
23.1111,-13.6123,0.445071,0
23.2823,-13.5853,0.440589,0
23.4541,-13.5573,0.436605,0
23.6258,-13.5249,0.432611,0
23.797,-13.488,0.428577,0
23.9677,-13.4467,0.424534,0
24.1377,-13.401,0.420482,0
24.307,-13.3508,0.416419,0
24.4754,-13.2961,0.412357,0
24.6427,-13.237,0.408275,0
