10.3963,-0.871211,0.377239,0
10.3315,-0.750146,0.354339,0
10.2637,-0.632139,0.331644,0
10.1931,-0.517324,0.309232,0
10.1199,-0.405723,0.287093,0
10.0443,-0.297393,0.265257,0
9.96659,-0.192363,0.243753,0
9.88695,-0.0906738,0.222591,0
9.80559,0.00767578,0.20179,0
9.72269,0.102686,0.18137,0
9.68233,0.202451,0.17137,0
9.64911,0.302686,0.163665,0
9.61334,0.401777,0.156019,0
9.57508,0.499609,0.148489,0
9.53438,0.596162,0.141029,0
9.49129,0.691348,0.133665,0
9.44588,0.785098,0.1264,0
9.3982,0.877353,0.119261,0
9.34832,0.968115,0.1122,0
9.28481,1.05261,0.102601,0
9.21366,1.13243,0.0917707,0
9.14143,1.21008,0.0812336,0
9.06817,1.28555,0.0709797,0
8.99396,1.35886,0.061009,0
8.91887,1.43,0.0513215,0
8.84295,1.49901,0.0419172,0
8.76625,1.56588,0.0327961,0
8.69993,1.63771,0.0267219,0
8.64759,1.7179,0.0247102,0
8.59356,1.79701,0.0228645,0
8.53789,1.87496,0.0212141,0
8.48059,1.95173,0.0197297,0
8.42169,2.02727,0.0184504,0
8.3612,2.10157,0.0173371,0
8.29916,2.1746,0.0164094,0
8.23558,2.24631,0.015677,0
8.17048,2.31671,0.0151203,0
8.10467,2.38651,0.0149836,0
8.04034,2.45814,0.0159113,0
7.97448,2.5286,0.0170637,0
7.9071,2.59788,0.0184211,0
7.83823,2.66595,0.0200031,0
7.76788,2.73279,0.0217902,0
7.69605,2.79834,0.0237922,0
7.05303,-4.77153,0.549241,0
7.15488,-4.73985,0.547054,0
7.25634,-4.70585,0.544808,0
7.35733,-4.66949,0.542493,0
7.45892,-4.63269,0.540784,0
7.56115,-4.59528,0.539652,0
7.66283,-4.55532,0.538402,0
7.76389,-4.51272,0.537015,0
7.86426,-4.46754,0.535511,0
7.96384,-4.41974,0.53387,0
8.06258,-4.36934,0.532103,0
8.16408,-4.32084,0.531927,0
8.26968,-4.2752,0.533753,0
8.37467,-4.22662,0.535452,0
8.47894,-4.17503,0.536946,0
8.58239,-4.12046,0.538284,0
8.68491,-4.0629,0.539456,0
8.78638,-4.00232,0.540413,0
8.88669,-3.93873,0.541204,0
8.98501,-3.87153,0.541536,0
9.08187,-3.80137,0.541663,0
9.17715,-3.7282,0.541575,0
9.27075,-3.6521,0.541282,0
9.36253,-3.57307,0.540765,0
9.45236,-3.49114,0.540032,0
9.54014,-3.40636,0.539056,0
9.62573,-3.31881,0.537884,0
9.70903,-3.2285,0.536488,0
9.78991,-3.13542,0.534827,0
9.86824,-3.03979,0.532972,0
9.9439,-2.94154,0.530863,0
10.0168,-2.8408,0.528538,0
10.0868,-2.73768,0.52598,0
10.1538,-2.63217,0.523177,0
10.2177,-2.52446,0.520159,0
10.2784,-2.41457,0.516888,0
10.3358,-2.30266,0.513411,0
10.3898,-2.18879,0.5097,0
10.4403,-2.0731,0.505765,0
10.4872,-1.9557,0.501605,0
10.5304,-1.83672,0.49723,0
10.5699,-1.71625,0.49263,0
10.6029,-1.59396,0.487132,0
10.6295,-1.47024,0.480853,0
10.5989,-1.33891,0.461458,0
10.552,-1.20804,0.439134,0
10.4966,-1.07924,0.415784,0
10.4374,-0.953223,0.392552,0
10.3748,-0.830186,0.369525,0
10.309,-0.710117,0.346683,0
10.2402,-0.593184,0.324085,0
10.1687,-0.479424,0.301751,0
10.0947,-0.368926,0.27971,0
10.0184,-0.261699,0.257982,0
9.94002,-0.157793,0.236595,0
9.85978,-0.0572461,0.21557,0
9.77788,0.04,0.194886,0
9.70295,0.135303,0.176527,0
9.67144,0.23627,0.168773,0
9.63736,0.336143,0.161077,0
9.60075,0.434824,0.15348,0
9.56166,0.532227,0.14597,0
9.52016,0.62832,0.138529,0
9.47628,0.723008,0.131224,0
9.4301,0.816299,0.123978,0
9.38167,0.908066,0.116868,0
9.33106,0.998271,0.109857,0
9.26102,1.07969,0.0989289,0
9.18949,1.15878,0.0882063,0
9.1169,1.2357,0.077757,0
9.04332,1.31045,0.067591,0
8.96881,1.38303,0.057718,0
8.89343,1.45348,0.0481086,0
8.81724,1.52175,0.038802,0
8.7403,1.58789,0.0297883,0
8.68252,1.66479,0.0260188,0
8.62961,1.74463,0.0240656,0
8.57503,1.82335,0.0222883,0
8.51881,1.90089,0.0207063,0
8.46097,1.97726,0.0192805,0
8.40153,2.05238,0.0180598,0
8.34052,2.12627,0.0169953,0
8.27795,2.19885,0.0161555,0
8.21385,2.27014,0.0154719,0
8.14826,2.34007,0.0149836,0
8.08321,2.41073,0.015257,0
8.01836,2.48197,0.0162727,0
7.03667,-4.65195,0.546048,0
7.13559,-4.62005,0.54389,0
7.23408,-4.58586,0.541673,0
7.3321,-4.54939,0.539398,0
7.42958,-4.51065,0.537054,0
7.52648,-4.46964,0.534652,0
7.62274,-4.42637,0.53222,0
7.71996,-4.38318,0.530599,0
7.81684,-4.33806,0.529066,0
7.91292,-4.29042,0.527425,0
8.00813,-4.24025,0.525638,0
8.10239,-4.18759,0.523724,0
8.20246,-4.14023,0.524818,0
8.30317,-4.09152,0.526312,0
8.40311,-4.03998,0.527669,0
8.5022,-3.98555,0.528841,0
8.60017,-3.92813,0.529798,0
8.69659,-3.8674,0.530374,0
8.79176,-3.80379,0.530765,0
8.88557,-3.73732,0.53097,0
8.97791,-3.66801,0.53097,0
9.06867,-3.59587,0.530765,0
9.15773,-3.52091,0.530345,0
9.24498,-3.44317,0.52972,0
9.33031,-3.36272,0.52889,0
9.4136,-3.27957,0.527845,0
9.49474,-3.19377,0.526595,0
9.5736,-3.10536,0.525101,0
9.6501,-3.0144,0.523402,0
9.7241,-2.92097,0.521478,0
9.7955,-2.82513,0.519349,0
9.86421,-2.72694,0.516995,0
9.93009,-2.62651,0.514417,0
9.99307,-2.52386,0.511605,0
10.053,-2.41912,0.508577,0
10.1099,-2.3124,0.505335,0
10.1635,-2.20377,0.501868,0
10.2139,-2.09334,0.498196,0
10.2609,-1.98123,0.49432,0
10.3045,-1.86753,0.490218,0
10.3445,-1.75235,0.485902,0
10.3712,-1.63401,0.4789,0
10.3842,-1.51323,0.469193,0
10.3619,-1.38777,0.451419,0
10.3188,-1.26165,0.429398,0
10.2718,-1.13785,0.407435,0
10.221,-1.01646,0.38553,0
10.1667,-0.897617,0.363743,0
10.1092,-0.781465,0.342122,0
10.0486,-0.668066,0.320667,0
9.98524,-0.557529,0.299427,0
9.91921,-0.449912,0.278421,0
9.85078,-0.345273,0.257689,0
9.78013,-0.243643,0.23722,0
9.70747,-0.145059,0.217044,0
9.63298,-0.0495703,0.19721,0
9.57893,0.04625,0.182894,0
9.55054,0.144785,0.175335,0
9.51962,0.242344,0.167825,0
9.48623,0.338779,0.160404,0
9.4504,0.434072,0.15306,0
9.41219,0.528135,0.145814,0
9.37166,0.620937,0.138636,0
9.32885,0.712393,0.131556,0
9.28382,0.802451,0.124583,0
9.23663,0.891084,0.117698,0
9.18733,0.978193,0.110931,0
9.12371,1.05854,0.101302,0
9.05471,1.13511,0.0909113,0
8.98464,1.20956,0.0808137,0
8.9136,1.28196,0.0709602,0
8.84162,1.35229,0.0613996,0
8.76877,1.42052,0.0521125,0
8.69512,1.48671,0.0430695,0
8.62945,1.55631,0.0365852,0
8.57896,1.6349,0.0345539,0
8.52683,1.71243,0.0326984,0
8.47308,1.78881,0.0310285,0
8.41773,1.86406,0.0295344,0
8.3608,1.93812,0.0282258,0
8.30233,2.01099,0.0270832,0
8.24231,2.08262,0.0261262,0
8.18079,2.15299,0.0253352,0
8.11778,2.22205,0.0247297,0
8.05687,2.29334,0.0253938,0
7.99444,2.36355,0.0262531,0
7.93052,2.43261,0.0273371,0
7.86512,2.50054,0.0285969,0
7.79825,2.56726,0.0301008,0
7.72993,2.63277,0.0318,0
7.66017,2.69705,0.0336945,0
6.9708,-4.67189,0.547454,0
7.06997,-4.64148,0.545335,0
7.16876,-4.60879,0.543148,0
7.26709,-4.57385,0.540911,0
7.36493,-4.53661,0.538597,0
7.46223,-4.49712,0.536253,0
7.55892,-4.45534,0.533841,0
7.65525,-4.41174,0.531536,0
7.75262,-4.3683,0.530101,0
7.84924,-4.32232,0.528529,0
7.94503,-4.27382,0.52682,0
8.03993,-4.22284,0.525023,0
8.13524,-4.17097,0.523724,0
8.2364,-4.12417,0.525335,0
8.33687,-4.0745,0.52678,0
8.43653,-4.02199,0.528079,0
8.5353,-3.96661,0.529202,0
8.63272,-3.90803,0.530013,0
8.72873,-3.84634,0.53054,0
8.82345,-3.78176,0.530863,0
8.91678,-3.71434,0.530999,0
9.0086,-3.64406,0.530921,0
9.0988,-3.57098,0.530657,0
9.18727,-3.49509,0.530159,0
9.27389,-3.41645,0.529476,0
9.35855,-3.33507,0.528568,0
9.44113,-3.25101,0.527445,0
9.52151,-3.16434,0.526116,0
9.59959,-3.07507,0.524564,0
9.67526,-2.98325,0.522777,0
9.74841,-2.88901,0.520794,0
9.81891,-2.79237,0.518577,0
9.88668,-2.69343,0.516146,0
9.9516,-2.59223,0.513489,0
10.0136,-2.48888,0.510609,0
10.0725,-2.38347,0.507523,0
10.1283,-2.27608,0.504193,0
10.1809,-2.16686,0.500677,0
10.2301,-2.05581,0.496907,0
10.2759,-1.94315,0.492952,0
10.3183,-1.82896,0.488792,0
10.3571,-1.71333,0.484407,0
10.3761,-1.59345,0.475677,0
10.3875,-1.47254,0.465833,0
10.3479,-1.34512,0.444007,0
10.3034,-1.21976,0.421995,0
10.2551,-1.09675,0.400052,0
10.2031,-0.976221,0.378206,0
10.1478,-0.858262,0.356458,0
10.0892,-0.743027,0.334886,0
10.0276,-0.630576,0.313499,0
9.96332,-0.521035,0.292357,0
9.89646,-0.414395,0.271429,0
9.82726,-0.310752,0.250765,0
9.75591,-0.210146,0.230394,0
9.68262,-0.112617,0.210345,0
9.60756,-0.0181641,0.190609,0
9.56967,0.0794922,0.180345,0
9.54042,0.177695,0.172806,0
9.50867,0.274883,0.165335,0
9.47445,0.370947,0.157933,0
9.43782,0.46585,0.150609,0
9.39882,0.559502,0.143363,0
9.35752,0.651855,0.136224,0
9.31395,0.742842,0.129193,0
9.26819,0.832422,0.122249,0
9.22029,0.920527,0.115423,0
9.16891,1.00657,0.108353,0
9.10063,1.08452,0.0977766,0
9.03126,1.16039,0.0874738,0
8.96086,1.23415,0.0774641,0
8.88949,1.30584,0.067718,0
8.81722,1.37546,0.0582453,0
8.7441,1.44299,0.0490461,0
8.67019,1.5085,0.0401106,0
8.61266,1.58285,0.0358918,0
8.56162,1.66108,0.0339191,0
8.50894,1.73822,0.0321223,0
8.45465,1.81426,0.0305012,0
8.39876,1.88909,0.0290754,0
8.34131,1.96275,0.0278254,0
8.28232,2.03521,0.0267414,0
8.2218,2.10644,0.0258234,0
8.15977,2.17637,0.0251106,0
8.09747,2.24615,0.024925,0
8.03605,2.31708,0.0256574,0
7.97312,2.3869,0.0265852,0
7.9087,2.45559,0.0277375,0
7.8428,2.5231,0.0290949,0
7.77544,2.58941,0.0306574,0
7.70664,2.65452,0.0324152,0
7.63639,2.71838,0.0343879,0
7.00419,-4.6619,0.546741,0
7.10323,-4.63074,0.544603,0
7.20187,-4.5973,0.542405,0
7.30004,-4.56158,0.54014,0
7.39771,-4.5236,0.537835,0
7.49481,-4.48332,0.535452,0
7.59129,-4.4408,0.53303,0
7.68807,-4.39741,0.531068,0
7.78519,-4.35312,0.529593,0
7.88154,-4.3063,0.527982,0
7.97705,-4.25694,0.526224,0
8.07162,-4.20512,0.524368,0
8.16932,-4.15555,0.524271,0
8.27026,-4.1078,0.525843,0
8.37048,-4.05718,0.527239,0
8.46985,-4.00369,0.52847,0
8.56828,-3.94734,0.529534,0
8.66514,-3.88761,0.530208,0
8.76073,-3.82493,0.530657,0
8.855,-3.75941,0.530931,0
8.94783,-3.69103,0.530999,0
9.03911,-3.61979,0.530853,0
9.12875,-3.54578,0.530521,0
9.21661,-3.46895,0.529954,0
9.30258,-3.38937,0.529193,0
9.38655,-3.30711,0.528226,0
9.4684,-3.22215,0.527015,0
9.54803,-3.1346,0.525609,0
9.62532,-3.04446,0.523978,0
9.70014,-2.95185,0.522142,0
9.77241,-2.8568,0.520081,0
9.84201,-2.75936,0.517786,0
9.90883,-2.65965,0.515277,0
9.97277,-2.5577,0.512542,0
10.0337,-2.45364,0.509583,0
10.0916,-2.34758,0.506429,0
10.1463,-2.23955,0.50303,0
10.1978,-2.1297,0.499427,0
10.2459,-2.01812,0.495609,0
10.2906,-1.90494,0.491585,0
10.3318,-1.79025,0.487347,0
10.3658,-1.67346,0.481986,0
10.3805,-1.55284,0.472415,0
10.3752,-1.42953,0.458626,0
10.3334,-1.30272,0.436614,0
10.2876,-1.17813,0.414613,0
10.238,-1.05593,0.392689,0
10.1849,-0.93626,0.370882,0
10.1284,-0.819219,0.349193,0
10.0688,-0.704912,0.327679,0
10.0063,-0.593418,0.306361,0
9.94111,-0.484824,0.285277,0
9.87344,-0.379219,0.264456,0
9.8035,-0.276592,0.24388,0
9.73148,-0.177021,0.223626,0
9.65757,-0.0805078,0.203665,0
9.58767,0.01375,0.185394,0
9.56012,0.112637,0.177796,0
9.53003,0.210508,0.170277,0
9.49744,0.307324,0.162825,0
9.4624,0.402988,0.155462,0
9.42497,0.49748,0.148167,0
9.38519,0.590684,0.14097,0
9.34312,0.682598,0.133851,0
9.29881,0.773115,0.126859,0
9.25232,0.862227,0.119935,0
9.20371,0.949824,0.113148,0
9.14608,1.033,0.104779,0
9.07743,1.11024,0.0942902,0
9.0077,1.18543,0.0840754,0
8.93697,1.25849,0.0741535,0
8.86529,1.32947,0.0645051,0
8.79273,1.3984,0.0551203,0
8.71933,1.46526,0.0459992,0
8.64563,1.53033,0.037298,0
8.59568,1.60928,0.0352082,0
8.54409,1.68715,0.0332941,0
8.49086,1.76392,0.0315656,0
8.43604,1.83953,0.0300129,0
8.37962,1.914,0.0286262,0
8.32165,1.98727,0.027425,0
8.26214,2.0593,0.0264094,0
8.20111,2.1301,0.0255598,0
8.13858,2.19957,0.0249152,0
8.07698,2.27012,0.0251496,0
8.01505,2.34068,0.0259504,0
7.95162,2.41011,0.026966,0
6.98925,-4.54765,0.543675,0
7.0855,-4.51624,0.541556,0
7.18132,-4.48264,0.539388,0
7.27666,-4.44683,0.537161,0
7.37145,-4.4088,0.534886,0
7.46567,-4.36855,0.532552,0
7.55925,-4.3261,0.530159,0
7.65214,-4.28143,0.527718,0
7.74429,-4.23455,0.525218,0
7.83564,-4.18549,0.522669,0
7.9262,-4.13429,0.520091,0
8.01743,-4.08276,0.518216,0
8.10765,-4.02887,0.516243,0
8.20374,-3.98007,0.517259,0
8.29979,-3.92938,0.51846,0
8.39457,-3.8756,0.519349,0
8.48833,-3.81899,0.520032,0
8.58096,-3.75966,0.52055,0
8.67236,-3.69756,0.520872,0
8.76242,-3.63273,0.521009,0
8.85104,-3.56518,0.52096,0
8.93811,-3.49491,0.520696,0
9.02351,-3.422,0.520257,0
9.10716,-3.34641,0.519593,0
9.18894,-3.26823,0.518753,0
9.26873,-3.18748,0.517689,0
9.34644,-3.10421,0.516429,0
9.42195,-3.01846,0.514954,0
9.49516,-2.93029,0.513275,0
9.56597,-2.83977,0.51137,0
9.63427,-2.74694,0.509271,0
9.69996,-2.65189,0.506956,0
9.76295,-2.55471,0.504427,0
9.82314,-2.45544,0.501693,0
9.88043,-2.3542,0.498743,0
9.93474,-2.25106,0.495579,0
9.98599,-2.14612,0.49222,0
10.0341,-2.03948,0.488655,0
10.0683,-1.92846,0.481976,0
10.0949,-1.81543,0.473987,0
10.1169,-1.70149,0.465579,0
10.1344,-1.5868,0.456732,0
10.1473,-1.47161,0.447532,0
10.1132,-1.35003,0.426937,0
10.0749,-1.23029,0.406224,0
10.0328,-1.11262,0.38554,0
9.98709,-0.997139,0.364915,0
9.93807,-0.883955,0.344368,0
9.8859,-0.773203,0.323948,0
9.83076,-0.664971,0.303675,0
9.77286,-0.559336,0.283587,0
9.71239,-0.456367,0.263695,0
9.64954,-0.356113,0.244017,0
9.5845,-0.258662,0.224593,0
9.51744,-0.163994,0.205433,0
9.46812,-0.0696191,0.191341,0
9.44347,0.0268652,0.183948,0
9.41632,0.122451,0.176605,0
9.38674,0.21707,0.169329,0
9.35475,0.310664,0.162132,0
9.32041,0.403145,0.155003,0
9.28376,0.494463,0.147943,0
9.24485,0.58457,0.140989,0
9.20374,0.673389,0.134114,0
9.16047,0.760889,0.127327,0
9.11511,0.846973,0.120667,0
9.06769,0.93165,0.114085,0
9.01551,1.01365,0.106927,0
8.94918,1.08846,0.0967805,0
8.88179,1.16126,0.0868977,0
8.8134,1.23207,0.0772785,0
8.74407,1.30089,0.0679035,0
8.67386,1.3677,0.0588215,0
8.60282,1.43251,0.0499934,0
8.54565,1.50456,0.0453156,0
8.4964,1.58126,0.0433332,0
8.44554,1.65688,0.0415363,0
8.39309,1.73142,0.0399055,0
8.33909,1.80483,0.0384406,0
8.28354,1.8771,0.0371613,0
8.22647,1.94819,0.0360481,0
8.1679,2.01808,0.0351105,0
8.10841,2.08722,0.0345148,0
8.05029,2.15784,0.0349738,0
7.99068,2.22738,0.0356379,0
7.92959,2.29587,0.0364973,0
7.86705,2.36324,0.037552,0
7.80305,2.42947,0.0388215,0
7.73763,2.49452,0.0402961,0
7.67078,2.55839,0.0419758,0
7.60254,2.62104,0.0438508,0
6.92515,-4.56726,0.545032,0
7.02166,-4.53733,0.542972,0
7.11777,-4.5052,0.540843,0
7.21343,-4.47087,0.538665,0
7.30859,-4.4343,0.536419,0
7.4032,-4.39552,0.534114,0
7.49721,-4.35454,0.531761,0
7.59057,-4.31135,0.529359,0
7.68321,-4.26592,0.526878,0
7.7751,-4.2183,0.524368,0
7.86616,-4.16849,0.5218,0
7.95698,-4.11725,0.519486,0
8.04788,-4.06492,0.517571,0
8.13947,-4.01213,0.516341,0
8.23616,-3.96338,0.517698,0
8.33176,-3.9116,0.518773,0
8.42622,-3.85686,0.519583,0
8.5196,-3.79936,0.520228,0
8.61183,-3.73907,0.520667,0
8.70279,-3.67608,0.52095,0
8.79238,-3.61032,0.521019,0
8.88049,-3.54185,0.520882,0
8.96701,-3.47068,0.52057,0
9.05184,-3.39687,0.520052,0
9.13487,-3.32041,0.519339,0
9.216,-3.24136,0.518411,0
9.2951,-3.15974,0.517278,0
9.37208,-3.07564,0.51595,0
9.44682,-2.98909,0.514417,0
9.51924,-2.90012,0.512659,0
9.58922,-2.80881,0.510687,0
9.65665,-2.71522,0.508509,0
9.72145,-2.61947,0.506136,0
9.78351,-2.52155,0.503529,0
9.84273,-2.42163,0.500726,0
9.89903,-2.31973,0.497698,0
9.95232,-2.21599,0.494486,0
10.0025,-2.11046,0.491048,0
10.0482,-2.00289,0.487044,0
10.0778,-1.89058,0.479339,0
10.1028,-1.77722,0.471214,0
10.1233,-1.66299,0.46264,0
10.1392,-1.54812,0.453695,0
10.1365,-1.43056,0.440657,0
10.1008,-1.30955,0.419974,0
10.0611,-1.19051,0.39928,0
10.0178,-1.07354,0.378597,0
9.97098,-0.958818,0.357991,0
9.92087,-0.846426,0.337474,0
9.86768,-0.736523,0.317113,0
9.81159,-0.62915,0.296898,0
9.7528,-0.524404,0.276868,0
9.69151,-0.422363,0.257054,0
9.62791,-0.323027,0.237454,0
9.56217,-0.226514,0.218128,0
9.49448,-0.132822,0.199075,0
9.46011,-0.0370898,0.188851,0
9.43462,0.0591309,0.181458,0
9.40665,0.154395,0.174144,0
9.37625,0.248672,0.166888,0
9.34346,0.341875,0.15973,0
9.30834,0.434004,0.152601,0
9.27093,0.524902,0.145599,0
9.23127,0.61458,0.138665,0
9.18943,0.702969,0.13182,0
9.14545,0.78998,0.125081,0
9.09939,0.875605,0.11845,0
9.0513,0.959805,0.111888,0
8.99333,1.03902,0.103489,0
8.92664,1.11317,0.0934211,0
8.8589,1.1853,0.0836262,0
8.79019,1.25543,0.0740949,0
8.72056,1.32357,0.0648273,0
8.65006,1.38971,0.0558332,0
8.57876,1.45388,0.0470734,0
8.52927,1.53045,0.0446418,0
8.47948,1.60681,0.0427082,0
8.42808,1.68206,0.0409699,0
8.37511,1.75623,0.0393879,0
8.32058,1.82926,0.0380012,0
8.26452,1.90113,0.0367609,0
8.20695,1.97181,0.0357258,0
8.14788,2.04129,0.0348371,0
8.08904,2.11107,0.0346418,0
8.03041,2.18135,0.0351691,0
7.9703,2.25054,0.0359016,0
7.90872,2.31865,0.0368293,0
7.84569,2.38565,0.0379523,0
7.78121,2.45147,0.0392902,0
7.71531,2.51611,0.0408527,0
7.64799,2.57959,0.0425813,0
7.57928,2.64181,0.0445441,0
6.95764,-4.55745,0.544359,0
7.05402,-4.52679,0.542269,0
7.14998,-4.4939,0.540111,0
7.24548,-4.45882,0.537913,0
7.34047,-4.4215,0.535648,0
7.43489,-4.38198,0.533323,0
7.52868,-4.34026,0.53096,0
7.6218,-4.2963,0.528519,0
7.71419,-4.25016,0.526048,0
7.8058,-4.20182,0.523519,0
7.89659,-4.15122,0.520911,0
7.98765,-4.09991,0.518851,0
8.07821,-4.0468,0.516917,0
8.17207,-3.99604,0.51682,0
8.26849,-3.94638,0.518118,0
8.36363,-3.89351,0.519066,0
8.45773,-3.83783,0.519827,0
8.55074,-3.77938,0.520384,0
8.64256,-3.71818,0.520775,0
8.73308,-3.65427,0.520989,0
8.82218,-3.5876,0.520989,0
8.90976,-3.51823,0.520814,0
8.99573,-3.44617,0.520423,0
9.07998,-3.37145,0.519837,0
9.16237,-3.29411,0.519046,0
9.24282,-3.21421,0.51806,0
9.32122,-3.13178,0.516878,0
9.39746,-3.04681,0.515452,0
9.47144,-2.95942,0.513841,0
9.54305,-2.86967,0.512015,0
9.61217,-2.77761,0.509993,0
9.67874,-2.68328,0.507747,0
9.74262,-2.58679,0.505286,0
9.80374,-2.48817,0.502611,0
9.86199,-2.38758,0.49973,0
9.91729,-2.28505,0.496644,0
9.96955,-2.18068,0.493343,0
10.0187,-2.07459,0.489847,0
10.0587,-1.96526,0.484515,0
10.0867,-1.85256,0.476644,0
10.1102,-1.73891,0.468372,0
10.1292,-1.62444,0.459681,0
10.1435,-1.50937,0.450579,0
10.1249,-1.38967,0.433714,0
10.0879,-1.26931,0.413011,0
10.047,-1.15093,0.392308,0
10.0024,-1.03472,0.371663,0
9.95449,-0.920762,0.351077,0
9.90332,-0.809209,0.330618,0
9.84913,-0.700137,0.310296,0
9.79211,-0.593633,0.29014,0
9.73246,-0.489785,0.270179,0
9.67038,-0.388643,0.250423,0
9.60604,-0.290273,0.230931,0
9.53962,-0.194697,0.211683,0
9.47565,-0.101416,0.193773,0
9.45182,-0.00464844,0.18637,0
9.42549,0.09125,0.179007,0
9.3967,0.186201,0.171702,0
9.36549,0.280137,0.164476,0
9.33191,0.372979,0.157327,0
9.29601,0.464697,0.150247,0
9.25784,0.555186,0.143255,0
9.21745,0.644434,0.136361,0
9.17488,0.732363,0.129554,0
9.13019,0.818936,0.122835,0
9.08344,0.904082,0.116224,0
9.03469,0.987744,0.10973,0
8.97103,1.06419,0.100071,0
8.90397,1.13766,0.0901008,0
8.83591,1.20911,0.0803938,0
8.76688,1.27856,0.0709504,0
8.69695,1.34603,0.0617707,0
8.62617,1.41149,0.0528547,0
8.56143,1.47921,0.046009,0
8.51271,1.55625,0.043968,0
8.46238,1.63221,0.0421125,0
8.41045,1.70711,0.0404231,0
8.35695,1.78091,0.0388996,0
8.3019,1.85356,0.0375617,0
8.24533,1.92504,0.0363898,0
8.18725,1.9953,0.0354035,0
8.12769,2.06437,0.0345832,0
8.06949,2.13481,0.0348078,0
8.01037,2.20473,0.0353938,0
7.94976,2.27356,0.0361848,0
7.88769,2.3413,0.0371809,0
6.94401,-4.44813,0.541419,0
7.03772,-4.41726,0.539359,0
7.13099,-4.38422,0.53723,0
7.22379,-4.34903,0.535062,0
7.31603,-4.31169,0.532835,0
7.4077,-4.27218,0.53053,0
7.49874,-4.23053,0.528206,0
7.58908,-4.18674,0.525823,0
7.67869,-4.14079,0.523382,0
7.7675,-4.09269,0.520882,0
7.85547,-4.04246,0.518343,0
7.94253,-3.99012,0.515755,0
8.02778,-3.93468,0.512708,0
8.10387,-3.86836,0.505872,0
8.19721,-3.8198,0.507445,0
8.29289,-3.7717,0.510228,0
8.38312,-3.71635,0.510853,0
8.47223,-3.65832,0.511282,0
8.56013,-3.5977,0.511556,0
8.64671,-3.53444,0.511644,0
8.73187,-3.46858,0.511546,0
8.81552,-3.40013,0.511243,0
8.89754,-3.32914,0.510784,0
8.97785,-3.2556,0.510101,0
9.05633,-3.17958,0.509232,0
9.13289,-3.10112,0.508167,0
9.20742,-3.02022,0.506888,0
9.27982,-2.937,0.505423,0
9.35,-2.85148,0.503782,0
9.41785,-2.7637,0.501917,0
9.48329,-2.67374,0.499847,0
9.54621,-2.58166,0.497571,0
9.60652,-2.48752,0.495081,0
9.66349,-2.3912,0.49223,0
9.7096,-2.29009,0.486771,0
9.75173,-2.18729,0.480872,0
9.7898,-2.08288,0.474515,0
9.82374,-1.97712,0.467728,0
9.8535,-1.8701,0.460501,0
9.87904,-1.76206,0.452884,0
9.90031,-1.65313,0.444847,0
9.9173,-1.54353,0.436429,0
9.9168,-1.43123,0.424085,0
9.88631,-1.3156,0.404583,0
9.85207,-1.20166,0.385062,0
9.81424,-1.08956,0.36553,0
9.773,-0.979443,0.346029,0
9.72854,-0.871436,0.326605,0
9.68104,-0.765635,0.307279,0
9.63066,-0.662119,0.28807,0
9.5776,-0.560977,0.269007,0
9.52203,-0.462305,0.25013,0
9.46412,-0.366123,0.231429,0
9.40404,-0.27251,0.212962,0
9.36028,-0.179502,0.199339,0
9.33914,-0.0850684,0.192113,0
9.31556,0.00858398,0.184925,0
9.28958,0.101367,0.177796,0
9.26122,0.193232,0.170736,0
9.23054,0.284102,0.163743,0
9.19758,0.373916,0.156829,0
9.16238,0.462627,0.149993,0
9.12499,0.550186,0.143216,0
9.08546,0.636494,0.136546,0
9.04384,0.721543,0.129964,0
9.00017,0.805273,0.12347,0
8.95451,0.887598,0.117083,0
8.90692,0.968564,0.110775,0
8.84884,1.04411,0.102357,0
8.78395,1.11534,0.0926789,0
8.71805,1.18459,0.0832844,0
8.6512,1.25194,0.0741242,0
8.58346,1.31738,0.065218,0
8.51488,1.38091,0.0565559,0
8.4655,1.45506,0.053675,0
8.41743,1.52991,0.0517512,0
8.36778,1.60377,0.0499738,0
8.31659,1.67652,0.048382,0
8.26387,1.74818,0.0469563,0
8.20963,1.81875,0.0456965,0
8.15392,1.88812,0.0446223,0
8.0979,1.95735,0.0440656,0
8.04247,2.0273,0.0443391,0
7.98557,2.09625,0.0447883,0
7.92721,2.16415,0.0454523,0
7.86742,2.23099,0.0463117,0
7.80619,2.29673,0.0473566,0
7.74355,2.36135,0.0486164,0
7.67951,2.42481,0.0500617,0
7.61409,2.48709,0.0517219,0
7.5473,2.54816,0.0535969,0
6.8816,-4.46744,0.542757,0
6.97557,-4.43799,0.540736,0
7.06914,-4.40639,0.538655,0
7.16225,-4.37263,0.536507,0
7.25486,-4.33672,0.53431,0
7.34692,-4.29865,0.532073,0
7.43839,-4.25842,0.529759,0
7.52919,-4.21604,0.527405,0
7.6193,-4.17153,0.525013,0
7.70864,-4.12485,0.522542,0
7.79717,-4.07605,0.520032,0
7.88484,-4.0251,0.517474,0
7.97159,-3.97203,0.514866,0
8.05357,-3.91262,0.510433,0
8.13256,-3.84938,0.50515,0
8.22978,-3.80426,0.508529,0
8.32335,-3.75336,0.510443,0
8.41321,-3.69714,0.511019,0
8.50193,-3.63823,0.5114,0
8.58939,-3.57672,0.511605,0
8.6755,-3.51261,0.511644,0
8.76017,-3.44586,0.511468,0
8.84328,-3.37655,0.511116,0
8.92474,-3.30469,0.51057,0
9.00445,-3.23031,0.509818,0
9.08229,-3.15349,0.5089,0
9.15818,-3.07418,0.507757,0
9.232,-2.99252,0.506429,0
9.30367,-2.90852,0.504905,0
9.37308,-2.82222,0.503177,0
9.44013,-2.73369,0.501243,0
9.50473,-2.64301,0.499105,0
9.56678,-2.55022,0.496761,0
9.6262,-2.45544,0.494222,0
9.67943,-2.35742,0.490452,0
9.72421,-2.25571,0.484837,0
9.76498,-2.15233,0.478773,0
9.80167,-2.04745,0.472269,0
9.83422,-1.94125,0.465335,0
9.86256,-1.83389,0.457991,0
9.88667,-1.72551,0.450218,0
9.9065,-1.61635,0.442064,0
9.92204,-1.50655,0.433519,0
9.90698,-1.39217,0.417532,0
9.87521,-1.27708,0.398021,0
9.83974,-1.16374,0.378489,0
9.80075,-1.05231,0.358968,0
9.7584,-0.942891,0.339486,0
9.7129,-0.835605,0.320101,0
9.66441,-0.730566,0.300804,0
9.61311,-0.627842,0.281644,0
9.55919,-0.527529,0.26265,0
9.50281,-0.429688,0.243821,0
9.44415,-0.334355,0.225198,0
9.38338,-0.241621,0.2068,0
9.35345,-0.147666,0.196898,0
9.33149,-0.0534863,0.189681,0
9.30709,0.0398828,0.182523,0
9.28031,0.132344,0.175433,0
9.25117,0.223896,0.168382,0
9.21971,0.314424,0.161409,0
9.186,0.403877,0.154515,0
9.15005,0.492217,0.147689,0
9.11194,0.579336,0.14097,0
9.0717,0.665264,0.13431,0
9.02938,0.749844,0.127767,0
8.98504,0.833115,0.121302,0
8.93873,0.91499,0.114954,0
8.89049,0.995449,0.108675,0
8.82714,1.06828,0.0990656,0
8.7619,1.13884,0.0894953,0
8.69568,1.20746,0.0801691,0
8.62852,1.27417,0.0710969,0
8.56049,1.33896,0.0622688,0
8.49654,1.40479,0.055052,0
8.44952,1.48034,0.0530109,0
8.40091,1.55486,0.0511359,0
8.35074,1.62833,0.0494367,0
8.29903,1.70074,0.047884,0
8.2458,1.77203,0.0465266,0
8.19106,1.84219,0.0453352,0
8.13485,1.9112,0.0442902,0
8.07943,1.98099,0.044134,0
8.0235,2.05062,0.044466,0
7.96611,2.11919,0.0449934,0
7.90727,2.18674,0.0457258,0
7.84699,2.25322,0.046634,0
7.78529,2.31857,0.0477668,0
7.72217,2.38281,0.0490852,0
7.65767,2.44589,0.0506086,0
7.59179,2.50775,0.0523371,0
7.52454,2.56844,0.0542512,0
6.91323,-4.45777,0.542083,0
7.00707,-4.42762,0.540042,0
7.10049,-4.39527,0.537933,0
7.19344,-4.36079,0.535775,0
7.28588,-4.32416,0.533568,0
7.37775,-4.28536,0.531292,0
7.46899,-4.24441,0.528978,0
7.55957,-4.20131,0.526605,0
7.64942,-4.15606,0.524183,0
7.7385,-4.10868,0.521702,0
7.82675,-4.05916,0.519193,0
7.91411,-4.0075,0.516605,0
8.00054,-3.95372,0.513978,0
8.07915,-3.8903,0.508128,0
8.16537,-3.83459,0.506341,0
8.26222,-3.78836,0.509593,0
8.35368,-3.73475,0.510648,0
8.44317,-3.67763,0.511165,0
8.53148,-3.61785,0.511487,0
8.6185,-3.55544,0.511634,0
8.70414,-3.49043,0.511595,0
8.78829,-3.42284,0.51138,0
8.87086,-3.35266,0.51095,0
8.95175,-3.27997,0.510345,0
9.03083,-3.20476,0.509534,0
9.10803,-3.12709,0.508548,0
9.18323,-3.04699,0.507337,0
9.25635,-2.96453,0.505941,0
9.32727,-2.87974,0.504339,0
9.39589,-2.79271,0.502552,0
9.46212,-2.70343,0.50054,0
9.52588,-2.61203,0.498333,0
9.58706,-2.51858,0.495931,0
9.64557,-2.42313,0.493323,0
9.69493,-2.32342,0.488616,0
9.73837,-2.22115,0.482855,0
9.77778,-2.11723,0.476634,0
9.81308,-2.01188,0.469993,0
9.84422,-1.90529,0.462933,0
9.87114,-1.79756,0.455423,0
9.89381,-1.6889,0.447523,0
9.9122,-1.5795,0.439232,0
9.92593,-1.46946,0.430472,0
9.89672,-1.3533,0.410989,0
9.86369,-1.23877,0.391458,0
9.82701,-1.12606,0.371927,0
9.78687,-1.01528,0.352405,0
9.74345,-0.906563,0.332952,0
9.69692,-0.800029,0.313587,0
9.64747,-0.695762,0.294329,0
9.59526,-0.593838,0.275228,0
9.54049,-0.494346,0.256292,0
9.48333,-0.397344,0.237532,0
9.42395,-0.302891,0.218987,0
9.36666,-0.210596,0.201722,0
9.34634,-0.115918,0.194466,0
9.32355,-0.0220117,0.187279,0
9.29835,0.0710937,0.18012,0
9.27077,0.163232,0.17305,0
9.24085,0.254443,0.166038,0
9.20862,0.344629,0.159085,0
9.17416,0.433711,0.15221,0
9.13748,0.521641,0.145423,0
9.09865,0.608359,0.138714,0
9.0577,0.693848,0.132103,0
9.01469,0.778008,0.125579,0
8.96969,0.860811,0.119154,0
8.92272,0.942197,0.112825,0
8.86986,1.02037,0.105579,0
8.80531,1.09222,0.0958234,0
8.73974,1.16211,0.086341,0
8.6732,1.2301,0.077093,0
8.60575,1.29615,0.0681086,0
8.53743,1.3603,0.0593781,0
8.4809,1.43031,0.0543391,0
8.43335,1.50552,0.0523566,0
8.38422,1.5797,0.0505305,0
8.33353,1.6528,0.0488898,0
8.2813,1.72482,0.0474152,0
8.22756,1.79574,0.0461066,0
8.17233,1.86552,0.0449543,0
8.11574,1.93421,0.0440363,0
8.06079,2.00449,0.0442316,0
8.00436,2.07379,0.0446223,0
7.94649,2.14204,0.0452082,0
7.88716,2.20922,0.0459992,0
7.8264,2.27533,0.0469855,0
6.9008,-4.35307,0.539251,0
6.99209,-4.3227,0.537249,0
7.08294,-4.29022,0.535169,0
7.1733,-4.25565,0.53305,0
7.26313,-4.21897,0.530863,0
7.35237,-4.18019,0.528616,0
7.44098,-4.13933,0.526341,0
7.52891,-4.09636,0.524007,0
7.61609,-4.0513,0.521614,0
7.7025,-4.00419,0.519193,0
7.78806,-3.95496,0.516702,0
7.86725,-3.89718,0.511419,0
7.9428,-3.83487,0.504954,0
8.01663,-3.77056,0.498323,0
8.08867,-3.70425,0.491536,0
8.17177,-3.6488,0.490364,0
8.26249,-3.59933,0.492864,0
8.35185,-3.54671,0.494993,0
8.43971,-3.49099,0.496722,0
8.5259,-3.43218,0.49807,0
8.61027,-3.37026,0.498978,0
8.69267,-3.30536,0.499495,0
8.77294,-3.23744,0.499564,0
8.85094,-3.16661,0.499212,0
8.9265,-3.09293,0.498431,0
8.99948,-3.01643,0.497191,0
9.06974,-2.93725,0.495511,0
9.13714,-2.85545,0.493392,0
9.20154,-2.77113,0.490814,0
9.26282,-2.68438,0.487777,0
9.32084,-2.59536,0.48431,0
9.3755,-2.50414,0.480364,0
9.42669,-2.41089,0.475999,0
9.4743,-2.31571,0.471175,0
9.51824,-2.21879,0.465941,0
9.55844,-2.12025,0.460257,0
9.59482,-2.02023,0.454173,0
9.62731,-1.9189,0.447659,0
9.65587,-1.81643,0.440765,0
9.68045,-1.71296,0.43347,0
9.70101,-1.60867,0.425794,0
9.71755,-1.50371,0.417747,0
9.7055,-1.39425,0.402562,0
9.67841,-1.28404,0.384124,0
9.64774,-1.17537,0.365638,0
9.61364,-1.06841,0.347171,0
9.57628,-0.963193,0.328675,0
9.53582,-0.859902,0.310257,0
9.49242,-0.758652,0.291917,0
9.44624,-0.659492,0.273685,0
9.39746,-0.56249,0.25555,0
9.34622,-0.467793,0.237601,0
9.29269,-0.375381,0.219808,0
9.25519,-0.28375,0.206907,0
9.23738,-0.191367,0.199847,0
9.21717,-0.0996777,0.192835,0
9.19459,-0.00871094,0.185853,0
9.16968,0.081416,0.178939,0
9.14247,0.170664,0.172073,0
9.11301,0.258965,0.165277,0
9.08133,0.346279,0.158548,0
9.04748,0.43249,0.151907,0
9.01151,0.517617,0.145335,0
8.97345,0.601582,0.138841,0
8.93336,0.684316,0.132435,0
8.89129,0.765771,0.126116,0
8.84728,0.845908,0.119896,0
8.80138,0.924688,0.113773,0
8.75329,1.00188,0.107659,0
8.69075,1.07155,0.0982063,0
8.62719,1.13937,0.0889973,0
8.56267,1.20529,0.0800422,0
8.49725,1.26939,0.0713313,0
8.43414,1.33354,0.0637238,0
8.38876,1.40763,0.0616926,0
8.34181,1.48076,0.059798,0
8.29333,1.55289,0.0580695,0
8.24333,1.62395,0.0565168,0
8.19184,1.69395,0.0551203,0
8.13887,1.76283,0.0538996,0
8.08629,1.83216,0.0534016,0
8.03345,1.90146,0.0534895,0
7.97916,1.9698,0.0537531,0
7.92344,2.03713,0.0542219,0
7.86629,2.10347,0.0548664,0
7.80774,2.16871,0.0557355,0
7.74778,2.2329,0.0567609,0
7.68645,2.29598,0.0580012,0
7.62375,2.3579,0.0594563,0
7.55969,2.41869,0.0610871,0
7.4943,2.47827,0.0629231,0
6.83999,-4.37209,0.54057,0
6.93154,-4.34311,0.538597,0
7.02269,-4.31201,0.536546,0
7.11338,-4.27883,0.534456,0
7.20356,-4.24355,0.532318,0
7.2932,-4.20617,0.53012,0
7.38224,-4.16669,0.527864,0
7.47062,-4.12512,0.52556,0
7.55831,-4.08145,0.523206,0
7.64524,-4.03568,0.520794,0
7.73137,-3.98787,0.518362,0
7.81617,-3.93739,0.515628,0
7.89284,-3.87645,0.509251,0
7.96782,-3.81349,0.502747,0
8.04105,-3.74848,0.496058,0
8.11247,-3.68153,0.489222,0
8.20242,-3.63252,0.491253,0
8.2927,-3.58199,0.493626,0
8.38157,-3.52833,0.495628,0
8.46888,-3.47154,0.49721,0
8.55448,-3.4117,0.498411,0
8.63821,-3.34879,0.499212,0
8.71991,-3.28284,0.499564,0
8.79943,-3.21395,0.499505,0
8.87662,-3.14215,0.498997,0
8.95133,-3.0675,0.49805,0
9.02342,-2.99012,0.496683,0
9.09273,-2.91004,0.494857,0
9.15913,-2.82737,0.492571,0
9.2225,-2.74223,0.489837,0
9.28269,-2.65472,0.486673,0
9.3396,-2.56493,0.48303,0
9.39311,-2.47301,0.478948,0
9.4431,-2.3791,0.474437,0
9.48949,-2.28334,0.469476,0
9.53218,-2.18585,0.464085,0
9.5711,-2.08678,0.458255,0
9.60618,-1.9863,0.452025,0
9.63736,-1.88456,0.445384,0
9.66458,-1.78173,0.438343,0
9.68781,-1.67797,0.430921,0
9.70702,-1.57344,0.423118,0
9.72143,-1.46817,0.414749,0
9.6968,-1.35705,0.39638,0
9.66849,-1.24734,0.377923,0
9.63665,-1.13922,0.359437,0
9.60143,-1.03282,0.34095,0
9.56301,-0.928252,0.322484,0
9.52154,-0.825635,0.304095,0
9.47719,-0.725059,0.285775,0
9.43012,-0.626631,0.267571,0
9.38049,-0.530391,0.249505,0
9.32847,-0.436465,0.231595,0
9.2742,-0.344834,0.213861,0
9.24948,-0.252627,0.204534,0
9.23085,-0.160449,0.197484,0
9.20984,-0.0690039,0.190482,0
9.18647,0.0216797,0.183529,0
9.16078,0.111533,0.176624,0
9.13281,0.200449,0.169788,0
9.1026,0.288437,0.163011,0
9.07019,0.375391,0.156312,0
9.03562,0.46126,0.149681,0
8.99894,0.545996,0.143138,0
8.9602,0.629541,0.136673,0
8.91944,0.711836,0.130306,0
8.8767,0.792881,0.124007,0
8.83205,0.872549,0.117825,0
8.78553,0.950869,0.111722,0
8.73238,1.02551,0.104456,0
8.66948,1.09456,0.0950812,0
8.6056,1.16176,0.0859504,0
8.54077,1.22706,0.0770832,0
8.47506,1.29055,0.0684309,0
8.41906,1.35857,0.0630109,0
8.37315,1.43234,0.0610383,0
8.32568,1.50514,0.0591926,0
8.27669,1.57688,0.0575324,0
8.22618,1.64762,0.056009,0
8.17419,1.71723,0.0547004,0
8.12073,1.78575,0.0535188,0
8.06869,1.85555,0.0534211,0
8.01536,1.92454,0.0535676,0
7.96059,1.99256,0.0538898,0
7.90438,2.05954,0.054427,0
7.84676,2.12553,0.0551301,0
7.78773,2.1904,0.0560578,0
7.72731,2.25423,0.0571613,0
7.66552,2.31691,0.0584797,0
7.60236,2.37847,0.0599836,0
7.53786,2.43886,0.0616828,0
7.47202,2.49803,0.0635773,0
6.87082,-4.36257,0.539905,0
6.96223,-4.33288,0.537903,0
7.05323,-4.30109,0.535853,0
7.14375,-4.2672,0.533743,0
7.23377,-4.23121,0.531575,0
7.32321,-4.19313,0.529368,0
7.41203,-4.15295,0.527103,0
7.50018,-4.11067,0.524788,0
7.58762,-4.06631,0.522415,0
7.67428,-4.01984,0.519993,0
7.76013,-3.97131,0.517523,0
7.84213,-3.91714,0.513499,0
7.91824,-3.85551,0.507083,0
7.99264,-3.79184,0.500511,0
8.06527,-3.72618,0.493782,0
8.14179,-3.66432,0.489466,0
8.23291,-3.61588,0.492093,0
8.32274,-3.56431,0.494349,0
8.41111,-3.50959,0.496214,0
8.49786,-3.45178,0.497679,0
8.58285,-3.39088,0.498724,0
8.6659,-3.32694,0.499368,0
8.7469,-3.26002,0.499593,0
8.82566,-3.19014,0.499388,0
8.90203,-3.11736,0.498734,0
8.97587,-3.0418,0.49765,0
9.04703,-2.96349,0.496107,0
9.11539,-2.88253,0.494144,0
9.18079,-2.79901,0.491712,0
9.2431,-2.71305,0.488812,0
9.3022,-2.62477,0.485491,0
9.35798,-2.53425,0.481702,0
9.41031,-2.44167,0.477484,0
9.4591,-2.3471,0.472806,0
9.50426,-2.25073,0.467698,0
9.54569,-2.1527,0.462171,0
9.58333,-2.05314,0.456214,0
9.6171,-1.95223,0.449847,0
9.64695,-1.8501,0.44306,0
9.67284,-1.74694,0.435902,0
9.69472,-1.6429,0.428333,0
9.71258,-1.53815,0.420423,0
9.71357,-1.43065,0.408587,0
9.68769,-1.31997,0.390169,0
9.65817,-1.2108,0.371712,0
9.62517,-1.10324,0.353206,0
9.58886,-0.997441,0.33473,0
9.5494,-0.893525,0.316292,0
9.50695,-0.791592,0.297913,0
9.46167,-0.691738,0.279642,0
9.41371,-0.594023,0.261478,0
9.36326,-0.498545,0.24346,0
9.31046,-0.405391,0.225618,0
9.2605,-0.31417,0.209241,0
9.24348,-0.221553,0.202161,0
9.22405,-0.129629,0.19512,0
9.20224,-0.0384277,0.188138,0
9.17809,0.0519824,0.181195,0
9.15163,0.141514,0.174329,0
9.1229,0.230146,0.167503,0
9.09195,0.317793,0.160745,0
9.05881,0.404375,0.154075,0
9.02353,0.489883,0.147464,0
8.98615,0.574199,0.14096,0
8.94672,0.657344,0.134525,0
8.90528,0.739228,0.128177,0
8.8619,0.819805,0.121927,0
8.81662,0.899033,0.115765,0
8.76948,0.976865,0.10972,0
8.71134,1.04895,0.101282,0
8.64811,1.11735,0.0919855,0
8.58391,1.1839,0.0829523,0
8.51878,1.2486,0.0741535,0
8.45278,1.31147,0.0655891,0
8.40379,1.38348,0.0623371,0
8.35736,1.45692,0.0604035,0
8.30938,1.52938,0.0586066,0
8.25987,1.6008,0.0570051,0
8.20887,1.67114,0.0555598,0
8.15638,1.7404,0.0542805,0
8.10328,1.80925,0.0534211,0
8.05092,1.87887,0.0534309,0
7.9971,1.94753,0.0536457,0
7.94185,2.01521,0.0540461,0
7.88517,2.08185,0.0546418,0
7.82707,2.14746,0.055423,0
7.76757,2.21199,0.0564094,0
6.85948,-4.26219,0.5372,0
6.94846,-4.2323,0.535228,0
7.037,-4.20037,0.533196,0
7.12505,-4.1664,0.531116,0
7.21256,-4.13035,0.528978,0
7.2995,-4.09229,0.5268,0
7.3858,-4.05219,0.524564,0
7.47142,-4.01003,0.522278,0
7.55631,-3.96585,0.519945,0
7.63754,-3.91589,0.515989,0
7.71406,-3.85942,0.510013,0
7.78903,-3.80094,0.50389,0
7.86239,-3.74043,0.497601,0
7.93408,-3.67798,0.491165,0
8.00404,-3.61361,0.484573,0
8.07222,-3.54744,0.477864,0
8.14505,-3.48557,0.47389,0
8.23028,-3.43424,0.475804,0
8.31404,-3.37997,0.477357,0
8.39618,-3.32278,0.478528,0
8.47658,-3.2627,0.47931,0
8.55507,-3.19974,0.479681,0
8.63153,-3.13399,0.479681,0
8.7058,-3.06547,0.479251,0
8.77775,-2.99424,0.478402,0
8.84724,-2.92039,0.477132,0
8.91413,-2.844,0.475452,0
8.97831,-2.76517,0.473343,0
9.03964,-2.68393,0.470794,0
9.098,-2.60043,0.467835,0
9.15328,-2.51479,0.464446,0
9.20538,-2.42708,0.460628,0
9.25419,-2.33748,0.456409,0
9.29963,-2.24604,0.451761,0
9.3416,-2.15298,0.446712,0
9.38002,-2.05838,0.441243,0
9.41485,-1.96239,0.435384,0
9.446,-1.86516,0.429134,0
9.47344,-1.76686,0.422523,0
9.49713,-1.66762,0.41553,0
9.51703,-1.5676,0.408187,0
9.53194,-1.46673,0.400159,0
9.51136,-1.36025,0.382767,0
9.48722,-1.25503,0.365296,0
9.45967,-1.15121,0.347786,0
9.42884,-1.0489,0.330238,0
9.39488,-0.948213,0.312689,0
9.35794,-0.849297,0.295189,0
9.31817,-0.752197,0.277737,0
9.27571,-0.657061,0.260384,0
9.23072,-0.563896,0.243109,0
9.18334,-0.472861,0.225989,0
9.1527,-0.382744,0.214114,0
9.13803,-0.292393,0.20721,0
9.121,-0.202607,0.200335,0
9.10164,-0.113496,0.193519,0
9.07999,-0.0250977,0.186732,0
9.05607,0.0625098,0.180013,0
9.02994,0.149277,0.173343,0
9.00161,0.235137,0.166741,0
8.97113,0.320059,0.160189,0
8.93855,0.403926,0.153734,0
8.9039,0.486748,0.147337,0
8.86722,0.568438,0.141029,0
8.82857,0.648975,0.134788,0
8.78799,0.728281,0.128636,0
8.74552,0.806328,0.122581,0
8.70121,0.883037,0.116624,0
8.65511,0.958428,0.110745,0
8.60185,1.02981,0.10347,0
8.5405,1.0962,0.0944562,0
8.47818,1.16078,0.0856867,0
8.41494,1.2236,0.077132,0
8.35953,1.2898,0.0713508,0
8.31519,1.36222,0.0693488,0
8.26933,1.43366,0.0675129,0
8.22197,1.50412,0.0658234,0
8.17311,1.57355,0.0643098,0
8.1228,1.64196,0.0629328,0
8.07362,1.71132,0.0625617,0
8.02329,1.78,0.0624543,0
7.97152,1.84775,0.0625324,0
7.91834,1.91454,0.0628156,0
7.86375,1.98036,0.0632648,0
7.80777,2.04514,0.0639289,0
7.75041,2.10889,0.0647785,0
7.69168,2.17158,0.0658039,0
7.6316,2.23316,0.0670441,0
7.57019,2.29365,0.0684602,0
7.50745,2.35299,0.0700715,0
7.44341,2.41112,0.0718977,0
6.8002,-4.2809,0.53848,0
6.88945,-4.25234,0.536527,0
6.97828,-4.22179,0.534544,0
7.06666,-4.18917,0.532503,0
7.15453,-4.15451,0.530403,0
7.24186,-4.11778,0.528245,0
7.32859,-4.07904,0.526058,0
7.41466,-4.03824,0.523802,0
7.50004,-3.9954,0.521497,0
7.58468,-3.95053,0.519144,0
7.66343,-3.89713,0.513987,0
7.73944,-3.83998,0.507972,0
7.81388,-3.78081,0.50179,0
7.88668,-3.71964,0.495452,0
7.9578,-3.65656,0.488978,0
8.02717,-3.59158,0.482347,0
8.09473,-3.52477,0.47556,0
8.17386,-3.46862,0.474564,0
8.25861,-3.41634,0.47638,0
8.34184,-3.36108,0.477806,0
8.42342,-3.30291,0.478841,0
8.50319,-3.24185,0.479486,0
8.58102,-3.17794,0.47973,0
8.65675,-3.11126,0.479583,0
8.73026,-3.04181,0.479007,0
8.80139,-2.96971,0.478021,0
8.87002,-2.89499,0.476614,0
8.93602,-2.81777,0.474788,0
8.99925,-2.73811,0.472532,0
9.05959,-2.6561,0.469847,0
9.11694,-2.57188,0.466751,0
9.17116,-2.48552,0.463216,0
9.22217,-2.39717,0.459271,0
9.26985,-2.30692,0.454886,0
9.31413,-2.21495,0.450111,0
9.35491,-2.12134,0.444915,0
9.39214,-2.02625,0.43932,0
9.42574,-1.92981,0.433323,0
9.45565,-1.83223,0.426956,0
9.48183,-1.73361,0.420228,0
9.50424,-1.63407,0.413109,0
9.52287,-1.53381,0.405628,0
9.52543,-1.43081,0.394329,0
9.50364,-1.32473,0.376907,0
9.47833,-1.21996,0.359417,0
9.44966,-1.11661,0.341868,0
9.41776,-1.01485,0.324339,0
9.38279,-0.914756,0.30681,0
9.34488,-0.816436,0.28932,0
9.30419,-0.72,0.271898,0
9.26086,-0.625518,0.254564,0
9.21505,-0.533066,0.237337,0
9.1669,-0.442715,0.220257,0
9.14803,-0.352305,0.21179,0
9.13256,-0.262129,0.204886,0
9.11474,-0.172559,0.19803,0
9.09461,-0.0836914,0.191224,0
9.0722,0.00444336,0.184466,0
9.04753,0.0917871,0.177757,0
9.02065,0.178252,0.171116,0
8.9916,0.263789,0.164534,0
8.96041,0.348379,0.158001,0
8.92713,0.431895,0.151575,0
8.89179,0.514355,0.145198,0
8.85445,0.595664,0.138909,0
8.81514,0.675781,0.132708,0
8.77391,0.754668,0.126585,0
8.73082,0.832266,0.12057,0
8.68591,0.908545,0.114642,0
8.63922,0.983457,0.108802,0
8.58134,1.05233,0.100413,0
8.51965,1.11811,0.0914875,0
8.45701,1.1821,0.0827863,0
8.39349,1.24432,0.0743195,0
8.3448,1.31425,0.0706574,0
8.29995,1.38634,0.0687141,0
8.25357,1.45747,0.0669172,0
8.20571,1.5276,0.0652863,0
8.15636,1.59669,0.0638215,0
8.10623,1.66524,0.0627277,0
8.05686,1.73453,0.0624934,0
8.00604,1.8029,0.0624543,0
7.9538,1.87033,0.0626008,0
7.90014,1.93677,0.0629523,0
7.84508,2.00224,0.0634797,0
7.78863,2.06668,0.0642023,0
7.73081,2.13009,0.0651008,0
7.67163,2.19242,0.0661945,0
7.6111,2.25362,0.0675031,0
7.54924,2.31371,0.0689875,0
7.48606,2.37266,0.0706672,0
7.42158,2.43044,0.0725324,0
6.83025,-4.27152,0.537825,0
6.91936,-4.2423,0.535872,0
7.00805,-4.21104,0.533851,0
7.09626,-4.17775,0.5318,0
7.18396,-4.14239,0.529691,0
7.27109,-4.10498,0.527513,0
7.3576,-4.06555,0.525296,0
7.44345,-4.02405,0.523021,0
7.52859,-3.98055,0.520716,0
7.61214,-3.93393,0.517904,0
7.68916,-3.87814,0.511986,0
7.76465,-3.8203,0.505911,0
7.83854,-3.76046,0.499671,0
7.91079,-3.69864,0.493284,0
7.98132,-3.6349,0.486751,0
8.05009,-3.56932,0.480071,0
8.11703,-3.50189,0.473255,0
8.20251,-3.45137,0.475208,0
8.28677,-3.39809,0.476898,0
8.36947,-3.34184,0.478187,0
8.45045,-3.28271,0.479105,0
8.52958,-3.22068,0.479612,0
8.60672,-3.15585,0.479739,0
8.68173,-3.0882,0.479427,0
8.75445,-3.01787,0.478734,0
8.82475,-2.94488,0.477601,0
8.89251,-2.86931,0.476048,0
8.9576,-2.79123,0.474066,0
9.01987,-2.71079,0.471683,0
9.07922,-2.62803,0.468851,0
9.13552,-2.54308,0.465599,0
9.18868,-2.45603,0.461927,0
9.23857,-2.36703,0.457835,0
9.28512,-2.27618,0.453323,0
9.32823,-2.18365,0.448411,0
9.36783,-2.08953,0.443089,0
9.40384,-1.99397,0.437347,0
9.43621,-1.89713,0.431234,0
9.46487,-1.79918,0.424739,0
9.48979,-1.70021,0.417864,0
9.51093,-1.60045,0.410638,0
9.52827,-1.49997,0.40305,0
9.5185,-1.39499,0.38847,0
9.49551,-1.28935,0.371029,0
9.46906,-1.18504,0.353519,0
9.43929,-1.08222,0.33598,0
9.40634,-0.981006,0.318441,0
9.37036,-0.881484,0.300911,0
9.3315,-0.783779,0.283431,0
9.28991,-0.687998,0.266048,0
9.24573,-0.594199,0.248763,0
9.19911,-0.502441,0.231585,0
9.15699,-0.412461,0.21638,0
9.14309,-0.321914,0.209456,0
9.12683,-0.231943,0.202581,0
9.10823,-0.142607,0.195745,0
9.08733,-0.0539551,0.188939,0
9.06415,0.0339062,0.18221,0
9.03874,0.120947,0.17553,0
9.01113,0.207119,0.16889,0
8.98135,0.292354,0.162327,0
8.94945,0.376563,0.155843,0
8.91547,0.459736,0.149427,0
8.87946,0.541816,0.143079,0
8.84145,0.622734,0.13681,0
8.80149,0.702451,0.130638,0
8.75963,0.780918,0.124544,0
8.71592,0.858076,0.118548,0
8.6704,0.933896,0.112659,0
8.62173,1.00768,0.106478,0
8.5607,1.07465,0.0973762,0
8.49869,1.13983,0.0885285,0
8.43575,1.20322,0.0799055,0
8.37372,1.26588,0.0720441,0
8.32989,1.3386,0.0699836,0
8.28452,1.41037,0.0680891,0
8.23765,1.48117,0.066341,0
8.18928,1.55095,0.0647688,0
8.13944,1.61967,0.0633723,0
8.08979,1.68862,0.0626398,0
8.03993,1.7576,0.0624738,0
7.98864,1.82566,0.0624836,0
7.93591,1.89276,0.0627082,0
7.88178,1.95891,0.0630988,0
7.82626,2.02403,0.0636945,0
7.76935,2.08812,0.0644758,0
7.71106,2.15116,0.0654523,0
6.81992,-4.17517,0.535228,0
6.9067,-4.14576,0.533284,0
6.99303,-4.11438,0.531302,0
7.07888,-4.08096,0.529261,0
7.16418,-4.04558,0.527171,0
7.24891,-4.00819,0.525042,0
7.33301,-3.96883,0.522864,0
7.41476,-3.92508,0.519622,0
7.49193,-3.87427,0.514134,0
7.56771,-3.82143,0.508499,0
7.64206,-3.76656,0.502698,0
7.7149,-3.70972,0.496751,0
7.78618,-3.65093,0.490638,0
7.85584,-3.59025,0.484388,0
7.92384,-3.52774,0.477991,0
7.9901,-3.46345,0.471468,0
8.05459,-3.3974,0.464798,0
8.11725,-3.32968,0.458001,0
8.19713,-3.27672,0.459349,0
8.27558,-3.22107,0.460364,0
8.35232,-3.1627,0.461029,0
8.42724,-3.10165,0.461312,0
8.5002,-3.03791,0.461204,0
8.57106,-2.97154,0.460696,0
8.6397,-2.90267,0.459808,0
8.70599,-2.8313,0.458529,0
8.76981,-2.75752,0.456839,0
8.83104,-2.68143,0.454749,0
8.88956,-2.6031,0.452249,0
8.94525,-2.52265,0.449368,0
8.99803,-2.44013,0.446058,0
9.04778,-2.3557,0.442357,0
9.09441,-2.26947,0.438265,0
9.13785,-2.18152,0.433763,0
9.178,-2.09202,0.4289,0
9.2148,-2.00107,0.423626,0
9.24819,-1.90883,0.418001,0
9.27811,-1.81542,0.412005,0
9.30451,-1.72096,0.405628,0
9.32736,-1.62565,0.398939,0
9.34663,-1.52958,0.391898,0
9.35051,-1.4307,0.381038,0
9.33234,-1.32891,0.364525,0
9.31078,-1.22825,0.347933,0
9.28596,-1.12888,0.331282,0
9.25801,-1.03086,0.314583,0
9.22706,-0.934355,0.297904,0
9.19324,-0.839434,0.281224,0
9.15669,-0.74624,0.264603,0
9.11754,-0.654795,0.24803,0
9.07593,-0.565215,0.231566,0
9.05263,-0.476719,0.220921,0
9.04092,-0.388379,0.214173,0
9.0269,-0.300527,0.207464,0
9.0106,-0.213281,0.200804,0
8.99204,-0.126621,0.194173,0
8.97125,-0.0406348,0.187562,0
8.94827,0.0445605,0.181038,0
8.92313,0.128975,0.174554,0
8.89587,0.212529,0.168118,0
8.86652,0.295156,0.161751,0
8.83511,0.376816,0.155462,0
8.8017,0.457432,0.149241,0
8.76632,0.536982,0.143089,0
8.72902,0.6154,0.137025,0
8.68983,0.692666,0.131029,0
8.64881,0.768701,0.12513,0
8.606,0.843477,0.11932,0
8.56144,0.916963,0.113597,0
8.51519,0.989082,0.107982,0
8.45769,1.05495,0.0996809,0
8.39743,1.11826,0.0910676,0
8.33627,1.17982,0.0826984,0
8.28795,1.24783,0.078675,0
8.24462,1.31862,0.0767023,0
8.19979,1.38848,0.0748957,0
8.1535,1.45735,0.0732551,0
8.10641,1.5257,0.0719856,0
8.05993,1.59464,0.0715168,0
8.01201,1.6627,0.0712434,0
7.96269,1.72986,0.0711457,0
7.91196,1.79611,0.0712434,0
7.85984,1.86141,0.0715168,0
7.80635,1.92573,0.0719856,0
7.75149,1.98906,0.0726301,0
7.69528,2.05137,0.0734699,0
7.63774,2.11264,0.0744953,0
7.57887,2.17281,0.0757063,0
7.5187,2.23188,0.0771223,0
7.45723,2.28984,0.0787043,0
7.39449,2.34662,0.0805109,0
6.76211,-4.19359,0.536478,0
6.84915,-4.1655,0.534573,0
6.93578,-4.13543,0.53262,0
7.02195,-4.10335,0.530618,0
7.10762,-4.0693,0.528568,0
7.19274,-4.03324,0.526478,0
7.27726,-3.99519,0.52432,0
7.36114,-3.95515,0.522122,0
7.44086,-3.90823,0.517796,0
7.51757,-3.85673,0.512259,0
7.59288,-3.8032,0.506566,0
7.66672,-3.74766,0.500706,0
7.73904,-3.69018,0.49472,0
7.80978,-3.63074,0.488558,0
7.8789,-3.56943,0.482249,0
7.94631,-3.50633,0.475814,0
8.01199,-3.44142,0.469232,0
8.07587,-3.3748,0.462523,0
8.1442,-3.31211,0.45846,0
8.22369,-3.25833,0.459739,0
8.30157,-3.20177,0.460638,0
8.37772,-3.14247,0.461165,0
8.452,-3.08051,0.461321,0
8.52426,-3.01588,0.461077,0
8.5944,-2.94868,0.460443,0
8.66226,-2.87895,0.459427,0
8.72774,-2.80677,0.458011,0
8.79069,-2.73221,0.456185,0
8.85102,-2.65535,0.453958,0
8.9086,-2.57629,0.451331,0
8.96333,-2.49511,0.448284,0
9.0151,-2.41195,0.444857,0
9.06381,-2.3269,0.441019,0
9.10938,-2.24008,0.43679,0
9.15172,-2.1516,0.432171,0
9.19075,-2.06161,0.427171,0
9.22641,-1.97021,0.42178,0
9.25864,-1.87754,0.416019,0
9.28738,-1.78378,0.409905,0
9.31259,-1.68901,0.403431,0
9.33425,-1.59342,0.396605,0
9.35231,-1.49714,0.389456,0
9.34478,-1.39637,0.375501,0
9.32546,-1.29494,0.358958,0
9.3028,-1.1947,0.342337,0
9.27691,-1.09574,0.325667,0
9.24794,-0.998242,0.308978,0
9.216,-0.902256,0.292298,0
9.18125,-0.807891,0.275618,0
9.14381,-0.715273,0.259017,0
9.10382,-0.624482,0.242493,0
9.06141,-0.535547,0.226058,0
9.04895,-0.446963,0.218646,0
9.03646,-0.358799,0.211927,0
9.02167,-0.271143,0.205228,0
9.00461,-0.184053,0.198558,0
8.9853,-0.0976367,0.191946,0
8.96377,-0.0119141,0.185374,0
8.94006,0.0730176,0.178861,0
8.9142,0.157168,0.172376,0
8.88623,0.24041,0.16598,0
8.85618,0.322734,0.159622,0
8.8241,0.404043,0.153353,0
8.79002,0.484316,0.147152,0
8.75399,0.563486,0.141048,0
8.71605,0.641523,0.134993,0
8.67624,0.718379,0.129036,0
8.63461,0.793994,0.123157,0
8.59121,0.86834,0.117376,0
8.54607,0.941357,0.111702,0
8.49715,1.012,0.105501,0
8.43753,1.07643,0.0967609,0
8.37697,1.13914,0.0882355,0
8.31588,1.20034,0.080052,0
8.27355,1.27174,0.0779914,0
8.22971,1.34221,0.0760871,0
8.18439,1.41174,0.0743293,0
8.1376,1.48027,0.0727473,0
8.09094,1.54897,0.0718098,0
8.04397,1.61762,0.0713996,0
7.99559,1.68539,0.071175,0
7.94579,1.75223,0.0711652,0
7.89459,1.81818,0.071302,0
7.84201,1.88314,0.0716535,0
7.78806,1.94714,0.0721809,0
7.73274,2.01013,0.0728938,0
7.67608,2.07209,0.0737922,0
7.61809,2.13298,0.0748859,0
7.55878,2.19278,0.076175,0
7.49817,2.25149,0.0776301,0
7.43628,2.30906,0.0792902,0
7.37311,2.36547,0.0811359,0
6.79142,-4.18437,0.535853,0
6.87832,-4.15562,0.533929,0
6.9648,-4.12485,0.531946,0
