10.95,-2.9083,0.553626,0
11.01,-2.79657,0.547991,0
11.0669,-2.68306,0.542239,0
11.1208,-2.56787,0.536409,0
11.1715,-2.4511,0.530501,0
11.219,-2.33286,0.524525,0
11.2633,-2.2132,0.51847,0
11.3042,-2.09226,0.512357,0
11.3418,-1.9701,0.506165,0
11.3761,-1.84687,0.499945,0
11.4068,-1.72262,0.493655,0
11.4342,-1.59747,0.487308,0
11.458,-1.47154,0.480941,0
11.4335,-1.34003,0.463138,0
11.4053,-1.21006,0.445462,0
11.374,-1.08177,0.428021,0
11.3396,-0.955234,0.410823,0
11.3022,-0.830498,0.393851,0
11.2571,-0.707734,0.375989,0
11.2054,-0.587256,0.357425,0
11.1512,-0.46916,0.339183,0
11.0946,-0.353535,0.321273,0
11.0357,-0.24041,0.303734,0
10.9747,-0.129766,0.286507,0
10.9117,-0.0216699,0.269642,0
10.8467,0.0838672,0.253138,0
10.78,0.186836,0.236995,0
10.7115,0.287236,0.221195,0
10.6414,0.385049,0.205784,0
10.5643,0.47877,0.189368,0
10.4696,0.564853,0.169378,0
10.3742,0.647402,0.149876,0
10.2881,0.72998,0.133245,0
10.2377,0.823164,0.126029,0
10.185,0.914727,0.1189,0
10.1292,1.00419,0.111702,0
10.0559,1.08481,0.100765,0
9.98148,1.16315,0.0901203,0
9.90597,1.23922,0.0797785,0
9.82945,1.31302,0.0697297,0
9.752,1.38453,0.0599934,0
9.67368,1.45379,0.05055,0
9.59456,1.52083,0.0413898,0
9.51469,1.58562,0.0325422,0
9.43414,1.64821,0.023968,0
9.35296,1.70859,0.0156965,0
9.2712,1.76682,0.00769844,0
9.18893,1.82289,-1.64032e-05,0
9.10619,1.8768,-0.00742851,0
9.02668,1.93186,-0.0134734,0
8.96358,2.00094,-0.0140691,0
8.89899,2.06864,-0.0144891,0
8.83293,2.1349,-0.0147039,0
8.76542,2.19976,-0.0147527,0
8.6965,2.2631,-0.0145965,0
8.6262,2.32492,-0.0142449,0
8.55454,2.38522,-0.0137176,0
8.48155,2.44398,-0.0130047,0
7.99512,-4.81913,0.553021,0
8.10109,-4.78985,0.552298,0
8.21185,-4.76737,0.554905,0
8.32372,-4.74375,0.55803,0
8.43567,-4.71719,0.561019,0
8.54764,-4.68762,0.56387,0
8.65952,-4.65502,0.566566,0
8.77123,-4.61937,0.569114,0
8.88265,-4.58061,0.571497,0
8.99368,-4.53873,0.573724,0
9.10423,-4.4937,0.575784,0
9.21417,-4.4455,0.577679,0
9.32341,-4.39411,0.579388,0
9.43181,-4.3395,0.580911,0
9.53927,-4.28169,0.582239,0
9.64567,-4.22066,0.583382,0
9.75088,-4.15641,0.584329,0
9.85477,-4.08894,0.585062,0
9.95723,-4.01827,0.585609,0
10.0581,-3.9444,0.585931,0
10.1565,-3.86674,0.585736,0
10.2529,-3.78592,0.585306,0
10.3473,-3.70201,0.584661,0
10.4396,-3.61501,0.583743,0
10.5295,-3.52502,0.582601,0
10.6133,-3.4299,0.580023,0
10.6871,-3.32798,0.574866,0
10.7583,-3.22394,0.569613,0
10.8266,-3.11779,0.564241,0
10.8922,-3.00966,0.558773,0
10.9549,-2.89957,0.553187,0
11.0146,-2.7877,0.547542,0
11.0713,-2.67405,0.54178,0
11.1249,-2.55875,0.53595,0
11.1753,-2.44187,0.530042,0
11.2226,-2.32349,0.524046,0
11.2666,-2.20374,0.517991,0
11.3073,-2.08271,0.511878,0
11.3446,-1.96046,0.505687,0
11.3786,-1.83713,0.499446,0
11.4091,-1.71281,0.493157,0
11.4362,-1.5876,0.48682,0
11.4565,-1.46119,0.479622,0
11.4314,-1.32976,0.461751,0
11.403,-1.1999,0.444085,0
11.3714,-1.07176,0.426673,0
11.3367,-0.945352,0.409476,0
11.2991,-0.820781,0.392542,0
11.2532,-0.698164,0.374505,0
11.2012,-0.577871,0.35597,0
11.1468,-0.45998,0.337757,0
11.09,-0.344551,0.319886,0
11.031,-0.231611,0.302357,0
10.9698,-0.121172,0.285169,0
10.9066,-0.0132812,0.268333,0
10.8415,0.0920605,0.251849,0
10.7746,0.194824,0.235745,0
10.706,0.295029,0.219984,0
10.6359,0.392646,0.204573,0
10.5569,0.485674,0.187767,0
10.4621,0.571455,0.167835,0
10.3667,0.65375,0.148363,0
10.2842,0.737344,0.132689,0
10.2336,0.83043,0.125452,0
10.1808,0.921855,0.118353,0
10.1235,1.0106,0.110843,0
10.0501,1.09107,0.0999055,0
9.97558,1.16921,0.0893098,0
9.89999,1.24511,0.0789777,0
9.8234,1.31872,0.0689582,0
9.74588,1.39006,0.0592414,0
9.66749,1.45915,0.0498176,0
9.5883,1.52601,0.0406867,0
9.50838,1.59062,0.0318488,0
9.42778,1.65305,0.0233039,0
9.34655,1.71326,0.0150617,0
9.26475,1.7713,0.00709297,0
9.18244,1.8272,-0.000602341,0
9.09966,1.88092,-0.00798515,0
9.02177,1.93734,-0.013532,0
8.95856,2.00633,-0.014118,0
8.89385,2.07392,-0.0145184,0
8.82767,2.14007,-0.0147234,0
8.76005,2.20477,-0.0147332,0
8.69102,2.268,-0.0145672,0
8.62061,2.32973,-0.0142156,0
8.54885,2.3899,-0.0136687,0
8.47576,2.44854,-0.0129559,0
8.00347,-4.81691,0.552962,0
8.10941,-4.78742,0.55223,0
8.22065,-4.76561,0.555159,0
8.33252,-4.74177,0.558265,0
8.44448,-4.71498,0.561263,0
8.55645,-4.68517,0.564085,0
8.66832,-4.65234,0.56678,0
8.78,-4.61643,0.56931,0
8.89139,-4.57742,0.571673,0
9.00239,-4.53531,0.573909,0
9.1129,-4.49003,0.57595,0
9.22279,-4.44157,0.577825,0
9.33196,-4.38992,0.579505,0
9.4403,-4.33508,0.581019,0
9.54768,-4.27702,0.582347,0
9.65399,-4.21572,0.58346,0
9.75909,-4.15123,0.584407,0
9.86289,-4.0835,0.58512,0
9.96523,-4.01258,0.585648,0
10.066,-3.93844,0.585931,0
10.1642,-3.86051,0.585726,0
10.2604,-3.77945,0.585277,0
10.3547,-3.69527,0.584593,0
10.4467,-3.60806,0.583665,0
10.5365,-3.51782,0.582513,0
10.6192,-3.42197,0.579622,0
10.6928,-3.31988,0.574466,0
10.7637,-3.21563,0.569183,0
10.8319,-3.10935,0.563812,0
10.8972,-3.00105,0.558333,0
10.9597,-2.89085,0.552747,0
11.0192,-2.77882,0.547083,0
11.0756,-2.66504,0.541321,0
11.129,-2.54961,0.535491,0
11.1792,-2.43261,0.529573,0
11.2262,-2.31413,0.523577,0
11.2699,-2.19426,0.517503,0
11.3104,-2.07312,0.51139,0
11.3474,-1.95079,0.505189,0
11.3811,-1.82736,0.498939,0
11.4114,-1.70299,0.492659,0
11.4382,-1.57771,0.486321,0
11.4547,-1.4508,0.478206,0
11.4293,-1.31949,0.460355,0
11.4006,-1.18979,0.442718,0
11.3688,-1.06175,0.425306,0
11.3339,-0.935488,0.408138,0
11.296,-0.811064,0.391214,0
11.2492,-0.688633,0.37305,0
11.1971,-0.568516,0.354525,0
11.1424,-0.45083,0.336351,0
11.0855,-0.335566,0.318499,0
11.0263,-0.222822,0.300989,0
10.9649,-0.112598,0.283831,0
10.9016,-0.00489258,0.267015,0
10.8363,0.100234,0.25057,0
10.7693,0.202793,0.234486,0
10.7006,0.302793,0.218753,0
10.6303,0.400225,0.203372,0
10.5495,0.492539,0.186195,0
10.4547,0.578076,0.166282,0
10.3591,0.660078,0.146849,0
10.2803,0.744746,0.132103,0
10.2296,0.837695,0.124886,0
10.1765,0.928975,0.117796,0
10.1178,1.01702,0.109964,0
10.0443,1.09729,0.0990656,0
9.96967,1.17527,0.0884699,0
9.894,1.25098,0.0781867,0
9.81733,1.32441,0.0681867,0
9.73974,1.39558,0.0584895,0
9.66129,1.46449,0.0490852,0
9.58204,1.53117,0.0399836,0
9.50207,1.59562,0.0311652,0
9.42141,1.65786,0.0226496,0
9.34014,1.71791,0.0144172,0
9.2583,1.77578,0.00646797,0
9.17595,1.8315,-0.00118828,0
9.09314,1.88508,-0.00857109,0
9.01686,1.94282,-0.0135809,0
8.95353,2.01169,-0.014157,0
8.8887,2.07914,-0.0145184,0
8.82241,2.1452,-0.0147137,0
8.75468,2.2098,-0.0147332,0
8.68554,2.27293,-0.0145574,0
8.61502,2.33451,-0.0141863,0
8.54314,2.39459,-0.0136297,0
8.46995,2.45309,-0.0128777,0
8.01181,-4.81471,0.552923,0
8.11772,-4.78498,0.552161,0
8.22944,-4.76385,0.555404,0
8.34132,-4.73977,0.558509,0
8.45329,-4.71272,0.561478,0
8.56525,-4.6827,0.56431,0
8.67711,-4.64961,0.566966,0
8.78878,-4.61348,0.569495,0
10.1991,-3.60854,0.5743,0
10.2877,-3.52423,0.573402,0
10.3741,-3.43701,0.572269,0
10.4582,-3.34698,0.570902,0
10.5398,-3.25415,0.56929,0
10.6149,-3.1566,0.566195,0
10.6812,-3.05363,0.560999,0
10.7448,-2.9487,0.555667,0
10.8056,-2.84196,0.550277,0
10.8635,-2.73344,0.544788,0
10.9185,-2.62323,0.539212,0
10.9705,-2.51141,0.533548,0
11.0195,-2.39807,0.527825,0
11.0654,-2.28328,0.522015,0
11.1081,-2.16717,0.516126,0
11.1477,-2.0498,0.510189,0
11.184,-1.9313,0.504202,0
11.217,-1.81171,0.498148,0
11.2467,-1.69121,0.492064,0
11.2731,-1.56982,0.485921,0
11.2882,-1.44662,0.47764,0
11.2654,-1.3194,0.460335,0
11.2394,-1.19366,0.443245,0
11.2103,-1.06946,0.426351,0
11.1782,-0.946904,0.409681,0
11.1385,-0.826006,0.392064,0
11.0925,-0.707119,0.373802,0
11.044,-0.59043,0.355843,0
10.993,-0.476025,0.338196,0
10.9396,-0.363916,0.320863,0
10.8841,-0.25415,0.303841,0
10.8264,-0.146758,0.287161,0
10.7666,-0.0417285,0.270784,0
10.705,0.0608398,0.254759,0
10.6416,0.160986,0.239075,0
10.5728,0.257871,0.222845,0
10.4861,0.348125,0.202835,0
10.3982,0.43499,0.183265,0
10.3093,0.518525,0.164105,0
10.2196,0.598789,0.145364,0
10.1647,0.688145,0.136038,0
10.1162,0.778769,0.129007,0
10.0655,0.867803,0.122083,0
10.0126,0.955195,0.115286,0
9.95028,1.03754,0.106702,0
9.87862,1.11417,0.096302,0
9.80587,1.1886,0.0861848,0
9.7321,1.26083,0.0763703,0
9.65739,1.33091,0.0668195,0
9.58178,1.3988,0.0575617,0
9.50535,1.46452,0.0485969,0
9.42816,1.5281,0.0399055,0
9.35026,1.58953,0.0314875,0
9.27171,1.64885,0.0233625,0
9.19255,1.70604,0.0155207,0
9.11286,1.76113,0.00796211,0
9.03267,1.81418,0.000647659,0
8.95675,1.86937,-0.00489922,0
8.89516,1.93681,-0.00548515,0
8.83211,2.00288,-0.00589531,0
8.76761,2.06758,-0.00611015,0
8.70171,2.13084,-0.00613945,0
8.63442,2.19267,-0.00599297,0
8.56578,2.25301,-0.00566093,0
8.49581,2.31185,-0.00513359,0
8.42455,2.36917,-0.00443047,0
7.94301,-4.70568,0.547308,0
8.04584,-4.67677,0.546585,0
8.15004,-4.64839,0.546927,0
8.2582,-4.62468,0.549905,0
8.36641,-4.5981,0.552747,0
8.47459,-4.56861,0.555452,0
8.58264,-4.53621,0.558011,0
8.69047,-4.50085,0.560423,0
8.79799,-4.46251,0.562698,0
8.90509,-4.42116,0.564798,0
9.01167,-4.37674,0.566722,0
9.11764,-4.32931,0.568499,0
9.22287,-4.27878,0.570091,0
9.32727,-4.2252,0.571517,0
9.43071,-4.16854,0.572767,0
9.53309,-4.10875,0.573812,0
9.63428,-4.0459,0.574671,0
9.73417,-3.97995,0.575325,0
9.83234,-3.91069,0.575677,0
9.92851,-3.83805,0.575648,0
10.0229,-3.76235,0.575404,0
10.1155,-3.68367,0.574935,0
10.2061,-3.60202,0.574232,0
10.2946,-3.51745,0.573304,0
10.3808,-3.43003,0.572171,0
10.4647,-3.33978,0.570784,0
10.5461,-3.24676,0.569173,0
10.6202,-3.14857,0.565794,0
10.6863,-3.04544,0.56057,0
10.7497,-2.94039,0.555257,0
10.8102,-2.83349,0.549847,0
10.8679,-2.72483,0.544349,0
10.9227,-2.61448,0.538763,0
10.9745,-2.50255,0.533109,0
11.0232,-2.38908,0.527366,0
11.0688,-2.2742,0.521556,0
11.1113,-2.15799,0.515677,0
11.1506,-2.04053,0.50973,0
11.1867,-1.92194,0.503734,0
11.2195,-1.80228,0.497679,0
11.2489,-1.68169,0.491585,0
11.2751,-1.56023,0.485433,0
11.2865,-1.43656,0.476263,0
11.2634,-1.30944,0.458988,0
11.2372,-1.18383,0.441907,0
11.2078,-1.05978,0.425042,0
11.1755,-0.937344,0.408382,0
11.1349,-0.816572,0.390609,0
11.0888,-0.697861,0.372386,0
11.0401,-0.581367,0.354456,0
10.9889,-0.467148,0.336839,0
10.9354,-0.355205,0.319515,0
10.8796,-0.245615,0.302523,0
10.8217,-0.138418,0.285863,0
10.7618,-0.0335937,0.269515,0
10.7001,0.0687988,0.253529,0
10.6365,0.16876,0.237864,0
10.566,0.265107,0.221243,0
10.4792,0.355078,0.201282,0
10.3912,0.441689,0.181732,0
10.3023,0.524971,0.162611,0
10.2125,0.604961,0.143909,0
10.161,0.695322,0.135482,0
10.1123,0.78582,0.12846,0
10.0614,0.874736,0.121546,0
10.0083,0.962002,0.114759,0
9.94469,1.04364,0.105872,0
9.87293,1.1201,0.0955012,0
9.8001,1.19436,0.0854133,0
9.72626,1.26644,0.0756086,0
9.65147,1.33633,0.0660773,0
9.5758,1.40404,0.0568488,0
9.49931,1.46959,0.0479035,0
9.42206,1.53302,0.0392219,0
9.3441,1.59428,0.030843,0
9.2655,1.65341,0.022757,0
9.1863,1.71045,0.0149152,0
9.10657,1.76539,0.00736641,0
9.02634,1.81825,0.000100784,0
8.95196,1.87473,-0.00494804,0
8.89026,1.94205,-0.00551445,0
8.82709,2.00803,-0.00591484,0
8.76248,2.07259,-0.00611015,0
8.69647,2.13574,-0.00612968,0
8.62907,2.19745,-0.00596367,0
8.56033,2.2577,-0.00562187,0
8.49026,2.31641,-0.00508476,0
8.4189,2.37363,-0.00438164,0
7.95111,-4.70351,0.547259,0
8.05392,-4.67438,0.546517,0
8.15855,-4.64662,0.547161,0
8.26672,-4.62269,0.55013,0
8.37492,-4.59588,0.552972,0
8.48309,-4.56617,0.555657,0
8.59113,-4.53354,0.558206,0
8.69894,-4.49794,0.560599,0
8.80642,-4.45937,0.562864,0
8.91349,-4.41777,0.564954,0
9.02003,-4.37313,0.566878,0
9.12594,-4.32544,0.568626,0
9.23111,-4.27468,0.570208,0
9.33543,-4.22086,0.571624,0
9.4388,-4.16392,0.572835,0
9.54109,-4.10391,0.57387,0
9.64218,-4.04083,0.57473,0
9.74198,-3.97464,0.575374,0
9.83997,-3.90508,0.575677,0
9.936,-3.83218,0.575628,0
10.0303,-3.75628,0.575374,0
10.1227,-3.67736,0.574886,0
10.2131,-3.59547,0.574163,0
10.3015,-3.51069,0.573236,0
10.3875,-3.42304,0.572073,0
10.4712,-3.33256,0.570657,0
10.5524,-3.23932,0.569036,0
10.6255,-3.14052,0.565374,0
10.6914,-3.03724,0.560159,0
10.7545,-2.93203,0.554827,0
10.8149,-2.82502,0.549427,0
10.8723,-2.71622,0.543929,0
10.9269,-2.60573,0.538323,0
10.9784,-2.49366,0.53265,0
11.0269,-2.38009,0.526898,0
11.0723,-2.26511,0.521087,0
11.1145,-2.14879,0.515208,0
11.1536,-2.03124,0.509261,0
11.1894,-1.91254,0.503245,0
11.2219,-1.79282,0.4972,0
11.2511,-1.67217,0.491097,0
11.277,-1.55065,0.484945,0
11.2848,-1.42652,0.474905,0
11.2615,-1.29952,0.45763,0
11.235,-1.17401,0.44057,0
11.2054,-1.05008,0.423714,0
11.1729,-0.927793,0.407083,0
11.1314,-0.807158,0.389163,0
11.0851,-0.688613,0.37096,0
11.0361,-0.572314,0.35307,0
10.9848,-0.458232,0.335443,0
10.931,-0.346484,0.318157,0
10.8751,-0.23709,0.301195,0
10.8171,-0.130078,0.284564,0
10.7571,-0.025459,0.268255,0
10.6951,0.0767383,0.252288,0
10.6314,0.176523,0.236644,0
10.5592,0.272314,0.219661,0
10.4723,0.362002,0.199739,0
10.3843,0.448359,0.180218,0
10.2953,0.531387,0.161116,0
10.2054,0.611103,0.142464,0
10.1572,0.70251,0.134925,0
10.1084,0.792881,0.127913,0
10.0573,0.88167,0.121009,0
10.0041,0.968809,0.114222,0
9.93908,1.04976,0.105042,0
9.86724,1.12603,0.0946906,0
9.79433,1.20012,0.0846223,0
9.72041,1.27201,0.0748469,0
9.64555,1.34173,0.0653449,0
9.56981,1.40928,0.0561262,0
9.49326,1.47466,0.0472102,0
9.41595,1.5379,0.0385578,0
9.33794,1.59899,0.0301984,0
9.25929,1.65797,0.0221223,0
9.18005,1.71484,0.0143098,0
9.10028,1.76962,0.00679024,0
9.02001,1.82232,-0.000465622,0
8.94717,1.88007,-0.00500664,0
8.88534,1.94729,-0.00556328,0
8.82206,2.01315,-0.00593437,0
8.75734,2.07764,-0.00613945,0
8.69122,2.14066,-0.00612968,0
8.62372,2.20225,-0.00594414,0
8.55487,2.26237,-0.00559257,0
8.48469,2.32098,-0.0050457,0
8.41323,2.37806,-0.00431328,0
7.9592,-4.70129,0.547191,0
8.06198,-4.67198,0.546468,0
8.16704,-4.64483,0.547396,0
8.27522,-4.62067,0.550364,0
8.38344,-4.59364,0.553187,0
8.4916,-4.5637,0.555862,0
8.59962,-4.53085,0.558411,0
8.70741,-4.49502,0.560794,0
10.0666,-3.51442,0.564505,0
10.1518,-3.43238,0.563587,0
10.2348,-3.3476,0.562454,0
10.3155,-3.26011,0.561087,0
10.3938,-3.16999,0.559505,0
10.4696,-3.07729,0.557689,0
10.5428,-2.9821,0.555648,0
10.6101,-2.88296,0.552357,0
10.6688,-2.7792,0.547103,0
10.7249,-2.67372,0.541771,0
10.778,-2.56664,0.536361,0
10.8283,-2.458,0.530853,0
10.8757,-2.34789,0.525277,0
10.9201,-2.23642,0.519642,0
10.9614,-2.12364,0.513939,0
10.9996,-2.00968,0.508167,0
11.0347,-1.89461,0.502357,0
11.0667,-1.77852,0.496468,0
11.0954,-1.66151,0.49056,0
11.1209,-1.54367,0.484593,0
11.1278,-1.42309,0.474437,0
11.1069,-1.29994,0.457689,0
11.0828,-1.17815,0.441126,0
11.0557,-1.05785,0.424779,0
11.0209,-0.938877,0.407347,0
10.9805,-0.821699,0.389427,0
10.9374,-0.706533,0.371751,0
10.8918,-0.593447,0.354368,0
10.8438,-0.48251,0.337279,0
10.7934,-0.373711,0.320472,0
10.7408,-0.267139,0.303968,0
10.6862,-0.162793,0.287757,0
10.6295,-0.0607422,0.271888,0
10.5656,0.038125,0.254954,0
10.4872,0.131875,0.235071,0
10.4072,0.222471,0.21554,0
10.3259,0.309893,0.19637,0
10.2433,0.394189,0.177562,0
10.1597,0.475303,0.159173,0
10.0924,0.558887,0.145628,0
10.0479,0.648545,0.138675,0
10.0011,0.736689,0.131849,0
9.95226,0.823369,0.125091,0
9.90129,0.908418,0.118489,0
9.84828,0.991875,0.111986,0
9.78064,1.06751,0.102191,0
9.71049,1.14038,0.0922883,0
9.6393,1.21112,0.0826789,0
9.56716,1.27978,0.0733234,0
9.49411,1.34634,0.0642512,0
9.42022,1.4108,0.0554523,0
9.34555,1.47317,0.0469367,0
9.27015,1.53348,0.0386945,0
9.19408,1.59173,0.0307063,0
9.11739,1.64795,0.0230012,0
9.04013,1.70212,0.0155598,0
8.96235,1.7543,0.00838203,0
8.88981,1.80955,0.00330391,0
8.82966,1.87541,0.0027375,0
8.76807,1.93994,0.00233711,0
8.70508,2.00311,0.00213203,0
8.64071,2.06487,0.0021125,0
8.57498,2.12522,0.00225899,0
8.50794,2.18416,0.00257149,0
8.43959,2.24159,0.00308907,0
8.36999,2.29754,0.00378242,0
7.89346,-4.59786,0.541878,0
7.99333,-4.5693,0.541146,0
8.09284,-4.53816,0.540306,0
8.19617,-4.5119,0.5422,0
8.30086,-4.48536,0.544905,0
8.40547,-4.45602,0.547484,0
8.50992,-4.42386,0.549935,0
8.61412,-4.38883,0.55223,0
8.71798,-4.3509,0.554368,0
8.8214,-4.31008,0.556351,0
8.92427,-4.26631,0.558167,0
9.02651,-4.21966,0.559857,0
9.12801,-4.17,0.561341,0
9.22865,-4.11738,0.562659,0
9.32835,-4.06182,0.563812,0
9.42698,-4.00328,0.564779,0
9.52443,-3.94176,0.56554,0
9.61998,-3.87678,0.565902,0
9.71406,-3.80883,0.566038,0
9.80656,-3.73794,0.565941,0
9.89737,-3.66418,0.565657,0
9.98635,-3.58755,0.565169,0
10.0734,-3.50807,0.564446,0
10.1584,-3.42581,0.563509,0
10.2412,-3.3408,0.562347,0
10.3217,-3.25312,0.56097,0
10.3999,-3.16279,0.559368,0
10.4755,-3.0699,0.557542,0
10.5485,-2.97451,0.555482,0
10.6148,-2.87486,0.551946,0
10.6734,-2.77097,0.546693,0
10.7291,-2.66536,0.541341,0
10.7821,-2.55814,0.535921,0
10.8322,-2.44938,0.530413,0
10.8793,-2.33917,0.524837,0
10.9234,-2.22761,0.519202,0
10.9645,-2.11474,0.513489,0
11.0025,-2.00067,0.507718,0
11.0373,-1.8855,0.501878,0
11.069,-1.76935,0.496009,0
11.0975,-1.65228,0.490091,0
11.1228,-1.53437,0.484124,0
11.1263,-1.41335,0.473109,0
11.1051,-1.2903,0.45638,0
11.0808,-1.16865,0.439847,0
11.0535,-1.04846,0.423499,0
11.0179,-0.92959,0.405931,0
10.9772,-0.812559,0.388021,0
10.9339,-0.697568,0.370384,0
10.8881,-0.584629,0.353011,0
10.8399,-0.473877,0.33595,0
10.7894,-0.365254,0.319173,0
10.7366,-0.258857,0.302689,0
10.6818,-0.154687,0.286497,0
10.6249,-0.0528125,0.270657,0
10.5595,0.0456152,0.253372,0
10.481,0.139111,0.233519,0
10.4009,0.229473,0.214007,0
10.3194,0.31665,0.194866,0
10.2368,0.400664,0.176116,0
10.1531,0.481582,0.157728,0
10.0889,0.565977,0.145081,0
10.0443,0.655518,0.138138,0
9.99737,0.743584,0.131292,0
9.94833,0.830107,0.124573,0
9.89719,0.915049,0.117982,0
9.84403,0.998369,0.111478,0
9.77517,1.07331,0.1014,0
9.70493,1.146,0.0915363,0
9.63367,1.21658,0.0819367,0
9.56145,1.28509,0.0726008,0
9.48833,1.35147,0.0635481,0
9.41437,1.41577,0.0547785,0
9.33964,1.47798,0.0462922,0
9.26419,1.53814,0.03805,0
9.18806,1.59622,0.0301008,0
9.11133,1.65229,0.0224055,0
9.03403,1.70629,0.0149934,0
8.95621,1.75831,0.00782539,0
8.88513,1.81478,0.00325508,0
8.82486,1.88053,0.00269844,0
8.76317,1.94495,0.00231758,0
8.70007,2.00801,0.00212227,0
8.63559,2.06968,0.00210274,0
8.56976,2.12992,0.00226875,0
8.50261,2.18873,0.00261055,0
8.43417,2.24604,0.00313789,0
8.36446,2.30188,0.00383125,0
7.90133,-4.5957,0.541829,0
8.00118,-4.56693,0.541087,0
8.10065,-4.53562,0.540237,0
8.2044,-4.50992,0.542425,0
8.30909,-4.48315,0.545111,0
8.41369,-4.45358,0.547679,0
8.51813,-4.42118,0.550101,0
8.6223,-4.38593,0.552386,0
8.72613,-4.34779,0.554515,0
8.8295,-4.30673,0.556488,0
8.93233,-4.26276,0.558314,0
9.03452,-4.21584,0.559964,0
9.13595,-4.16597,0.561458,0
9.23653,-4.11312,0.562757,0
9.33614,-4.05731,0.56389,0
9.43468,-3.99856,0.564857,0
9.532,-3.93678,0.565589,0
9.62744,-3.87153,0.565911,0
9.7214,-3.80336,0.566038,0
9.81377,-3.73226,0.565931,0
9.90443,-3.65826,0.565638,0
9.99327,-3.5814,0.565111,0
10.0802,-3.5017,0.564378,0
10.165,-3.41924,0.563431,0
10.2476,-3.33401,0.562249,0
10.328,-3.2461,0.560853,0
10.4059,-3.15557,0.559222,0
10.4813,-3.06247,0.557366,0
10.5541,-2.96687,0.555296,0
10.6195,-2.86675,0.551536,0
10.6778,-2.76271,0.546273,0
10.7334,-2.657,0.540931,0
10.7862,-2.54964,0.535491,0
10.836,-2.44078,0.529993,0
10.8829,-2.33045,0.524398,0
10.9268,-2.21876,0.518743,0
10.9676,-2.10579,0.51303,0
11.0053,-1.99163,0.507249,0
11.04,-1.8764,0.501419,0
11.0714,-1.76018,0.49555,0
11.0996,-1.64303,0.489622,0
11.1246,-1.52508,0.483655,0
11.1247,-1.40363,0.47179,0
11.1033,-1.2807,0.455081,0
11.0788,-1.15914,0.438548,0
11.0512,-1.03905,0.42222,0
11.0148,-0.920312,0.404505,0
10.9739,-0.803447,0.386624,0
10.9304,-0.688604,0.369007,0
10.8844,-0.575869,0.351673,0
10.836,-0.465234,0.334603,0
10.7853,-0.356797,0.317855,0
10.7324,-0.250566,0.30139,0
10.6774,-0.146592,0.285247,0
10.6204,-0.0448828,0.269407,0
10.5534,0.0530859,0.2518,0
10.4747,0.146348,0.231976,0
10.3945,0.236436,0.212503,0
10.313,0.323379,0.193382,0
10.2303,0.407148,0.174652,0
10.1465,0.487793,0.156312,0
10.0855,0.573096,0.144515,0
10.0406,0.66252,0.137581,0
9.99359,0.750449,0.130765,0
9.94438,0.836865,0.124046,0
9.89308,0.92167,0.117454,0
9.83891,1.00446,0.110745,0
9.76968,1.0791,0.100618,0
9.69935,1.15165,0.0907551,0
9.62802,1.22206,0.0811848,0
9.55572,1.29039,0.0718781,0
9.48254,1.35658,0.0628645,0
9.40852,1.42074,0.0540949,0
9.33373,1.48279,0.0456281,0
9.25823,1.54277,0.037425,0
9.18205,1.60071,0.0294758,0
9.10527,1.6566,0.0218098,0
9.02793,1.71045,0.014427,0
8.95008,1.7623,0.00728828,0
8.88044,1.82,0.00319649,0
8.82006,1.88566,0.00264961,0
8.75826,1.94996,0.00229805,0
8.69505,2.0129,0.0021125,0
8.63046,2.07445,0.00212227,0
8.56453,2.13461,0.00227852,0
8.49727,2.19329,0.00263985,0
8.42873,2.2505,0.00318672,0
8.35892,2.30621,0.00389961,0
7.90919,-4.59353,0.541771,0
8.00901,-4.56456,0.541028,0
8.10845,-4.53305,0.540169,0
8.21264,-4.5079,0.54263,0
8.31732,-4.48091,0.545316,0
8.42192,-4.45115,0.547884,0
8.52634,-4.41852,0.550296,0
8.63049,-4.38305,0.552571,0
9.94193,-3.42579,0.555286,0
10.0238,-3.34595,0.554368,0
10.1037,-3.26347,0.553216,0
10.1812,-3.17841,0.551868,0
10.2565,-3.09082,0.550286,0
10.3294,-3.00079,0.548499,0
10.3997,-2.90836,0.546478,0
10.4673,-2.81361,0.544261,0
10.5322,-2.71662,0.54181,0
10.5935,-2.61716,0.538909,0
10.645,-2.51302,0.533636,0
10.6937,-2.40739,0.528294,0
10.7395,-2.30038,0.522884,0
10.7824,-2.19201,0.517386,0
10.8224,-2.08242,0.511849,0
10.8594,-1.97167,0.506243,0
10.8934,-1.85986,0.500589,0
10.9243,-1.74706,0.494876,0
10.9521,-1.63339,0.489134,0
10.9767,-1.51892,0.483333,0
10.9764,-1.40087,0.471409,0
10.9572,-1.28156,0.455189,0
10.9349,-1.16352,0.439134,0
10.9045,-1.04657,0.421888,0
10.8694,-0.931162,0.40428,0
10.8315,-0.817627,0.386927,0
10.7911,-0.705996,0.369827,0
10.7481,-0.596299,0.352982,0
10.7028,-0.488613,0.336409,0
10.6551,-0.382969,0.320091,0
10.6053,-0.279414,0.304066,0
10.5429,-0.179326,0.28554,0
10.4731,-0.0827051,0.265882,0
10.4013,0.0109863,0.246507,0
10.3278,0.101709,0.227445,0
10.2528,0.189434,0.208724,0
10.1763,0.274229,0.190306,0
10.0986,0.356035,0.172259,0
10.0206,0.435137,0.154769,0
9.97992,0.523721,0.147933,0
9.93704,0.610986,0.141175,0
9.892,0.696826,0.134515,0
9.84486,0.781191,0.127962,0
9.79567,0.864062,0.121517,0
9.7445,0.945361,0.115189,0
9.68721,1.02301,0.107816,0
9.6195,1.09437,0.0981086,0
9.55075,1.16368,0.0886848,0
9.48102,1.23097,0.0795344,0
9.41038,1.29621,0.0706477,0
9.33888,1.35947,0.0620051,0
9.26659,1.42067,0.0536652,0
9.19356,1.47989,0.0455695,0
9.11984,1.53711,0.0377375,0
9.04547,1.59236,0.0301594,0
8.97053,1.64562,0.0228449,0
8.89504,1.69695,0.0157844,0
8.82565,1.75224,0.0111555,0
8.76687,1.81657,0.0106086,0
8.7067,1.8796,0.0102277,0
8.64515,1.94131,0.0100227,0
8.58225,2.00166,0.00999336,0
8.51802,2.06061,0.0101496,0
8.4525,2.11816,0.0104621,0
8.38572,2.17426,0.0109797,0
8.31769,2.22893,0.011634,0
7.84631,-4.49522,0.536712,0
7.94337,-4.46702,0.53598,0
8.04006,-4.43632,0.53513,0
8.13734,-4.40496,0.534886,0
8.23871,-4.3785,0.537484,0
8.33997,-4.34933,0.539945,0
8.44104,-4.3174,0.542269,0
8.54183,-4.28273,0.544456,0
8.64225,-4.24526,0.546488,0
8.7422,-4.20497,0.548353,0
8.8416,-4.16187,0.550081,0
8.94034,-4.11595,0.551663,0
9.03834,-4.06716,0.55306,0
9.13548,-4.01553,0.5543,0
9.23166,-3.96104,0.555364,0
9.32646,-3.90338,0.556107,0
9.41986,-3.84267,0.556566,0
9.51194,-3.77916,0.556859,0
9.60256,-3.71279,0.556937,0
9.69164,-3.64363,0.556819,0
9.77906,-3.5717,0.556497,0
9.8647,-3.49702,0.55597,0
9.94845,-3.41961,0.555228,0
10.0302,-3.33955,0.55428,0
10.1098,-3.25687,0.553128,0
10.1873,-3.17161,0.551751,0
10.2623,-3.08383,0.55015,0
10.335,-2.9936,0.548343,0
10.4051,-2.90099,0.546312,0
10.4725,-2.80606,0.544075,0
10.5372,-2.7089,0.541614,0
10.5977,-2.60902,0.538499,0
10.6489,-2.50477,0.533216,0
10.6974,-2.39903,0.527874,0
10.743,-2.29191,0.522454,0
10.7857,-2.18345,0.516966,0
10.8254,-2.07376,0.511409,0
10.8622,-1.96293,0.505814,0
10.8959,-1.85103,0.50015,0
10.9266,-1.73818,0.494446,0
10.9541,-1.62441,0.488675,0
10.9785,-1.50989,0.482884,0
10.975,-1.39145,0.47013,0
10.9555,-1.27223,0.453919,0
10.933,-1.1543,0.437884,0
10.9019,-1.03742,0.420491,0
10.8665,-0.922168,0.402903,0
10.8284,-0.808779,0.38557,0
10.7878,-0.697285,0.368489,0
10.7446,-0.587754,0.351663,0
10.6991,-0.480225,0.335111,0
10.6513,-0.374756,0.318831,0
10.6013,-0.271367,0.302825,0
10.5375,-0.171631,0.283997,0
10.4675,-0.0752344,0.264359,0
10.3956,0.0182129,0.245013,0
10.322,0.108711,0.22597,0
10.2468,0.196221,0.207259,0
10.1702,0.280762,0.18888,0
10.0924,0.362334,0.170853,0
10.0175,0.442148,0.154241,0
9.97663,0.530654,0.147386,0
9.93358,0.617773,0.140657,0
9.88837,0.703516,0.133997,0
9.84107,0.787783,0.127445,0
9.79172,0.870508,0.121019,0
9.7404,0.95167,0.1147,0
9.68193,1.02869,0.107034,0
9.61413,1.09988,0.0973664,0
9.5453,1.16904,0.0879719,0
9.4755,1.23617,0.0788215,0
9.40479,1.30128,0.0699543,0
9.33323,1.36435,0.0613508,0
9.26087,1.42542,0.0530012,0
9.18779,1.48446,0.0449445,0
9.11401,1.54154,0.0371223,0
9.0396,1.59663,0.0295637,0
8.96461,1.64974,0.0222785,0
8.88908,1.70091,0.0152473,0
8.82107,1.75733,0.0111164,0
8.76219,1.82157,0.0105695,0
8.70191,1.88451,0.0101984,0
8.64025,1.9461,0.0100129,0
8.57724,2.00635,0.0100031,0
8.51292,2.06519,0.0101691,0
8.4473,2.12263,0.0105012,0
8.38041,2.17862,0.011009,0
8.31229,2.23315,0.0116926,0
7.85396,-4.49309,0.536654,0
7.95099,-4.4647,0.535931,0
8.04765,-4.43381,0.535071,0
8.14531,-4.40297,0.535101,0
8.24668,-4.3763,0.537679,0
8.34793,-4.3469,0.54013,0
8.44898,-4.31478,0.542445,0
8.54974,-4.27985,0.544593,0
8.65012,-4.24219,0.546634,0
8.75004,-4.20167,0.548489,0
8.84939,-4.15835,0.550198,0
8.94808,-4.11221,0.551771,0
9.04601,-4.0632,0.553167,0
9.14308,-4.01136,0.554398,0
9.23918,-3.95663,0.555443,0
9.33385,-3.8987,0.556146,0
9.42715,-3.83779,0.556605,0
9.51912,-3.77402,0.556859,0
9.60963,-3.70746,0.556937,0
9.69858,-3.63808,0.5568,0
9.78586,-3.56592,0.556458,0
9.87135,-3.49103,0.555911,0
9.95495,-3.41343,0.555169,0
10.0365,-3.33314,0.554193,0
10.116,-3.25026,0.55303,0
10.1932,-3.1648,0.551634,0
10.2681,-3.07682,0.550013,0
10.3406,-2.9864,0.548187,0
10.4105,-2.8936,0.546146,0
10.4777,-2.7985,0.54389,0
10.5422,-2.70116,0.541409,0
10.6018,-2.60087,0.538079,0
10.6529,-2.49651,0.532816,0
10.7011,-2.39065,0.527445,0
10.7465,-2.28341,0.522015,0
10.7889,-2.17484,0.516517,0
10.8284,-2.06507,0.51097,0
10.865,-1.95416,0.505364,0
10.8984,-1.84219,0.4997,0
10.9289,-1.72926,0.493988,0
10.9562,-1.61543,0.488226,0
10.9803,-1.50085,0.482425,0
10.9736,-1.38202,0.468851,0
10.9538,-1.26291,0.452659,0
10.9311,-1.14509,0.436634,0
10.8992,-1.02828,0.419095,0
10.8636,-0.913193,0.401536,0
10.8253,-0.799941,0.384222,0
10.7845,-0.688613,0.367161,0
10.7411,-0.579229,0.350355,0
10.6954,-0.471865,0.333821,0
10.6474,-0.366553,0.317562,0
10.5973,-0.26332,0.301585,0
10.532,-0.163936,0.282425,0
10.4619,-0.0677734,0.262816,0
10.3899,0.0254395,0.243499,0
10.3161,0.115693,0.224486,0
10.2409,0.202979,0.205804,0
10.1642,0.287275,0.187454,0
10.0863,0.368623,0.169446,0
10.0143,0.44916,0.153695,0
9.97332,0.537549,0.146868,0
9.9301,0.62458,0.14012,0
9.88472,0.710195,0.13348,0
9.83726,0.794336,0.126937,0
9.78775,0.876943,0.120521,0
9.73628,0.958008,0.114202,0
9.67663,1.03437,0.106263,0
9.60875,1.10541,0.0966047,0
9.53984,1.1744,0.0872297,0
9.46997,1.24138,0.0781086,0
9.39919,1.30631,0.0692609,0
9.32757,1.36923,0.0606867,0
9.25515,1.43012,0.0523762,0
9.18201,1.48904,0.0443,0
9.10818,1.54595,0.0365168,0
9.03372,1.60086,0.0289973,0
8.95869,1.65383,0.0217121,0
8.88312,1.70482,0.0147102,0
8.8165,1.76244,0.0110578,0
8.7575,1.82657,0.0105402,0
8.69711,1.8894,0.0101789,0
8.63535,1.95087,0.0100227,0
8.57223,2.01102,0.0100031,0
8.5078,2.06977,0.0101789,0
8.44208,2.12708,0.0105305,0
8.3751,2.18298,0.011048,0
8.30688,2.23736,0.0117609,0
7.8616,-4.49094,0.536595,0
7.9586,-4.46235,0.535863,0
8.05522,-4.43129,0.535003,0
8.15329,-4.40097,0.535306,0
8.25465,-4.37407,0.537864,0
8.35589,-4.34447,0.540316,0
8.45692,-4.31214,0.54262,0
8.55765,-4.277,0.544769,0
9.82431,-3.34221,0.546605,0
9.90319,-3.26443,0.545667,0
9.98003,-3.18415,0.544515,0
10.0547,-3.10141,0.543167,0
10.1271,-3.01623,0.541595,0
10.1972,-2.92873,0.539837,0
10.2648,-2.83892,0.537855,0
10.3299,-2.74688,0.535657,0
10.3923,-2.65275,0.533275,0
10.452,-2.55652,0.530667,0
10.5088,-2.45834,0.527864,0
10.5627,-2.35824,0.524837,0
10.6103,-2.25528,0.520599,0
10.6519,-2.14991,0.515277,0
10.6906,-2.04332,0.509866,0
10.7264,-1.93562,0.504417,0
10.7593,-1.82691,0.498929,0
10.7892,-1.71724,0.493372,0
10.8161,-1.60674,0.487786,0
10.84,-1.49545,0.482152,0
10.8332,-1.37986,0.468558,0
10.8155,-1.26418,0.452835,0
10.7893,-1.14921,0.435677,0
10.7591,-1.03572,0.418421,0
10.7262,-0.923896,0.4014,0
10.6907,-0.813779,0.384573,0
10.6527,-0.705478,0.368001,0
10.6122,-0.598994,0.351663,0
10.5635,-0.494736,0.333988,0
10.5049,-0.393291,0.314456,0
10.4438,-0.294482,0.29514,0
10.3806,-0.198359,0.276048,0
10.3152,-0.10499,0.25721,0
10.248,-0.0143555,0.238636,0
10.179,0.0734961,0.220345,0
10.1084,0.158555,0.202337,0
10.0363,0.24082,0.184642,0
9.96298,0.320283,0.167279,0
9.91238,0.404082,0.15679,0
9.87317,0.490342,0.15013,0
9.8318,0.575312,0.143548,0
9.78833,0.658926,0.137064,0
9.74282,0.741133,0.130677,0
9.69531,0.821885,0.124398,0
9.64587,0.901123,0.118236,0
9.59455,0.978848,0.112171,0
9.53259,1.05042,0.103675,0
9.46613,1.11833,0.0944465,0
9.39869,1.18431,0.0854621,0
9.33032,1.24832,0.0767512,0
9.26109,1.31035,0.0683039,0
9.19105,1.37046,0.060091,0
9.12025,1.42862,0.052132,0
9.04875,1.48482,0.0444563,0
8.9766,1.53912,0.0370148,0
8.90384,1.59151,0.0298176,0
8.83053,1.642,0.022884,0
8.76409,1.69721,0.0187238,0
8.70665,1.76011,0.0181672,0
8.64782,1.82173,0.0177961,0
8.58765,1.88203,0.017591,0
8.52616,1.94101,0.0175715,0
8.46338,1.99862,0.0177082,0
8.39932,2.05486,0.0180305,0
8.33403,2.10969,0.0185188,0
8.26753,2.16307,0.0191926,0
7.80137,-4.3974,0.53178,0
7.89576,-4.36957,0.531068,0
7.98977,-4.33931,0.530218,0
8.08333,-4.30662,0.529251,0
8.1797,-4.27703,0.530433,0
8.27781,-4.24805,0.532786,0
8.37568,-4.2164,0.534993,0
8.47326,-4.1821,0.537073,0
8.57045,-4.14508,0.538997,0
8.66715,-4.10535,0.540784,0
8.76328,-4.0629,0.542415,0
8.85874,-4.01771,0.54389,0
8.95345,-3.96978,0.545218,0
9.04712,-3.91893,0.546292,0
9.13956,-3.86504,0.547064,0
9.23091,-3.8084,0.547659,0
9.32104,-3.74904,0.548099,0
9.40986,-3.68694,0.548323,0
9.49726,-3.62212,0.548362,0
9.58314,-3.55459,0.548196,0
9.6674,-3.48441,0.547845,0
9.74991,-3.4116,0.547298,0
9.83059,-3.33617,0.546527,0
9.90931,-3.2582,0.545579,0
9.98599,-3.17773,0.544427,0
10.0605,-3.09478,0.54304,0
10.1327,-3.00942,0.541468,0
10.2026,-2.92174,0.539691,0
10.27,-2.83176,0.537689,0
10.3349,-2.73957,0.535482,0
10.3971,-2.64524,0.53307,0
10.4565,-2.54888,0.530462,0
10.5131,-2.45053,0.52762,0
10.5668,-2.35029,0.524593,0
10.6137,-2.24704,0.520179,0
10.655,-2.14157,0.514847,0
10.6935,-2.0349,0.509456,0
10.7291,-1.92711,0.503997,0
10.7618,-1.81831,0.498489,0
10.7915,-1.70857,0.492933,0
10.8181,-1.598,0.487337,0
10.8418,-1.48667,0.481702,0
10.8319,-1.37072,0.467318,0
10.814,-1.25514,0.451605,0
10.787,-1.14022,0.43431,0
10.7566,-1.02688,0.417083,0
10.7235,-0.915156,0.400052,0
10.6878,-0.805186,0.383255,0
10.6496,-0.697031,0.366712,0
10.6089,-0.590693,0.350384,0
10.559,-0.48667,0.332445,0
10.5002,-0.38541,0.312923,0
10.439,-0.286826,0.293626,0
10.3755,-0.190928,0.274564,0
10.31,-0.0977734,0.255755,0
10.2426,-0.00734375,0.237181,0
10.1735,0.0802832,0.218919,0
10.1027,0.165117,0.20095,0
10.0306,0.247178,0.183265,0
9.95715,0.326416,0.165921,0
9.90937,0.410918,0.156263,0
9.86999,0.49708,0.149603,0
9.82846,0.581943,0.14303,0
9.78483,0.665449,0.136556,0
9.73915,0.747539,0.130189,0
9.69149,0.828184,0.123909,0
9.6419,0.907314,0.117747,0
9.59044,0.984883,0.111702,0
9.5274,1.05582,0.102943,0
9.46086,1.12361,0.0937141,0
9.39334,1.18941,0.0847687,0
9.32491,1.25327,0.0760676,0
9.25561,1.31516,0.0676398,0
9.18551,1.3751,0.059466,0
9.11465,1.43311,0.0515266,0
9.0431,1.48916,0.0438605,0
8.97089,1.54332,0.0364387,0
8.89809,1.59556,0.0292609,0
8.82474,1.64587,0.0223566,0
8.75963,1.70222,0.0186652,0
8.70207,1.765,0.0181379,0
8.64314,1.82651,0.0177766,0
8.58286,1.88673,0.0175813,0
8.52127,1.94558,0.0175813,0
8.45838,2.0031,0.0177375,0
8.39423,2.05922,0.0180695,0
8.32884,2.11394,0.0185676,0
8.26225,2.16722,0.0192316,0
7.80881,-4.3953,0.531732,0
7.90317,-4.36727,0.530999,0
7.99715,-4.33684,0.530159,0
8.09067,-4.30396,0.529193,0
8.18743,-4.27485,0.530628,0
8.28551,-4.24565,0.532952,0
8.38337,-4.2138,0.535159,0
8.48092,-4.17929,0.53723,0
8.57806,-4.14206,0.539154,0
8.67472,-4.10212,0.540911,0
8.77081,-4.05945,0.542542,0
8.86621,-4.01404,0.543997,0
8.96086,-3.96591,0.545316,0
9.05442,-3.91479,0.546361,0
9.14679,-3.86069,0.547122,0
9.23803,-3.80384,0.547708,0
9.32807,-3.74426,0.548118,0
9.41679,-3.68193,0.548333,0
9.50408,-3.61687,0.548333,0
9.58983,-3.54917,0.548187,0
9.67395,-3.47877,0.547806,0
9.75633,-3.40577,0.547249,0
9.83685,-3.33014,0.546468,0
9.91542,-3.25198,0.545501,0
9.99192,-3.17131,0.54432,0
10.0663,-3.08815,0.542923,0
10.1383,-3.00263,0.541341,0
10.208,-2.91473,0.539534,0
10.2752,-2.82458,0.537523,0
10.3399,-2.73222,0.535296,0
10.4019,-2.63773,0.532874,0
10.4611,-2.5412,0.530237,0
10.5175,-2.4427,0.527396,0
10.5709,-2.34232,0.524339,0
10.617,-2.23879,0.519769,0
10.6582,-2.13322,0.514427,0
10.6964,-2.02645,0.509017,0
10.7318,-1.91859,0.503568,0
10.7642,-1.80972,0.49806,0
10.7937,-1.6999,0.492493,0
10.8201,-1.58927,0.486898,0
10.8435,-1.47788,0.481263,0
10.8306,-1.36159,0.466077,0
10.8124,-1.24608,0.450364,0
10.7847,-1.13127,0.432952,0
10.7541,-1.01801,0.415726,0
10.7208,-0.906455,0.398724,0
10.6849,-0.796631,0.381946,0
10.6464,-0.688594,0.365413,0
10.6056,-0.582402,0.349105,0
10.5545,-0.478604,0.330911,0
10.4954,-0.377578,0.311409,0
10.434,-0.279189,0.292132,0
10.3704,-0.183516,0.273089,0
10.3048,-0.0905469,0.254271,0
10.2372,-0.000361328,0.235745,0
10.168,0.0870508,0.217493,0
10.0971,0.171689,0.199534,0
10.0249,0.253486,0.181907,0
9.95133,0.332539,0.164564,0
9.90635,0.417734,0.155745,0
9.8668,0.503809,0.149085,0
9.8251,0.588564,0.142513,0
9.78131,0.671953,0.136058,0
9.73548,0.753936,0.129681,0
9.68766,0.834463,0.123421,0
9.63792,0.913477,0.117269,0
9.58631,0.990937,0.111224,0
9.5222,1.06124,0.1022,0
9.45559,1.12885,0.0930207,0
9.38799,1.19449,0.0840852,0
9.31949,1.2582,0.0754035,0
9.25012,1.31994,0.0669855,0
9.17996,1.37974,0.0588215,0
9.10905,1.43759,0.0509016,0
9.03745,1.4935,0.0432551,0
8.96519,1.54751,0.0358527,0
8.89235,1.59958,0.0287141,0
8.81895,1.64977,0.0218195,0
8.75515,1.70719,0.0186262,0
8.69749,1.7699,0.0180891,0
8.63845,1.83129,0.017757,0
8.57807,1.8914,0.0175813,0
8.51637,1.95015,0.017591,0
8.45339,2.00756,0.0177473,0
8.38914,2.06358,0.0180988,0
8.32365,2.11818,0.0186066,0
8.25696,2.17135,0.0192902,0
7.81624,-4.39317,0.531673,0
7.91057,-4.36499,0.53095,0
8.00451,-4.33435,0.530091,0
8.098,-4.30128,0.529105,0
8.19515,-4.27265,0.530804,0
8.29322,-4.24325,0.533148,0
8.39106,-4.21119,0.535335,0
8.48858,-4.17645,0.537376,0
9.71317,-3.2632,0.538382,0
9.78922,-3.18745,0.537454,0
9.86327,-3.10925,0.536302,0
9.93524,-3.02867,0.534945,0
10.005,-2.9458,0.533392,0
10.0725,-2.86071,0.531663,0
10.1376,-2.77341,0.52972,0
10.2003,-2.68397,0.527562,0
10.2603,-2.5925,0.525208,0
10.3177,-2.49906,0.522669,0
10.3724,-2.40373,0.519925,0
10.4242,-2.30657,0.516966,0
10.4732,-2.20772,0.513831,0
10.5191,-2.10726,0.510491,0
10.5621,-2.00524,0.506947,0
10.6001,-1.90137,0.502679,0
10.632,-1.7956,0.497337,0
10.661,-1.68891,0.491937,0
10.687,-1.58141,0.486497,0
10.7102,-1.47316,0.481028,0
10.6975,-1.35997,0.465843,0
10.6751,-1.24704,0.448773,0
10.6497,-1.13553,0.431878,0
10.6216,-1.02549,0.415169,0
10.5908,-0.916992,0.398646,0
10.5481,-0.810029,0.379681,0
10.5015,-0.705186,0.36056,0
10.4521,-0.602568,0.341546,0
10.3999,-0.502324,0.322698,0
10.3453,-0.404463,0.304007,0
10.2882,-0.309062,0.285501,0
10.229,-0.216172,0.2672,0
10.1677,-0.12582,0.249114,0
10.1045,-0.0380664,0.231273,0
10.0395,0.0470605,0.213704,0
9.97299,0.1296,0.19638,0
9.90499,0.209473,0.179349,0
9.84519,0.289316,0.165296,0
9.8095,0.374561,0.158714,0
9.77166,0.458594,0.15221,0
9.73172,0.541396,0.145804,0
9.68973,0.622881,0.139495,0
9.64574,0.703037,0.133255,0
9.59982,0.781768,0.127142,0
9.552,0.859053,0.121126,0
9.50235,0.934863,0.115208,0
9.44949,1.00839,0.108997,0
9.38519,1.07497,0.0999543,0
9.31991,1.13965,0.0911555,0
9.25369,1.20245,0.0826105,0
9.1866,1.26334,0.0743098,0
9.11869,1.32235,0.0662434,0
9.05002,1.37945,0.0584602,0
8.98062,1.43472,0.0508918,0
8.91056,1.48811,0.0435676,0
8.83989,1.5396,0.0365168,0
8.76864,1.58927,0.0297004,0
8.70499,1.6444,0.0259602,0
8.64881,1.70589,0.0254328,0
8.59129,1.76613,0.0250715,0
8.53245,1.8251,0.0248762,0
8.47231,1.88275,0.0248566,0
8.4109,1.9391,0.0249836,0
8.34826,1.99406,0.0253059,0
8.2844,2.04767,0.0257746,0
8.21936,2.09985,0.0264191,0
7.75848,-4.30406,0.527083,0
7.85033,-4.2766,0.52638,0
7.9418,-4.24677,0.52553,0
8.03281,-4.21458,0.524573,0
8.12361,-4.18057,0.523734,0
8.21872,-4.1518,0.52597,0
8.31359,-4.12045,0.528079,0
8.40814,-4.0865,0.530052,0
8.50227,-4.04996,0.531888,0
8.59591,-4.0108,0.533597,0
8.68895,-3.96901,0.53515,0
8.78121,-3.92443,0.536488,0
8.87246,-3.87694,0.537542,0
8.96281,-3.82678,0.538421,0
9.05217,-3.77396,0.539144,0
9.14043,-3.71851,0.539691,0
9.22749,-3.6604,0.540062,0
9.31327,-3.59966,0.540237,0
9.39765,-3.53632,0.540237,0
9.48053,-3.47037,0.540042,0
9.56183,-3.40187,0.539652,0
9.64142,-3.33085,0.539085,0
9.71922,-3.25734,0.538314,0
9.79511,-3.18137,0.537366,0
9.86901,-3.10298,0.536185,0
9.94081,-3.02226,0.534837,0
10.0104,-2.9392,0.533275,0
10.0777,-2.85391,0.531507,0
10.1426,-2.76644,0.529544,0
10.2051,-2.67685,0.527386,0
10.2649,-2.58521,0.525023,0
10.3221,-2.49163,0.522464,0
10.3766,-2.39615,0.5197,0
10.4282,-2.29887,0.516732,0
10.4769,-2.19989,0.513577,0
10.5226,-2.09928,0.510208,0
10.5653,-1.99716,0.506653,0
10.6027,-1.89309,0.502269,0
10.6344,-1.78724,0.496917,0
10.6631,-1.68048,0.491517,0
10.689,-1.57291,0.486068,0
10.71,-1.46434,0.480052,0
10.6959,-1.35103,0.464486,0
10.6732,-1.23819,0.447425,0
10.6476,-1.1268,0.43055,0
10.6193,-1.01688,0.413851,0
10.5883,-0.908535,0.397366,0
10.5445,-0.801699,0.378167,0
10.4977,-0.697021,0.359056,0
10.4481,-0.594609,0.340062,0
10.3957,-0.494541,0.321224,0
10.3409,-0.396846,0.302532,0
10.2836,-0.30165,0.284046,0
10.2242,-0.208965,0.265765,0
10.1628,-0.118828,0.247698,0
10.0994,-0.0312598,0.229876,0
10.0344,0.0536523,0.212327,0
9.9677,0.135977,0.195023,0
9.89957,0.215645,0.178021,0
9.84246,0.296064,0.164779,0
9.8066,0.381211,0.158196,0
9.76859,0.465146,0.151712,0
9.72849,0.547852,0.145306,0
9.68634,0.629238,0.138987,0
9.6422,0.709258,0.132786,0
9.59612,0.787871,0.126683,0
9.54816,0.865078,0.120657,0
9.49837,0.940762,0.114759,0
9.44447,1.0137,0.108275,0
9.38009,1.08013,0.0992512,0
9.31473,1.14467,0.0904621,0
9.24845,1.20731,0.0819367,0
9.18129,1.26806,0.0736555,0
9.11332,1.32691,0.0656281,0
9.04458,1.38389,0.0578449,0
8.97513,1.43899,0.0502961,0
8.90503,1.49222,0.0430109,0
8.8343,1.54359,0.0359699,0
8.76301,1.59311,0.0291731,0
8.70062,1.64929,0.0259113,0
8.64433,1.71069,0.025384,0
8.58671,1.77082,0.0250422,0
8.52776,1.82969,0.0248566,0
8.46752,1.88725,0.0248469,0
8.40602,1.94349,0.0249934,0
8.34328,1.99833,0.0253352,0
8.27933,2.05184,0.0258137,0
8.2142,2.10389,0.0264875,0
7.76572,-4.30197,0.527034,0
7.85755,-4.27433,0.526302,0
7.94898,-4.24432,0.525452,0
8.03995,-4.21195,0.524495,0
8.13109,-4.1784,0.523919,0
8.22619,-4.14941,0.526126,0
8.32104,-4.11788,0.528245,0
8.41555,-4.08374,0.530218,0
8.50965,-4.04699,0.532044,0
8.60324,-4.00762,0.533724,0
8.69624,-3.96562,0.535267,0
8.78841,-3.92078,0.536566,0
8.8796,-3.87309,0.537611,0
8.96988,-3.82271,0.538489,0
9.05915,-3.76972,0.539202,0
9.14732,-3.71402,0.53972,0
9.23428,-3.65571,0.540071,0
9.31996,-3.59477,0.540237,0
9.40422,-3.53123,0.540228,0
9.48699,-3.46508,0.540013,0
9.56815,-3.39639,0.539632,0
9.6476,-3.32516,0.539036,0
9.72525,-3.25146,0.538255,0
9.801,-3.17529,0.537269,0
9.87473,-3.09671,0.536087,0
9.94636,-3.0158,0.53472,0
10.0158,-2.93257,0.533138,0
10.0829,-2.84711,0.53137,0
10.1476,-2.75945,0.529378,0
10.2099,-2.66971,0.52721,0
10.2695,-2.57792,0.524818,0
10.3265,-2.48418,0.522239,0
10.3807,-2.38855,0.519466,0
10.4321,-2.29113,0.516487,0
10.4806,-2.19202,0.513314,0
10.5261,-2.0913,0.509944,0
10.5685,-1.98907,0.50639,0
10.6053,-1.8848,0.501859,0
10.6367,-1.77888,0.496487,0
10.6653,-1.67204,0.491077,0
10.6909,-1.56442,0.485648,0
10.7091,-1.4554,0.478841,0
10.6942,-1.3421,0.463138,0
10.6713,-1.2294,0.446107,0
10.6455,-1.11811,0.429232,0
10.6169,-1.00831,0.412552,0
10.585,-0.900078,0.395862,0
10.5409,-0.793389,0.376654,0
10.4939,-0.688887,0.357562,0
10.444,-0.58667,0.338587,0
10.3915,-0.486777,0.319749,0
10.3364,-0.389277,0.301077,0
10.279,-0.294277,0.282601,0
10.2195,-0.201787,0.264339,0
10.1579,-0.111846,0.246292,0
10.0944,-0.024502,0.228499,0
10.0292,0.0602344,0.21095,0
9.96239,0.142324,0.193685,0
9.89416,0.221807,0.176693,0
9.83972,0.302812,0.164251,0
9.80368,0.387871,0.157679,0
9.76551,0.471709,0.151204,0
9.72524,0.554297,0.144808,0
9.68294,0.635586,0.138499,0
9.63864,0.715508,0.132298,0
9.59242,0.794014,0.126195,0
9.54431,0.871074,0.120198,0
9.49437,0.94665,0.1143,0
9.43944,1.01901,0.107542,0
9.37499,1.08529,0.0985383,0
9.30955,1.14967,0.0897883,0
9.24319,1.21216,0.0812727,0
9.17597,1.27274,0.0730207,0
9.10794,1.33145,0.0650129,0
9.03915,1.38829,0.0572395,0
8.96965,1.44323,0.0497199,0
8.89949,1.49632,0.0424543,0
8.82872,1.54755,0.035423,0
8.75738,1.59691,0.0286457,0
8.69624,1.65418,0.0258527,0
8.63985,1.71545,0.0253645,0
8.58212,1.7755,0.0250227,0
8.52307,1.83426,0.0248566,0
8.46274,1.89171,0.0248566,0
8.40114,1.94782,0.0250324,0
8.3383,2.0026,0.0253547,0
8.27425,2.05598,0.0258625,0
8.20902,2.10793,0.0265461,0
7.77295,-4.2999,0.526986,0
7.86475,-4.27207,0.526253,0
7.95614,-4.24186,0.525384,0
8.04708,-4.20932,0.524417,0
8.13859,-4.1762,0.524085,0
8.23367,-4.14703,0.526312,0
8.32849,-4.11527,0.528392,0
8.42297,-4.08094,0.530355,0
9.60796,-3.18845,0.530618,0
9.68136,-3.11455,0.529652,0
9.75282,-3.03836,0.528509,0
9.82224,-2.95991,0.527191,0
9.88954,-2.87923,0.525648,0
9.95461,-2.7964,0.523929,0
10.0174,-2.71146,0.522015,0
10.0777,-2.6245,0.519905,0
10.1356,-2.53557,0.517591,0
10.1909,-2.44477,0.515111,0
10.2436,-2.35216,0.512425,0
10.2935,-2.25779,0.509525,0
10.3407,-2.16182,0.506468,0
10.3849,-2.06428,0.503226,0
10.4262,-1.96527,0.499769,0
10.4645,-1.86492,0.496155,0
10.4997,-1.76328,0.492337,0
10.5318,-1.66052,0.488372,0
10.5608,-1.55669,0.484202,0
10.5773,-1.4505,0.477073,0
10.554,-1.33912,0.458743,0
10.5269,-1.22918,0.440364,0
10.4964,-1.12077,0.421927,0
10.4624,-1.01404,0.403489,0
10.4252,-0.909121,0.385081,0
10.385,-0.806103,0.366712,0
10.3418,-0.705088,0.348421,0
10.2958,-0.606172,0.330238,0
10.2472,-0.509404,0.312152,0
10.1961,-0.414883,0.294222,0
10.1426,-0.322686,0.276487,0
10.0871,-0.232803,0.2589,0
10.0294,-0.145332,0.241527,0
9.96994,-0.0603027,0.224368,0
9.90869,0.0222852,0.207445,0
9.84585,0.102383,0.190775,0
9.78153,0.18002,0.174349,0
9.74603,0.263398,0.166946,0
9.71156,0.346445,0.16054,0
9.675,0.428369,0.154202,0
9.63641,0.509082,0.147962,0
9.59581,0.588564,0.14179,0
9.55327,0.666719,0.135726,0
9.50883,0.743545,0.129749,0
9.46255,0.818965,0.12388,0
9.41447,0.892939,0.118118,0
9.36466,0.965439,0.112464,0
9.30769,1.03346,0.105218,0
9.24445,1.09688,0.0966047,0
9.18027,1.15852,0.0882063,0
9.11521,1.21829,0.0800617,0
9.04932,1.27623,0.0721516,0
8.98266,1.33233,0.0644953,0
8.91527,1.38664,0.0570637,0
8.8472,1.4391,0.0498957,0
8.7785,1.48979,0.0429328,0
8.70921,1.53867,0.0362238,0
8.64818,1.59365,0.0329133,0
8.59322,1.65379,0.0324055,0
8.53695,1.71273,0.0320344,0
8.47938,1.7704,0.0318586,0
8.42055,1.82679,0.0318391,0
8.36048,1.88189,0.0319758,0
8.29918,1.93566,0.0322785,0
8.2367,1.98806,0.032757,0
8.17307,2.03909,0.033382,0
7.72048,-4.22103,0.52513,0
7.80853,-4.19087,0.523167,0
7.8961,-4.1586,0.521136,0
7.98457,-4.1267,0.520101,0
8.07263,-4.09273,0.519056,0
8.16249,-4.0602,0.519495,0
8.25451,-4.02916,0.521517,0
8.34619,-3.99561,0.523392,0
8.43745,-3.95954,0.52515,0
8.52805,-3.92076,0.526683,0
8.61791,-3.87928,0.528001,0
8.70705,-3.83521,0.529154,0
8.79538,-3.78856,0.53015,0
8.88282,-3.73936,0.53098,0
8.96926,-3.68757,0.531624,0
9.05462,-3.63324,0.532122,0
9.13881,-3.57636,0.532435,0
9.22172,-3.51696,0.532581,0
9.30326,-3.45503,0.532542,0
9.38334,-3.39061,0.532318,0
9.46185,-3.32373,0.531907,0
9.5387,-3.25442,0.531321,0
9.6138,-3.1827,0.53053,0
9.68705,-3.10864,0.529564,0
9.75836,-3.03228,0.528411,0
9.82761,-2.95364,0.527073,0
9.89474,-2.87279,0.525521,0
9.95963,-2.78979,0.523782,0
10.0222,-2.7047,0.521859,0
10.0824,-2.61758,0.51973,0
10.1401,-2.52851,0.517415,0
10.1952,-2.43755,0.514905,0
10.2476,-2.34479,0.5122,0
10.2973,-2.25032,0.50931,0
10.3442,-2.1542,0.506224,0
10.3883,-2.05654,0.502952,0
10.4293,-1.95743,0.499495,0
10.4674,-1.85696,0.495853,0
10.5024,-1.75524,0.492034,0
10.5342,-1.65238,0.48804,0
10.5629,-1.54849,0.48387,0
10.5756,-1.44169,0.475648,0
10.552,-1.33043,0.457308,0
10.5247,-1.22061,0.438929,0
10.4938,-1.11232,0.420482,0
10.4596,-1.00573,0.402044,0
10.4222,-0.900957,0.383646,0
10.3817,-0.798076,0.365267,0
10.3382,-0.697227,0.346986,0
10.292,-0.598467,0.328802,0
10.2432,-0.501885,0.310736,0
10.1919,-0.407559,0.292825,0
10.1383,-0.315537,0.275091,0
10.0826,-0.22585,0.257532,0
10.0248,-0.138564,0.240169,0
9.96518,-0.0537109,0.22303,0
9.90381,0.0286816,0.206126,0
9.84084,0.108584,0.189476,0
9.77641,0.186025,0.17307,0
9.74339,0.269961,0.166439,0
9.70876,0.352949,0.160032,0
9.67204,0.434775,0.153704,0
9.63328,0.515381,0.147474,0
9.59253,0.594756,0.141312,0
9.54984,0.672822,0.135247,0
9.50525,0.749492,0.12931,0
9.45883,0.824834,0.123421,0
9.41061,0.898691,0.117669,0
9.36067,0.971074,0.112025,0
9.30275,1.03853,0.104515,0
9.23943,1.10182,0.0959211,0
9.17518,1.16329,0.0875422,0
9.11005,1.22291,0.079427,0
9.0441,1.28072,0.0715363,0
8.97738,1.33667,0.0639094,0
8.90993,1.39084,0.0564875,0
8.84181,1.44318,0.0493195,0
8.77307,1.4937,0.0423957,0
8.70374,1.54245,0.0356965,0
8.64391,1.59844,0.0328645,0
8.58885,1.65849,0.0323664,0
8.53247,1.71731,0.0320246,0
8.4748,1.77487,0.0318586,0
8.41587,1.83119,0.0318293,0
8.3557,1.88617,0.0319953,0
8.29431,1.93982,0.0323078,0
8.23174,1.99214,0.0327863,0
8.16801,2.04306,0.0334406,0
7.72743,-4.21874,0.524984,0
7.81544,-4.18839,0.522991,0
7.90297,-4.15597,0.52097,0
7.99152,-4.12412,0.520032,0
8.07953,-4.08996,0.518968,0
8.16974,-4.05783,0.519652,0
8.26174,-4.02661,0.521663,0
8.35338,-3.99287,0.523538,0
8.4446,-3.95661,0.525286,0
8.53514,-3.9176,0.52679,0
8.62494,-3.87589,0.528089,0
8.71402,-3.83162,0.529232,0
8.80229,-3.78479,0.530218,0
8.88965,-3.73537,0.531029,0
8.97602,-3.68341,0.531683,0
9.06129,-3.62886,0.532152,0
