84.9702,-55.0566,-4.50907,0
84.9486,-54.9321,-4.52538,0
84.9247,-54.8083,-4.5412,0
84.8986,-54.6852,-4.55652,0
84.8703,-54.5629,-4.57132,0
84.8399,-54.4413,-4.58563,0
84.8073,-54.3205,-4.59944,0
84.7726,-54.2006,-4.61275,0
84.7358,-54.0814,-4.62556,0
84.6969,-53.9631,-4.63786,0
84.6559,-53.8457,-4.64967,0
84.6127,-53.7292,-4.66097,0
84.5676,-53.6136,-4.67176,0
84.5185,-53.4996,-4.68213,0
84.4617,-53.389,-4.69219,0
84.4093,-53.2771,-4.70152,0
84.3577,-53.165,-4.71021,0
84.304,-53.0539,-4.71842,0
84.2481,-52.9438,-4.72613,0
84.1902,-52.8348,-4.73334,0
80.1513,-61.4412,-2.84976,174
80.2902,-61.4098,-2.87564,174
80.4339,-61.4089,-2.89056,174
80.5787,-61.4087,-2.90459,174
80.7181,-61.3798,-2.92745,174
80.8436,-61.2962,-2.96749,174
81.0079,-61.362,-2.95802,174
81.1783,-61.4315,-2.94702,174
81.325,-61.4121,-2.96424,0
81.4609,-61.3588,-2.99163,0
81.5952,-61.3031,-3.01902,0
81.7283,-61.245,-3.0464,0
81.8606,-61.1865,-3.07313,0
81.9922,-61.1267,-3.09954,0
82.1223,-61.0644,-3.12599,0
82.2515,-61.0004,-3.1522,0
82.3827,-60.9402,-3.17651,0
82.5125,-60.8773,-3.20093,0
82.6412,-60.8117,-3.22548,0
82.765,-60.7382,-3.25173,0
82.8792,-60.6502,-3.28174,0
82.9908,-60.5594,-3.31182,0
83.0995,-60.4661,-3.34197,0
83.2057,-60.3702,-3.37216,0
83.3091,-60.272,-3.40236,0
83.4096,-60.1714,-3.43257,0
83.5073,-60.0686,-3.46276,0
83.602,-59.9637,-3.49289,0
83.6937,-59.8567,-3.52296,0
83.7825,-59.7478,-3.55295,0
83.8683,-59.637,-3.58283,0
83.9511,-59.5244,-3.61259,0
84.0307,-59.4102,-3.64221,0
84.1073,-59.2943,-3.67168,0
84.1809,-59.177,-3.70096,0
84.2512,-59.0582,-3.73006,0
84.3184,-58.9381,-3.75895,0
84.3824,-58.8168,-3.7876,0
84.4434,-58.6943,-3.81602,0
84.5011,-58.5708,-3.84419,0
84.5557,-58.4463,-3.87208,0
84.6123,-58.3238,-3.89872,0
84.6567,-58.1955,-3.92676,0
84.695,-58.0652,-3.95494,0
84.731,-57.935,-3.98258,0
84.7642,-57.8048,-4.00976,0
84.7944,-57.6744,-4.03651,0
84.8216,-57.544,-4.06282,0
84.8459,-57.4135,-4.0887,0
84.867,-57.2831,-4.11412,0
84.8854,-57.1528,-4.13909,0
84.9008,-57.0227,-4.16361,0
84.9134,-56.8929,-4.18765,0
84.9231,-56.7633,-4.21122,0
84.9301,-56.6341,-4.23432,0
84.9342,-56.5052,-4.25694,0
84.9356,-56.3769,-4.27907,0
84.9344,-56.249,-4.30072,0
84.9304,-56.1217,-4.32187,0
84.9238,-55.995,-4.34253,0
84.9148,-55.8689,-4.36269,0
84.8975,-55.7433,-4.38285,0
84.8782,-55.6186,-4.40243,0
84.8677,-55.4951,-4.42051,0
84.8549,-55.3721,-4.43813,0
84.8398,-55.2496,-4.45527,0
84.8226,-55.1278,-4.47191,0
84.8031,-55.0066,-4.48808,0
84.7814,-54.886,-4.50375,0
84.7576,-54.7661,-4.51894,0
84.7316,-54.6468,-4.53364,0
84.7034,-54.5283,-4.54786,0
84.6732,-54.4106,-4.56159,0
84.6408,-54.2936,-4.57483,0
84.6063,-54.1774,-4.58758,0
84.5698,-54.062,-4.59984,0
84.5312,-53.9474,-4.61161,0
84.4907,-53.8337,-4.62289,0
84.4481,-53.7208,-4.63368,0
84.4012,-53.6097,-4.64407,0
84.3475,-53.5015,-4.65421,0
84.2918,-53.3947,-4.66382,0
84.2395,-53.2868,-4.67269,0
84.1887,-53.1784,-4.68092,0
84.1356,-53.0711,-4.68866,0
84.0806,-52.9648,-4.69593,0
79.5604,-61.8284,-2.64169,0
79.7115,-61.8276,-2.66136,0
79.8462,-61.6135,-2.75379,174
79.9853,-61.5402,-2.79615,174
80.12,-61.4554,-2.84131,174
80.2573,-61.4107,-2.87189,174
80.4006,-61.4088,-2.88725,174
80.5452,-61.4088,-2.9014,174
80.6911,-61.4095,-2.91465,174
80.8078,-61.2866,-2.96781,174
80.9694,-61.3462,-2.96042,174
81.1385,-61.4153,-2.94965,174
81.2934,-61.4241,-2.95793,0
81.4296,-61.3714,-2.98531,0
81.5644,-61.3162,-3.0127,0
81.6977,-61.2586,-3.04008,0
81.8302,-61.2,-3.06705,0
81.962,-61.1408,-3.09343,0
82.0924,-61.079,-3.11987,0
82.2214,-61.0147,-3.14637,0
82.3525,-60.9543,-3.17089,0
82.4827,-60.8921,-3.19529,0
82.6116,-60.8271,-3.2198,0
82.7384,-60.7582,-3.24482,0
82.8531,-60.6707,-3.2748,0
82.9652,-60.5806,-3.30488,0
83.0747,-60.4878,-3.33502,0
83.1815,-60.3926,-3.36519,0
83.2855,-60.2949,-3.3954,0
83.3866,-60.1948,-3.42561,0
83.4849,-60.0926,-3.45579,0
83.5804,-59.9881,-3.48594,0
83.6728,-59.8816,-3.51603,0
83.7623,-59.7731,-3.54603,0
83.8487,-59.6627,-3.57595,0
83.9323,-59.5506,-3.60573,0
84.0126,-59.4367,-3.63539,0
84.0899,-59.3212,-3.66489,0
84.1641,-59.2042,-3.69422,0
84.2352,-59.0857,-3.72336,0
84.3031,-58.9659,-3.75229,0
84.368,-58.8449,-3.78101,0
84.4295,-58.7227,-3.80949,0
84.488,-58.5994,-3.83772,0
84.5434,-58.4751,-3.86567,0
84.5994,-58.3521,-3.8926,0
84.6473,-58.2255,-3.92019,0
84.6864,-58.0953,-3.94848,0
84.7229,-57.9651,-3.97626,0
84.7569,-57.8349,-4.00353,0
84.7877,-57.7045,-4.03037,0
84.8156,-57.5741,-4.05679,0
84.8405,-57.4436,-4.08277,0
84.8624,-57.3132,-4.10829,0
84.8814,-57.1829,-4.13338,0
84.8975,-57.0527,-4.15799,0
84.9107,-56.9228,-4.18214,0
84.9212,-56.7932,-4.20582,0
84.9287,-56.6638,-4.22903,0
84.9335,-56.5349,-4.25175,0
84.9355,-56.4064,-4.27401,0
84.9349,-56.2785,-4.29577,0
84.9316,-56.151,-4.31703,0
84.9256,-56.0242,-4.33781,0
84.9171,-55.898,-4.35808,0
84.9023,-55.7722,-4.37818,0
84.8803,-55.6472,-4.39818,0
84.8703,-55.5235,-4.41639,0
84.858,-55.4004,-4.43412,0
84.8436,-55.2778,-4.45135,0
84.8267,-55.1559,-4.46811,0
84.8078,-55.0345,-4.48439,0
84.7866,-54.9138,-4.50017,0
84.7633,-54.7937,-4.51547,0
84.7378,-54.6743,-4.53029,0
84.7101,-54.5556,-4.54462,0
84.6803,-54.4377,-4.55846,0
84.6484,-54.3205,-4.57181,0
84.6145,-54.2041,-4.58467,0
84.5784,-54.0885,-4.59705,0
84.5404,-53.9738,-4.60894,0
84.5002,-53.8598,-4.62033,0
84.458,-53.7468,-4.63123,0
84.4135,-53.6348,-4.64167,0
84.3602,-53.5264,-4.65192,0
84.3048,-53.4192,-4.66165,0
84.251,-53.3119,-4.67071,0
84.2005,-53.2033,-4.67906,0
84.148,-53.0958,-4.68692,0
84.0935,-52.9892,-4.69429,0
84.0369,-52.8837,-4.70117,0
79.5255,-61.8282,-2.63719,0
79.6766,-61.828,-2.6568,0
79.8143,-61.6399,-2.74059,174
79.9535,-61.5569,-2.78654,174
80.0886,-61.4697,-2.83279,174
80.2244,-61.4115,-2.86811,174
80.3674,-61.4088,-2.88392,174
80.5118,-61.4088,-2.89818,174
80.6627,-61.4344,-2.90336,174
80.7804,-61.3114,-2.9568,174
80.9312,-61.3306,-2.96277,174
81.099,-61.3992,-2.95222,174
81.2619,-61.4359,-2.95161,0
81.3984,-61.3838,-2.97899,0
81.5334,-61.3291,-3.00638,0
81.667,-61.2721,-3.03377,0
81.7995,-61.2132,-3.06097,0
81.9316,-61.1546,-3.08734,0
82.0625,-61.0935,-3.11377,0
82.1918,-61.0297,-3.14026,0
82.3223,-60.9683,-3.16528,0
82.4527,-60.9067,-3.18965,0
82.582,-60.8423,-3.21414,0
82.7098,-60.7753,-3.23873,0
82.8269,-60.6911,-3.26788,0
82.9396,-60.6016,-3.29793,0
83.0497,-60.5095,-3.32805,0
83.1571,-60.4148,-3.35823,0
83.2617,-60.3176,-3.38843,0
83.3635,-60.2181,-3.41864,0
83.4625,-60.1164,-3.44883,0
83.5586,-60.0124,-3.47899,0
83.6518,-59.9064,-3.50909,0
83.742,-59.7983,-3.53912,0
83.8291,-59.6884,-3.56904,0
83.9133,-59.5766,-3.59887,0
83.9944,-59.4631,-3.62857,0
84.0723,-59.348,-3.6581,0
84.1473,-59.2313,-3.68747,0
84.2191,-59.1132,-3.71665,0
84.2877,-58.9937,-3.74564,0
84.3533,-58.8729,-3.77441,0
84.4156,-58.751,-3.80294,0
84.4748,-58.6279,-3.83123,0
84.5309,-58.5039,-3.85924,0
84.5865,-58.3804,-3.88648,0
84.638,-58.2555,-3.91361,0
84.6777,-58.1253,-3.94199,0
84.7146,-57.9951,-3.9699,0
84.7493,-57.8649,-3.99727,0
84.7809,-57.7346,-4.02421,0
84.8094,-57.6042,-4.05073,0
84.835,-57.4737,-4.07681,0
84.8576,-57.3433,-4.10244,0
84.8773,-57.213,-4.12762,0
84.8941,-57.0828,-4.15235,0
84.908,-56.9528,-4.1766,0
84.919,-56.823,-4.2004,0
84.9272,-56.6936,-4.22372,0
84.9326,-56.5646,-4.24656,0
84.9353,-56.436,-4.26892,0
84.9353,-56.3079,-4.29079,0
84.9326,-56.1804,-4.31216,0
84.9273,-56.0534,-4.33305,0
84.9193,-55.927,-4.35345,0
84.9072,-55.8012,-4.37348,0
84.8855,-55.6759,-4.39362,0
84.8728,-55.552,-4.41223,0
84.8611,-55.4288,-4.43007,0
84.8471,-55.3061,-4.44742,0
84.8308,-55.1839,-4.46429,0
84.8123,-55.0624,-4.48067,0
84.7917,-54.9416,-4.49657,0
84.7688,-54.8213,-4.51198,0
84.7438,-54.7018,-4.52692,0
84.7166,-54.583,-4.54136,0
84.6874,-54.4648,-4.55531,0
84.6559,-54.3475,-4.56878,0
84.6225,-54.2309,-4.58175,0
84.5869,-54.1151,-4.59424,0
84.5493,-54.0002,-4.60624,0
84.5097,-53.8861,-4.61774,0
84.468,-53.7728,-4.62876,0
84.4243,-53.6605,-4.63928,0
84.3726,-53.5513,-4.6496,0
84.3177,-53.4438,-4.65944,0
84.2623,-53.3371,-4.66873,0
84.2124,-53.2283,-4.67717,0
84.1603,-53.1205,-4.68515,0
84.1062,-53.0137,-4.69263,0
84.0501,-52.908,-4.69963,0
80.1524,-61.3992,-2.81628,174
80.2933,-61.3857,-2.83604,174
80.4367,-61.3858,-2.85043,174
80.5819,-61.3895,-2.86296,174
80.7201,-61.3566,-2.88719,174
80.852,-61.3003,-2.9185,174
81.0073,-61.3322,-2.91957,0
81.1419,-61.2857,-2.94613,0
81.2753,-61.2367,-2.97271,0
81.4073,-61.1852,-2.99931,0
81.538,-61.1314,-3.02591,0
81.6674,-61.0753,-3.05251,0
81.7954,-61.0168,-3.0791,0
81.922,-60.956,-3.10568,0
82.047,-60.8929,-3.13223,0
82.1707,-60.8276,-3.15876,0
82.2959,-60.7655,-3.1835,0
82.4132,-60.6898,-3.21186,0
82.5281,-60.611,-3.24044,0
82.6407,-60.5295,-3.26914,0
82.7509,-60.4454,-3.29796,0
82.8584,-60.3586,-3.32686,0
82.9635,-60.2694,-3.35582,0
83.066,-60.1777,-3.38483,0
83.1659,-60.0838,-3.41386,0
83.263,-59.9875,-3.44289,0
83.3575,-59.8891,-3.47191,0
83.4491,-59.7887,-3.50088,0
83.5379,-59.6862,-3.52981,0
83.6239,-59.5818,-3.55867,0
83.707,-59.4756,-3.58742,0
83.7872,-59.3677,-3.61608,0
83.8644,-59.2582,-3.64459,0
83.9388,-59.1471,-3.67297,0
84.0101,-59.0345,-3.70118,0
84.0785,-58.9206,-3.7292,0
84.1471,-58.8076,-3.75626,0
84.2131,-58.6935,-3.78309,0
84.2764,-58.5782,-3.80966,0
84.3371,-58.4619,-3.83599,0
84.3951,-58.3445,-3.86204,0
84.4437,-58.2226,-3.88913,0
84.4845,-58.0974,-3.91682,0
84.5223,-57.972,-3.94411,0
84.5573,-57.8463,-3.971,0
84.5894,-57.7204,-3.99745,0
84.6186,-57.5944,-4.02349,0
84.645,-57.4684,-4.04909,0
84.6685,-57.3423,-4.07426,0
84.6892,-57.2164,-4.09898,0
84.7073,-57.0906,-4.12326,0
84.7229,-56.965,-4.14703,0
84.7358,-56.8397,-4.17034,0
84.746,-56.7145,-4.19322,0
84.7534,-56.5897,-4.21564,0
84.7582,-56.4653,-4.23759,0
84.7602,-56.3412,-4.25909,0
84.7597,-56.2176,-4.28011,0
84.7566,-56.0945,-4.30067,0
84.7509,-55.972,-4.32075,0
84.7427,-55.8501,-4.34035,0
84.7329,-55.7288,-4.35939,0
84.7253,-55.6083,-4.37749,0
84.7155,-55.4884,-4.39513,0
84.7034,-55.3689,-4.41231,0
84.6892,-55.2499,-4.42902,0
84.6728,-55.1315,-4.44525,0
84.6541,-55.0137,-4.46101,0
84.6334,-54.8965,-4.47631,0
84.6105,-54.78,-4.49112,0
84.5855,-54.6641,-4.50547,0
84.5584,-54.5489,-4.51934,0
84.5292,-54.4344,-4.53273,0
84.498,-54.3206,-4.54564,0
84.4648,-54.2076,-4.55808,0
84.4295,-54.0954,-4.57004,0
84.3922,-53.9839,-4.58152,0
84.3529,-53.8733,-4.59252,0
84.3116,-53.7636,-4.60304,0
84.2623,-53.657,-4.61342,0
84.2103,-53.5518,-4.62333,0
84.1565,-53.4478,-4.63274,0
84.1015,-53.3448,-4.64161,0
84.0521,-53.2397,-4.64961,0
84.0008,-53.1354,-4.65714,0
83.9473,-53.0322,-4.6642,0
79.5607,-61.6349,-2.66009,0
79.7074,-61.634,-2.67919,0
79.8496,-61.5738,-2.71847,174
79.9879,-61.5012,-2.76104,174
80.1213,-61.4132,-2.80781,174
80.2603,-61.3856,-2.83265,174
80.4035,-61.3858,-2.84716,174
80.5482,-61.388,-2.86035,174
80.6931,-61.3861,-2.87426,174
80.8164,-61.2921,-2.91847,174
80.9752,-61.3397,-2.91441,174
81.1109,-61.2966,-2.94,0
81.2446,-61.2482,-2.96658,0
81.377,-61.1973,-2.99317,0
81.508,-61.1441,-3.01977,0
81.6377,-61.0884,-3.04637,0
81.766,-61.0305,-3.07296,0
81.8928,-60.9702,-3.09955,0
82.0183,-60.9076,-3.12611,0
82.1423,-60.8428,-3.15264,0
82.2666,-60.7792,-3.17805,0
82.3864,-60.7075,-3.20529,0
82.5018,-60.6294,-3.23382,0
82.6149,-60.5486,-3.26251,0
82.7257,-60.465,-3.29131,0
82.8339,-60.3789,-3.32018,0
82.9396,-60.2902,-3.34913,0
83.0427,-60.1991,-3.37813,0
83.143,-60.1056,-3.40716,0
83.2409,-60.0099,-3.43619,0
83.3359,-59.912,-3.46521,0
83.4282,-59.812,-3.49421,0
83.5177,-59.71,-3.52315,0
83.6044,-59.6061,-3.55202,0
83.6881,-59.5003,-3.5808,0
83.7689,-59.3928,-3.60947,0
83.8469,-59.2836,-3.63803,0
83.9219,-59.1728,-3.66644,0
83.9938,-59.0606,-3.69468,0
84.0629,-58.9469,-3.72277,0
84.1315,-58.8338,-3.75004,0
84.1981,-58.7199,-3.77692,0
84.262,-58.6049,-3.80355,0
84.3234,-58.4888,-3.82994,0
84.382,-58.3717,-3.85606,0
84.4339,-58.2514,-3.88269,0
84.4754,-58.1263,-3.91047,0
84.5139,-58.0009,-3.93785,0
84.5495,-57.8753,-3.96483,0
84.5823,-57.7494,-3.99139,0
84.6121,-57.6235,-4.01753,0
84.6391,-57.4975,-4.04322,0
84.6633,-57.3714,-4.06849,0
84.6847,-57.2454,-4.09332,0
84.7034,-57.1196,-4.1177,0
84.7196,-56.994,-4.14158,0
84.7331,-56.8686,-4.16501,0
84.7439,-56.7434,-4.18798,0
84.752,-56.6185,-4.2105,0
84.7573,-56.494,-4.23257,0
84.76,-56.3698,-4.25417,0
84.7601,-56.2461,-4.27531,0
84.7575,-56.1229,-4.29597,0
84.7525,-56.0002,-4.31616,0
84.7448,-55.8781,-4.33588,0
84.7343,-55.7567,-4.35514,0
84.7273,-55.6361,-4.37336,0
84.718,-55.516,-4.39111,0
84.7064,-55.3964,-4.4084,0
84.6927,-55.2773,-4.4252,0
84.6768,-55.1588,-4.44155,0
84.6586,-55.0408,-4.45742,0
84.6384,-54.9235,-4.47281,0
84.616,-54.8068,-4.48775,0
84.5915,-54.6908,-4.50219,0
84.5649,-54.5754,-4.51617,0
84.5362,-54.4607,-4.52968,0
84.5054,-54.3468,-4.5427,0
84.4726,-54.2336,-4.55525,0
84.4378,-54.1212,-4.56732,0
84.401,-54.0096,-4.57891,0
84.3621,-53.8988,-4.59003,0
84.3213,-53.7888,-4.60066,0
84.2739,-53.6814,-4.61107,0
84.2224,-53.5759,-4.6211,0
84.1691,-53.4717,-4.63062,0
84.1139,-53.3687,-4.63964,0
84.0638,-53.2638,-4.64781,0
84.0127,-53.1594,-4.65545,0
83.9598,-53.056,-4.66261,0
83.9049,-52.9536,-4.66929,0
79.5268,-61.6347,-2.65572,0
79.6736,-61.6345,-2.67477,0
79.8176,-61.5964,-2.70641,174
79.9563,-61.5178,-2.75135,174
80.0901,-61.4273,-2.79927,174
80.2273,-61.3855,-2.82922,174
80.3704,-61.3858,-2.84385,174
80.5145,-61.3864,-2.85772,174
80.6653,-61.4129,-2.8622,174
80.7851,-61.3009,-2.91269,174
80.938,-61.3278,-2.91569,174
81.0799,-61.3075,-2.93387,0
81.2139,-61.2596,-2.96045,0
81.3466,-61.2093,-2.98703,0
81.478,-61.1566,-3.01363,0
81.6079,-61.1015,-3.04024,0
81.7365,-61.0441,-3.06683,0
81.8637,-60.9843,-3.09341,0
81.9895,-60.9223,-3.11998,0
82.1138,-60.858,-3.14653,0
82.2373,-60.7928,-3.17261,0
82.3594,-60.7252,-3.19872,0
82.4755,-60.6477,-3.22724,0
82.5891,-60.5675,-3.25588,0
82.7003,-60.4845,-3.28465,0
82.8091,-60.399,-3.31351,0
82.9154,-60.3109,-3.34244,0
83.0191,-60.2203,-3.37144,0
83.1202,-60.1274,-3.40046,0
83.2185,-60.0322,-3.42949,0
83.3142,-59.9348,-3.45852,0
83.4072,-59.8353,-3.48753,0
83.4973,-59.7337,-3.51648,0
83.5846,-59.6302,-3.54537,0
83.6691,-59.5249,-3.57417,0
83.7505,-59.4177,-3.60287,0
83.8291,-59.3089,-3.63145,0
83.9048,-59.1985,-3.65989,0
83.9776,-59.0866,-3.68818,0
84.0472,-58.9733,-3.7163,0
84.1158,-58.8599,-3.7438,0
84.183,-58.7463,-3.77073,0
84.2476,-58.6315,-3.79743,0
84.3094,-58.5157,-3.82388,0
84.3687,-58.3988,-3.85006,0
84.4239,-58.2802,-3.87622,0
84.466,-58.1552,-3.90409,0
84.5052,-58.0299,-3.93157,0
84.5416,-57.9043,-3.95864,0
84.575,-57.7785,-3.98529,0
84.6055,-57.6526,-4.01153,0
84.6331,-57.5265,-4.03733,0
84.658,-57.4005,-4.0627,0
84.68,-57.2745,-4.08763,0
84.6992,-57.1486,-4.11211,0
84.7161,-57.0229,-4.13612,0
84.7302,-56.8975,-4.15965,0
84.7416,-56.7722,-4.18273,0
84.7504,-56.6473,-4.20535,0
84.7563,-56.5227,-4.22752,0
84.7596,-56.3984,-4.24924,0
84.7603,-56.2746,-4.27047,0
84.7584,-56.1513,-4.29124,0
84.7538,-56.0285,-4.31153,0
84.7468,-55.9063,-4.33136,0
84.7356,-55.7845,-4.35087,0
84.7291,-55.6639,-4.36919,0
84.7203,-55.5437,-4.38706,0
84.7093,-55.424,-4.40444,0
84.6961,-55.3047,-4.42137,0
84.6806,-55.1861,-4.43782,0
84.663,-55.068,-4.4538,0
84.6432,-54.9505,-4.46931,0
84.6214,-54.8337,-4.48434,0
84.5973,-54.7175,-4.4989,0
84.5713,-54.602,-4.51299,0
84.543,-54.4871,-4.52661,0
84.5127,-54.373,-4.53974,0
84.4804,-54.2597,-4.55239,0
84.446,-54.1471,-4.56458,0
84.4097,-54.0353,-4.57629,0
84.3712,-53.9243,-4.5875,0
84.3309,-53.8141,-4.59825,0
84.2856,-53.7059,-4.60868,0
84.2345,-53.6002,-4.61882,0
84.1815,-53.4956,-4.62846,0
84.1268,-53.3924,-4.6376,0
84.0752,-53.2881,-4.64598,0
84.0248,-53.1834,-4.65373,0
83.9722,-53.0797,-4.661,0
83.9177,-52.9771,-4.66779,0
80.1557,-61.3738,-2.77734,174
80.2944,-61.3501,-2.80067,0
80.4313,-61.3176,-2.82625,0
80.567,-61.2826,-2.85189,0
80.7016,-61.245,-2.87759,0
80.835,-61.205,-2.90333,0
80.9673,-61.1626,-2.9291,0
81.0984,-61.1177,-2.95491,0
81.2281,-61.0704,-2.98074,0
81.3567,-61.0207,-3.00659,0
81.4839,-60.9687,-3.03244,0
81.6098,-60.9144,-3.05829,0
81.7344,-60.8578,-3.08414,0
81.8576,-60.7989,-3.10998,0
81.9768,-60.7327,-3.1375,0
82.0909,-60.6575,-3.16718,0
82.2027,-60.5801,-3.19683,0
82.3139,-60.5033,-3.22556,0
82.4237,-60.4253,-3.25391,0
82.5312,-60.345,-3.28225,0
82.6366,-60.2626,-3.31057,0
82.7398,-60.178,-3.33885,0
82.8407,-60.0914,-3.36709,0
82.9394,-60.0028,-3.39527,0
83.0357,-59.9123,-3.42337,0
83.1297,-59.8199,-3.45137,0
83.2212,-59.7256,-3.47927,0
83.3105,-59.6296,-3.50706,0
83.3973,-59.5319,-3.53471,0
83.4816,-59.4326,-3.56224,0
83.5636,-59.3317,-3.5896,0
83.643,-59.2293,-3.61681,0
83.7199,-59.1254,-3.64384,0
83.7944,-59.0201,-3.67069,0
83.8662,-58.9135,-3.69734,0
83.9356,-58.8056,-3.72379,0
84.0024,-58.6965,-3.75002,0
84.0667,-58.5862,-3.77602,0
84.1284,-58.4748,-3.80178,0
84.1876,-58.3623,-3.82731,0
84.2398,-58.2464,-3.85348,0
84.2829,-58.1261,-3.88068,0
84.3231,-58.0055,-3.90751,0
84.3604,-57.8845,-3.93395,0
84.3949,-57.7632,-3.96002,0
84.4267,-57.6418,-3.98567,0
84.4556,-57.5201,-4.01093,0
84.4819,-57.3984,-4.03577,0
84.5054,-57.2767,-4.0602,0
84.5262,-57.155,-4.0842,0
84.5443,-57.0334,-4.10778,0
84.5598,-56.9119,-4.13091,0
84.5726,-56.7906,-4.15362,0
84.5828,-56.6695,-4.17588,0
84.5905,-56.5487,-4.19769,0
84.5955,-56.4283,-4.21905,0
84.5982,-56.3082,-4.23996,0
84.5983,-56.1885,-4.26041,0
84.5959,-56.0693,-4.28041,0
84.5912,-55.9507,-4.29992,0
84.5919,-55.8331,-4.31813,0
84.5875,-55.7157,-4.33621,0
84.5805,-55.5986,-4.35388,0
84.5713,-55.482,-4.37109,0
84.56,-55.3658,-4.38784,0
84.5464,-55.2502,-4.40415,0
84.5307,-55.1351,-4.41999,0
84.513,-55.0205,-4.43537,0
84.4931,-54.9065,-4.45029,0
84.4711,-54.7931,-4.46475,0
84.447,-54.6804,-4.47874,0
84.4209,-54.5683,-4.49228,0
84.3927,-54.4569,-4.50535,0
84.3626,-54.3462,-4.51796,0
84.3305,-54.2363,-4.5301,0
84.2963,-54.127,-4.54177,0
84.2602,-54.0186,-4.55298,0
84.2221,-53.911,-4.56372,0
84.1788,-53.8053,-4.57419,0
84.1305,-53.7017,-4.58439,0
84.0802,-53.5994,-4.59409,0
84.0282,-53.4982,-4.6033,0
83.9744,-53.3982,-4.61201,0
83.923,-53.2976,-4.62,0
83.8731,-53.1963,-4.62732,0
83.8213,-53.0961,-4.63418,0
79.5609,-61.4518,-2.6775,0
79.7035,-61.451,-2.69605,0
79.8451,-61.4373,-2.71851,0
79.9853,-61.4132,-2.74385,0
80.1236,-61.3794,-2.77179,174
80.2627,-61.3572,-2.79477,0
80.3998,-61.3253,-2.82034,0
80.5358,-61.2909,-2.84597,0
80.6707,-61.2539,-2.87166,0
80.8044,-61.2145,-2.89739,0
80.9369,-61.1726,-2.92316,0
81.0682,-61.1282,-2.94895,0
81.1983,-61.0815,-2.97478,0
81.3272,-61.0324,-3.00062,0
81.4546,-60.9809,-3.02648,0
81.5809,-60.9271,-3.05233,0
81.7057,-60.871,-3.07818,0
81.8292,-60.8127,-3.10402,0
81.9502,-60.7497,-3.13065,0
82.0647,-60.6751,-3.16034,0
82.1771,-60.5982,-3.19,0
82.2883,-60.521,-3.21901,0
82.3985,-60.4435,-3.24736,0
82.5066,-60.3637,-3.2757,0
82.6125,-60.2818,-3.30404,0
82.7162,-60.1977,-3.33233,0
82.8177,-60.1116,-3.36059,0
82.9168,-60.0234,-3.38877,0
83.0137,-59.9333,-3.41689,0
83.1082,-59.8413,-3.44492,0
83.2004,-59.7475,-3.47284,0
83.2901,-59.6519,-3.50066,0
83.3775,-59.5546,-3.52835,0
83.4623,-59.4557,-3.5559,0
83.5448,-59.3551,-3.58331,0
83.6248,-59.253,-3.61055,0
83.7023,-59.1495,-3.63762,0
83.7773,-59.0445,-3.66452,0
83.8499,-58.9382,-3.69121,0
83.9198,-58.8306,-3.7177,0
83.9873,-58.7218,-3.74398,0
84.0521,-58.6117,-3.77003,0
84.1144,-58.5006,-3.79586,0
84.1742,-58.3883,-3.82144,0
84.2295,-58.2741,-3.84715,0
84.2732,-58.1539,-3.87444,0
84.3141,-58.0333,-3.90136,0
84.352,-57.9124,-3.92789,0
84.3873,-57.7912,-3.95403,0
84.4196,-57.6698,-3.97978,0
84.4492,-57.5482,-4.00514,0
84.4761,-57.4265,-4.03008,0
84.5002,-57.3048,-4.0546,0
84.5216,-57.1831,-4.07869,0
84.5403,-57.0615,-4.10237,0
84.5564,-56.9399,-4.12561,0
84.5698,-56.8186,-4.14842,0
84.5806,-56.6974,-4.17078,0
84.589,-56.5766,-4.1927,0
84.5946,-56.456,-4.21417,0
84.5978,-56.3359,-4.23518,0
84.5985,-56.2161,-4.25573,0
84.5967,-56.0968,-4.27583,0
84.5925,-55.978,-4.29546,0
84.5917,-55.8602,-4.31399,0
84.5888,-55.7427,-4.33208,0
84.5823,-55.6256,-4.34985,0
84.5737,-55.5088,-4.36716,0
84.5628,-55.3926,-4.38402,0
84.5498,-55.2768,-4.40042,0
84.5346,-55.1616,-4.41637,0
84.5173,-55.0469,-4.43185,0
84.4979,-54.9328,-4.44688,0
84.4764,-54.8192,-4.46146,0
84.4528,-54.7064,-4.47555,0
84.4271,-54.5941,-4.4892,0
84.3995,-54.4826,-4.50237,0
84.3698,-54.3717,-4.51509,0
84.338,-54.2616,-4.52734,0
84.3044,-54.1522,-4.53912,0
84.2687,-54.0436,-4.55044,0
84.231,-53.9357,-4.56128,0
84.1898,-53.8293,-4.57177,0
84.1418,-53.7255,-4.58207,0
84.092,-53.6229,-4.5919,0
84.0405,-53.5215,-4.60122,0
83.987,-53.4212,-4.61004,0
83.9343,-53.3211,-4.61824,0
83.8848,-53.2196,-4.62567,0
83.8334,-53.1191,-4.63263,0
83.7801,-53.0196,-4.63913,0
79.528,-61.4515,-2.67325,0
79.6706,-61.4514,-2.69175,0
79.8126,-61.4424,-2.71267,0
79.953,-61.419,-2.738,0
80.0916,-61.3854,-2.76606,174
80.2307,-61.3627,-2.78941,174
80.3683,-61.3329,-2.81443,0
80.5045,-61.2991,-2.84005,0
80.6396,-61.2627,-2.86572,0
80.7736,-61.2238,-2.89144,0
80.9064,-61.1825,-2.9172,0
81.038,-61.1387,-2.943,0
81.1684,-61.0925,-2.96882,0
81.2975,-61.0439,-2.99466,0
81.4253,-60.993,-3.02051,0
81.5518,-60.9397,-3.04636,0
81.677,-60.8842,-3.07221,0
81.8009,-60.8263,-3.09806,0
81.9233,-60.7663,-3.12389,0
82.0384,-60.6925,-3.15349,0
82.1513,-60.6161,-3.18315,0
82.2625,-60.5385,-3.21247,0
82.3733,-60.4616,-3.24082,0
82.4819,-60.3823,-3.26917,0
82.5883,-60.3009,-3.29751,0
82.6925,-60.2173,-3.32581,0
82.7944,-60.1317,-3.35407,0
82.8942,-60.044,-3.38228,0
82.9916,-59.9543,-3.41041,0
83.0866,-59.8627,-3.43846,0
83.1794,-59.7693,-3.46641,0
83.2697,-59.6741,-3.49425,0
83.3576,-59.5772,-3.52197,0
83.443,-59.4786,-3.54956,0
83.5261,-59.3785,-3.57699,0
83.6066,-59.2767,-3.60428,0
83.6847,-59.1735,-3.63139,0
83.7603,-59.0689,-3.65832,0
83.8334,-58.9629,-3.68507,0
83.9039,-58.8555,-3.71161,0
83.972,-58.747,-3.73794,0
84.0374,-58.6372,-3.76404,0
84.1003,-58.5263,-3.78992,0
84.1606,-58.4143,-3.81556,0
84.2184,-58.3013,-3.84094,0
84.2634,-58.1817,-3.86817,0
84.3048,-58.0612,-3.89518,0
84.3435,-57.9403,-3.9218,0
84.3794,-57.8192,-3.94803,0
84.4123,-57.6978,-3.97388,0
84.4426,-57.5763,-3.99932,0
84.4702,-57.4546,-4.02435,0
84.4948,-57.3329,-4.04897,0
84.5169,-57.2112,-4.07317,0
84.5362,-57.0895,-4.09695,0
84.5529,-56.9679,-4.12029,0
84.567,-56.8465,-4.14319,0
84.5784,-56.7253,-4.16567,0
84.5873,-56.6044,-4.18769,0
84.5935,-56.4838,-4.20925,0
84.5973,-56.3636,-4.23037,0
84.5985,-56.2437,-4.25104,0
84.5973,-56.1243,-4.27123,0
84.5937,-56.0054,-4.29097,0
84.5914,-55.8873,-4.30983,0
84.5899,-55.7698,-4.32791,0
84.584,-55.6526,-4.34578,0
84.5759,-55.5357,-4.3632,0
84.5655,-55.4194,-4.38017,0
84.5529,-55.3035,-4.39668,0
84.5383,-55.1881,-4.41273,0
84.5215,-55.0733,-4.42832,0
84.5026,-54.959,-4.44346,0
84.4815,-54.8454,-4.45814,0
84.4584,-54.7324,-4.47234,0
84.4333,-54.62,-4.48609,0
84.406,-54.5082,-4.49938,0
84.3768,-54.3972,-4.5122,0
84.3455,-54.2869,-4.52456,0
84.3123,-54.1774,-4.53644,0
84.2771,-54.0686,-4.54786,0
84.2399,-53.9605,-4.55882,0
84.2005,-53.8534,-4.56931,0
84.153,-53.7494,-4.57974,0
84.1036,-53.6465,-4.58967,0
84.0525,-53.5447,-4.59911,0
83.9995,-53.4442,-4.60805,0
83.9455,-53.3446,-4.61647,0
83.8964,-53.2429,-4.624,0
83.8455,-53.1422,-4.63107,0
83.7925,-53.0425,-4.63768,0
80.1403,-61.2106,-2.78857,0
80.2745,-61.1819,-2.81335,0
80.4077,-61.1508,-2.8382,0
80.5398,-61.1171,-2.86311,0
80.6709,-61.081,-2.88808,0
80.8007,-61.0425,-2.91311,0
80.9295,-61.0015,-2.93816,0
81.057,-60.9582,-2.96324,0
81.1834,-60.9125,-2.98836,0
81.3085,-60.8645,-3.01349,0
81.4325,-60.8142,-3.03864,0
81.5548,-60.761,-3.06399,0
81.6716,-60.6958,-3.09267,0
81.7863,-60.6283,-3.12137,0
81.8991,-60.5584,-3.15007,0
82.0098,-60.4863,-3.17878,0
82.1184,-60.4119,-3.20744,0
82.2249,-60.3355,-3.23607,0
82.3312,-60.2601,-3.26361,0
82.4356,-60.1829,-3.29102,0
82.538,-60.1035,-3.31841,0
82.6381,-60.0221,-3.34578,0
82.7362,-59.9387,-3.3731,0
82.832,-59.8533,-3.40037,0
82.9255,-59.766,-3.42757,0
83.0169,-59.6769,-3.45468,0
83.1059,-59.586,-3.4817,0
83.1927,-59.4934,-3.50862,0
83.277,-59.3991,-3.53541,0
83.3591,-59.3032,-3.56207,0
83.4388,-59.2057,-3.5886,0
83.5161,-59.1068,-3.61497,0
83.591,-59.0064,-3.64117,0
83.6634,-58.9047,-3.6672,0
83.7335,-58.8016,-3.69304,0
83.8011,-58.6973,-3.71868,0
83.8662,-58.5917,-3.74414,0
83.9288,-58.4851,-3.76936,0
83.989,-58.3773,-3.79435,0
84.0444,-58.267,-3.81965,0
84.0895,-58.1515,-3.84637,0
84.1317,-58.0355,-3.87274,0
84.1713,-57.919,-3.89875,0
84.2081,-57.8022,-3.92441,0
84.2423,-57.6851,-3.94968,0
84.2737,-57.5678,-3.97459,0
84.3023,-57.4503,-3.99911,0
84.3284,-57.3326,-4.02323,0
84.3518,-57.2149,-4.04695,0
84.3726,-57.0972,-4.07027,0
84.3908,-56.9795,-4.09319,0
84.4064,-56.862,-4.11568,0
84.4194,-56.7445,-4.13776,0
84.4299,-56.6273,-4.1594,0
84.438,-56.5103,-4.18062,0
84.4435,-56.3936,-4.20141,0
84.4466,-56.2773,-4.22176,0
84.4473,-56.1613,-4.24167,0
84.4482,-56.046,-4.26082,0
84.4523,-55.9317,-4.27888,0
84.4538,-55.8174,-4.29655,0
84.4495,-55.7032,-4.31424,0
84.4431,-55.5894,-4.33147,0
84.4345,-55.4759,-4.34827,0
84.4238,-55.3629,-4.36463,0
84.4109,-55.2504,-4.38054,0
84.396,-55.1384,-4.396,0
84.379,-55.0269,-4.41102,0
84.3599,-54.916,-4.42559,0
84.3387,-54.8057,-4.4397,0
84.3155,-54.6959,-4.45338,0
84.2904,-54.5868,-4.46659,0
84.2631,-54.4783,-4.47935,0
84.234,-54.3706,-4.49166,0
84.2029,-54.2635,-4.50352,0
84.1698,-54.1571,-4.51492,0
84.1348,-54.0515,-4.52586,0
84.0973,-53.9469,-4.53639,0
84.0523,-53.845,-4.54685,0
84.0055,-53.7442,-4.55684,0
83.9569,-53.6445,-4.56634,0
83.9066,-53.546,-4.57535,0
83.8545,-53.4487,-4.58389,0
83.8008,-53.3525,-4.59195,0
83.7523,-53.254,-4.59906,0
83.7018,-53.1565,-4.60574,0
79.5612,-61.2783,-2.69399,0
79.6998,-61.2776,-2.71203,0
79.8375,-61.2652,-2.73359,0
79.9738,-61.2423,-2.75819,0
80.1093,-61.2168,-2.78287,0
80.2437,-61.1887,-2.80763,0
80.3771,-61.1582,-2.83246,0
80.5094,-61.1251,-2.85737,0
80.6407,-61.0896,-2.88232,0
80.7709,-61.0516,-2.90733,0
80.8998,-61.0112,-2.93237,0
81.0277,-60.9684,-2.95745,0
81.1544,-60.9233,-2.98257,0
81.2798,-60.8758,-3.0077,0
81.404,-60.826,-3.03283,0
81.5269,-60.774,-3.05799,0
81.6448,-60.7111,-3.08605,0
81.76,-60.6441,-3.11474,0
81.8733,-60.5747,-3.14345,0
81.9845,-60.5031,-3.17215,0
82.0935,-60.4293,-3.20083,0
82.2005,-60.3533,-3.22947,0
82.3069,-60.2776,-3.25728,0
82.4117,-60.2009,-3.28469,0
82.5145,-60.122,-3.31209,0
82.6152,-60.0411,-3.33947,0
82.7137,-59.9581,-3.3668,0
82.8101,-59.8732,-3.39409,0
82.9041,-59.7863,-3.4213,0
82.9959,-59.6976,-3.44843,0
83.0855,-59.6071,-3.47549,0
83.1729,-59.5149,-3.50242,0
83.2578,-59.421,-3.52924,0
83.3404,-59.3254,-3.55593,0
83.4206,-59.2283,-3.5825,0
83.4985,-59.1297,-3.6089,0
83.574,-59.0297,-3.63514,0
83.6469,-58.9283,-3.66121,0
83.7175,-58.8255,-3.6871,0
83.7857,-58.7215,-3.71279,0
83.8514,-58.6162,-3.73828,0
83.9146,-58.5098,-3.76356,0
83.9754,-58.4022,-3.78861,0
84.0335,-58.2936,-3.81344,0
84.0793,-58.1782,-3.84023,0
84.1223,-58.0623,-3.86668,0
84.1624,-57.9459,-3.89278,0
84.1999,-57.8292,-3.91852,0
84.2346,-57.7122,-3.94388,0
84.2666,-57.5949,-3.96888,0
84.2959,-57.4774,-3.99348,0
84.3227,-57.3598,-4.0177,0
84.3466,-57.2421,-4.04152,0
84.368,-57.1244,-4.06492,0
84.3868,-57.0067,-4.08793,0
84.403,-56.8891,-4.11052,0
84.4166,-56.7716,-4.1327,0
84.4277,-56.6543,-4.15445,0
84.4363,-56.5373,-4.17576,0
84.4424,-56.4205,-4.19665,0
84.4462,-56.3041,-4.2171,0
84.4473,-56.188,-4.23711,0
84.4469,-56.0724,-4.25659,0
84.4515,-55.958,-4.27475,0
84.4538,-55.8438,-4.2925,0
84.4508,-55.7295,-4.31019,0
84.4448,-55.6156,-4.32754,0
84.4367,-55.5021,-4.34444,0
84.4265,-55.389,-4.3609,0
84.4141,-55.2763,-4.37691,0
84.3996,-55.1642,-4.39247,0
84.383,-55.0526,-4.40759,0
84.3644,-54.9416,-4.42226,0
84.3438,-54.8311,-4.4365,0
84.3211,-54.7212,-4.45026,0
84.2963,-54.6119,-4.46358,0
84.2696,-54.5033,-4.47645,0
84.2409,-54.3954,-4.48886,0
84.2102,-54.2881,-4.50082,0
84.1776,-54.1816,-4.51232,0
84.143,-54.0758,-4.52338,0
84.1066,-53.9708,-4.53397,0
84.0628,-53.8684,-4.54448,0
84.0164,-53.7674,-4.55458,0
83.9683,-53.6674,-4.56418,0
83.9183,-53.5687,-4.57332,0
83.8666,-53.471,-4.58196,0
83.8133,-53.3746,-4.59012,0
83.7636,-53.2766,-4.59746,0
83.7137,-53.1789,-4.60424,0
83.6618,-53.0822,-4.61055,0
79.5292,-61.2781,-2.68987,0
79.6678,-61.278,-2.70784,0
79.8059,-61.2701,-2.72793,0
79.9425,-61.2478,-2.7525,0
80.0781,-61.2229,-2.77716,0
80.2127,-61.1954,-2.80191,0
80.3464,-61.1655,-2.82673,0
80.479,-61.133,-2.85162,0
80.6105,-61.098,-2.87656,0
80.7409,-61.0606,-2.90155,0
80.8702,-61.0207,-2.92659,0
80.9984,-60.9785,-2.95166,0
81.1252,-60.9339,-2.97676,0
81.2509,-60.887,-3.00189,0
81.3754,-60.8377,-3.02704,0
81.4987,-60.7862,-3.05218,0
81.618,-60.7262,-3.07943,0
81.7336,-60.6597,-3.10813,0
81.8473,-60.5909,-3.13683,0
81.959,-60.5198,-3.16553,0
82.0685,-60.4465,-3.19421,0
82.176,-60.371,-3.22286,0
82.2823,-60.295,-3.25096,0
82.3877,-60.2188,-3.27837,0
82.4909,-60.1404,-3.30577,0
82.5922,-60.0599,-3.33316,0
82.6912,-59.9774,-3.3605,0
82.788,-59.8929,-3.3878,0
82.8827,-59.8065,-3.41503,0
82.975,-59.7182,-3.44218,0
83.0651,-59.6282,-3.46924,0
83.153,-59.5363,-3.49621,0
83.2384,-59.4428,-3.52306,0
83.3216,-59.3476,-3.54979,0
83.4023,-59.2509,-3.57637,0
83.4807,-59.1526,-3.60282,0
83.5568,-59.0529,-3.62909,0
83.6303,-58.9518,-3.6552,0
83.7015,-58.8493,-3.68113,0
83.7702,-58.7456,-3.70688,0
83.8364,-58.6406,-3.73241,0
83.9002,-58.5344,-3.75775,0
83.9616,-58.4272,-3.78285,0
84.0204,-58.3188,-3.80773,0
84.0689,-58.2049,-3.83408,0
84.1126,-58.0891,-3.86061,0
84.1534,-57.9728,-3.88679,0
84.1915,-57.8562,-3.91261,0
84.2268,-57.7392,-3.93806,0
84.2595,-57.622,-3.96315,0
84.2895,-57.5045,-3.98783,0
84.3167,-57.3869,-4.01214,0
84.3413,-57.2692,-4.03606,0
84.3634,-57.1515,-4.05956,0
84.3827,-57.0338,-4.08266,0
84.3995,-56.9162,-4.10535,0
84.4137,-56.7987,-4.12762,0
84.4254,-56.6814,-4.14946,0
84.4346,-56.5643,-4.17089,0
84.4412,-56.4474,-4.19187,0
84.4455,-56.3309,-4.21242,0
84.4473,-56.2147,-4.23254,0
84.4466,-56.099,-4.25221,0
84.4506,-55.9844,-4.27059,0
84.4534,-55.8701,-4.28843,0
84.4518,-55.7559,-4.30613,0
84.4464,-55.6418,-4.32358,0
84.4388,-55.5282,-4.34058,0
84.4291,-55.415,-4.35713,0
84.4171,-55.3023,-4.37325,0
84.4032,-55.19,-4.38892,0
84.3871,-55.0783,-4.40415,0
84.3689,-54.9671,-4.41892,0
84.3487,-54.8565,-4.43324,0
84.3265,-54.7465,-4.44713,0
84.3022,-54.6371,-4.46055,0
84.276,-54.5283,-4.47353,0
84.2477,-54.4202,-4.48604,0
84.2175,-54.3128,-4.49811,0
84.1853,-54.2061,-4.50971,0
84.1512,-54.1002,-4.52087,0
84.1152,-53.995,-4.53156,0
84.0732,-53.8919,-4.54208,0
84.0273,-53.7906,-4.55229,0
83.9795,-53.6904,-4.56201,0
83.93,-53.5913,-4.57125,0
83.8787,-53.4934,-4.58001,0
83.8257,-53.3967,-4.58828,0
83.7749,-53.2993,-4.59584,0
83.7254,-53.2014,-4.60272,0
83.6739,-53.1044,-4.60914,0
80.1251,-61.0497,-2.80132,0
80.2557,-61.0222,-2.82541,0
80.3854,-60.9923,-2.84956,0
80.514,-60.96,-2.87378,0
80.6416,-60.9252,-2.89806,0
80.768,-60.888,-2.92238,0
80.8934,-60.8485,-2.94676,0
81.0178,-60.8067,-2.97116,0
81.1408,-60.7621,-2.99575,0
81.2595,-60.7068,-3.02332,0
81.3766,-60.6491,-3.05095,0
81.4916,-60.5889,-3.07864,0
81.605,-60.5263,-3.10638,0
81.7164,-60.4614,-3.13415,0
81.8259,-60.3943,-3.16191,0
81.9335,-60.325,-3.18968,0
82.0391,-60.2535,-3.21743,0
82.1426,-60.18,-3.24516,0
82.2442,-60.1047,-3.27273,0
82.3456,-60.0303,-3.29927,0
82.4451,-59.9538,-3.32579,0
82.5424,-59.8753,-3.3523,0
82.6376,-59.7948,-3.37877,0
82.7308,-59.7125,-3.40518,0
82.8217,-59.6282,-3.43153,0
82.9105,-59.5422,-3.45781,0
82.9972,-59.4544,-3.484,0
83.0816,-59.3649,-3.51009,0
83.1637,-59.2738,-3.53607,0
83.2436,-59.1811,-3.56193,0
83.3212,-59.0869,-3.58765,0
83.3964,-58.9913,-3.61322,0
83.4694,-58.8942,-3.63864,0
83.5399,-58.7958,-3.6639,0
83.6082,-58.6961,-3.68899,0
83.6741,-58.5951,-3.71388,0
83.7376,-58.4929,-3.73858,0
83.7987,-58.3896,-3.76307,0
83.8566,-58.2847,-3.78753,0
83.9035,-58.1738,-3.81377,0
83.9479,-58.0622,-3.83968,0
83.9894,-57.9502,-3.86526,0
84.0284,-57.8377,-3.8905,0
84.0647,-57.7248,-3.91541,0
84.0984,-57.6115,-3.93996,0
84.1294,-57.4981,-3.96414,0
84.1578,-57.3844,-3.98796,0
84.1837,-57.2706,-4.0114,0
84.207,-57.1566,-4.03446,0
84.2277,-57.0427,-4.05713,0
84.2459,-56.9287,-4.07942,0
84.2616,-56.8148,-4.1013,0
84.2748,-56.7011,-4.12278,0
84.2856,-56.5874,-4.14384,0
84.2939,-56.474,-4.16449,0
84.2998,-56.3609,-4.18474,0
84.3034,-56.248,-4.20456,0
84.3105,-56.1363,-4.22316,0
84.3169,-56.025,-4.24117,0
84.3211,-55.9137,-4.25879,0
84.3223,-55.8025,-4.2761,0
84.3186,-55.6914,-4.29336,0
84.3127,-55.5806,-4.31019,0
84.3045,-55.4702,-4.32659,0
84.2944,-55.3602,-4.34257,0
84.2822,-55.2507,-4.3581,0
84.2679,-55.1416,-4.3732,0
84.2516,-55.033,-4.38788,0
84.2332,-54.925,-4.4021,0
84.2129,-54.8175,-4.4159,0
84.1905,-54.7107,-4.42925,0
84.1662,-54.6044,-4.44216,0
84.1399,-54.4987,-4.45463,0
84.1117,-54.3937,-4.46665,0
84.0816,-54.2894,-4.47823,0
84.0495,-54.1858,-4.48937,0
84.0155,-54.0829,-4.50006,0
83.9755,-53.9821,-4.51064,0
83.932,-53.8828,-4.52089,0
83.8867,-53.7846,-4.53066,0
83.8397,-53.6875,-4.53996,0
83.7909,-53.5915,-4.5488,0
83.7405,-53.4966,-4.55716,0
83.6883,-53.4028,-4.56505,0
83.6375,-53.3088,-4.57225,0
83.5885,-53.2139,-4.57875,0
79.5614,-61.1137,-2.70964,0
79.6963,-61.113,-2.72717,0
79.8303,-61.1018,-2.7479,0
79.963,-61.08,-2.77179,0
80.0948,-61.0556,-2.79577,0
80.2257,-61.0288,-2.81984,0
80.3555,-60.9994,-2.84398,0
80.4844,-60.9677,-2.86819,0
80.6123,-60.9334,-2.89245,0
80.739,-60.8968,-2.91677,0
80.8647,-60.8578,-2.94113,0
80.9892,-60.8165,-2.96552,0
81.1126,-60.7729,-2.98996,0
81.2322,-60.7198,-3.01695,0
81.3497,-60.6626,-3.04457,0
81.4653,-60.603,-3.07225,0
81.5791,-60.541,-3.09998,0
81.6909,-60.4766,-3.12774,0
81.8009,-60.41,-3.1555,0
81.9088,-60.3412,-3.18327,0
82.0148,-60.2702,-3.21103,0
82.1189,-60.1971,-3.23876,0
82.2209,-60.122,-3.26645,0
82.3223,-60.0477,-3.29315,0
82.4223,-59.9717,-3.31967,0
82.5201,-59.8936,-3.34618,0
82.6159,-59.8136,-3.37266,0
82.7094,-59.7316,-3.39909,0
82.8009,-59.6478,-3.42546,0
82.8902,-59.5622,-3.45175,0
82.9774,-59.4748,-3.47797,0
83.0623,-59.3857,-3.50408,0
83.1449,-59.295,-3.53008,0
83.2253,-59.2027,-3.55597,0
83.3034,-59.1088,-3.58173,0
83.3793,-59.0135,-3.60734,0
83.4527,-58.9167,-3.63279,0
83.5239,-58.8186,-3.65809,0
83.5927,-58.7192,-3.68321,0
83.6591,-58.6185,-3.70815,0
83.7231,-58.5166,-3.7329,0
83.7848,-58.4136,-3.75744,0
83.8441,-58.3094,-3.78176,0
83.893,-58.1994,-3.80774,0
83.9378,-58.088,-3.83372,0
83.9802,-57.9761,-3.85938,0
84.0196,-57.8636,-3.88471,0
84.0566,-57.7508,-3.9097,0
84.0908,-57.6377,-3.93432,0
84.1225,-57.5243,-3.95859,0
84.1515,-57.4106,-3.98249,0
84.178,-57.2968,-4.00603,0
84.2018,-57.1829,-4.02918,0
84.2231,-57.069,-4.05194,0
84.2419,-56.955,-4.0743,0
84.2582,-56.8411,-4.09629,0
84.2719,-56.7273,-4.11785,0
84.2834,-56.6136,-4.13902,0
84.2923,-56.5002,-4.15977,0
84.2988,-56.387,-4.18011,0
84.3028,-56.274,-4.20003,0
84.3087,-56.1621,-4.21895,0
84.3155,-56.0507,-4.23705,0
84.3203,-55.9394,-4.25476,0
84.3228,-55.8282,-4.27207,0
84.3196,-55.717,-4.28942,0
84.3141,-55.6061,-4.30634,0
84.3066,-55.4956,-4.32285,0
84.297,-55.3855,-4.33892,0
84.2852,-55.2759,-4.35455,0
84.2714,-55.1667,-4.36976,0
84.2555,-55.0581,-4.38453,0
84.2376,-54.9499,-4.39885,0
84.2177,-54.8423,-4.41276,0
84.1959,-54.7353,-4.42621,0
84.172,-54.6288,-4.43922,0
84.1462,-54.523,-4.45179,0
84.1184,-54.4179,-4.46392,0
84.0887,-54.3134,-4.47561,0
84.057,-54.2096,-4.48684,0
84.0235,-54.1066,-4.49763,0
83.9853,-54.0051,-4.50821,0
83.9422,-53.9056,-4.51856,0
83.8973,-53.8072,-4.52844,0
83.8507,-53.7098,-4.53786,0
83.8023,-53.6135,-4.5468,0
83.7522,-53.5184,-4.55527,0
83.7004,-53.4244,-4.56327,0
83.6485,-53.3308,-4.57069,0
83.6,-53.2357,-4.57729,0
83.5495,-53.1416,-4.58344,0
79.5304,-61.1135,-2.70563,0
79.6651,-61.1134,-2.72311,0
79.7995,-61.1065,-2.7424,0
79.9325,-61.0853,-2.76628,0
80.0645,-61.0615,-2.79024,0
80.1955,-61.0352,-2.81428,0
80.3256,-61.0064,-2.8384,0
80.4548,-60.9752,-2.86259,0
80.5828,-60.9415,-2.88685,0
80.7098,-60.9055,-2.91115,0
80.8358,-60.8671,-2.9355,0
80.9605,-60.8263,-2.9599,0
81.0842,-60.7832,-2.98432,0
81.2049,-60.7326,-3.01059,0
81.3227,-60.676,-3.0382,0
81.4388,-60.6169,-3.06586,0
81.553,-60.5555,-3.09358,0
81.6652,-60.4917,-3.12133,0
81.7757,-60.4256,-3.14909,0
81.8841,-60.3573,-3.17687,0
81.9905,-60.2868,-3.20463,0
82.0951,-60.2142,-3.23237,0
82.1974,-60.1395,-3.26006,0
82.2991,-60.0649,-3.28702,0
82.3995,-59.9894,-3.31356,0
82.4977,-59.9118,-3.34008,0
82.594,-59.8322,-3.36655,0
82.688,-59.7507,-3.39299,0
82.78,-59.6673,-3.41938,0
82.8698,-59.5821,-3.4457,0
82.9575,-59.4951,-3.47193,0
83.043,-59.4064,-3.49806,0
83.1261,-59.3161,-3.52409,0
83.207,-59.2241,-3.55001,0
83.2856,-59.1306,-3.57579,0
83.362,-59.0356,-3.60144,0
83.436,-58.9392,-3.62694,0
83.5077,-58.8414,-3.65227,0
83.577,-58.7422,-3.67744,0
83.644,-58.6418,-3.70242,0
83.7085,-58.5402,-3.72721,0
83.7708,-58.4374,-3.75179,0
83.8305,-58.3335,-3.77616,0
83.8822,-58.2251,-3.8017,0
83.9277,-58.1138,-3.82776,0
83.9706,-58.0019,-3.85349,0
84.0107,-57.8896,-3.8789,0
84.0483,-57.7769,-3.90396,0
84.0832,-57.6638,-3.92867,0
84.1154,-57.5505,-3.95302,0
84.145,-57.4369,-3.977,0
84.1721,-57.3231,-4.00063,0
84.1965,-57.2092,-4.02387,0
84.2184,-57.0953,-4.04672,0
84.2378,-56.9813,-4.06919,0
84.2547,-56.8674,-4.09124,0
84.2691,-56.7535,-4.11291,0
84.2809,-56.6398,-4.13417,0
84.2904,-56.5263,-4.15502,0
84.2975,-56.4131,-4.17545,0
84.302,-56.3001,-4.19547,0
84.3068,-56.1878,-4.21472,0
84.3142,-56.0764,-4.23291,0
84.3194,-55.965,-4.25071,0
84.3224,-55.8538,-4.26812,0
84.3206,-55.7426,-4.28545,0
84.3156,-55.6317,-4.30248,0
84.3085,-55.5211,-4.31907,0
84.2994,-55.4109,-4.33525,0
84.288,-55.3011,-4.35099,0
84.2747,-55.1919,-4.3663,0
84.2593,-55.0831,-4.38115,0
84.2419,-54.9748,-4.39559,0
84.2225,-54.8671,-4.40959,0
84.201,-54.7599,-4.42314,0
84.1777,-54.6533,-4.43626,0
84.1523,-54.5474,-4.44892,0
84.1249,-54.4421,-4.46116,0
84.0957,-54.3374,-4.47295,0
84.0645,-54.2335,-4.48429,0
84.0314,-54.1303,-4.49518,0
83.995,-54.0282,-4.50575,0
83.9523,-53.9285,-4.51622,0
83.9078,-53.8298,-4.5262,0
83.8616,-53.7322,-4.53572,0
83.8136,-53.6356,-4.54478,0
83.7639,-53.5402,-4.55336,0
83.7126,-53.446,-4.56147,0
83.6595,-53.3529,-4.56911,0
83.6113,-53.2576,-4.57581,0
83.5614,-53.1632,-4.58206,0
80.1105,-60.8967,-2.81343,0
80.2377,-60.8704,-2.83686,0
80.3641,-60.8416,-2.86036,0
80.4894,-60.8105,-2.88392,0
80.6137,-60.777,-2.90754,0
80.7359,-60.7366,-2.93288,0
80.8559,-60.6912,-2.95922,0
80.9744,-60.6433,-2.9857,0
81.0914,-60.5928,-3.01226,0
81.2066,-60.5398,-3.03892,0
81.3203,-60.4844,-3.06567,0
81.4322,-60.4266,-3.09246,0
81.5423,-60.3665,-3.11931,0
81.6505,-60.3042,-3.14618,0
81.757,-60.2396,-3.17308,0
81.8616,-60.1729,-3.19997,0
81.9641,-60.1041,-3.22686,0
82.0648,-60.0332,-3.25372,0
82.1636,-59.9604,-3.28054,0
82.2608,-59.8864,-3.30705,0
82.3573,-59.8126,-3.33276,0
82.452,-59.7368,-3.35844,0
82.5447,-59.6591,-3.3841,0
82.6353,-59.5796,-3.40972,0
82.7238,-59.4982,-3.43527,0
82.8102,-59.415,-3.46076,0
82.8945,-59.3302,-3.48616,0
82.9766,-59.2437,-3.51148,0
83.0566,-59.1555,-3.53669,0
83.1345,-59.0659,-3.56178,0
83.21,-58.9747,-3.58675,0
83.2834,-58.8821,-3.61158,0
83.3545,-58.7882,-3.63627,0
83.4233,-58.6929,-3.66079,0
83.4898,-58.5963,-3.68515,0
83.5541,-58.4985,-3.70933,0
83.6159,-58.3995,-3.73333,0
83.6755,-58.2994,-3.75712,0
83.7247,-58.1931,-3.78276,0
83.7709,-58.0858,-3.80821,0
83.8143,-57.978,-3.83337,0
83.8552,-57.8697,-3.85821,0
83.8936,-57.7609,-3.88273,0
83.9293,-57.6516,-3.90692,0
83.9626,-57.5421,-3.93077,0
83.9932,-57.4323,-3.95427,0
84.0213,-57.3222,-3.97743,0
84.047,-57.2119,-4.00022,0
84.0701,-57.1016,-4.02266,0
84.0907,-56.9911,-4.04472,0
84.109,-56.8807,-4.0664,0
84.1248,-56.7703,-4.08769,0
84.138,-56.6599,-4.10861,0
84.1491,-56.5497,-4.12913,0
84.1577,-56.4397,-4.14924,0
84.1662,-56.3303,-4.16862,0
84.1769,-56.2218,-4.18695,0
84.1855,-56.1134,-4.20491,0
84.1919,-56.0049,-4.2225,0
84.1963,-55.8966,-4.23968,0
84.1973,-55.7883,-4.25664,0
84.194,-55.6801,-4.2735,0
84.1884,-55.5722,-4.28994,0
84.1809,-55.4647,-4.30597,0
84.1712,-55.3576,-4.32157,0
84.1596,-55.2509,-4.33675,0
84.1459,-55.1446,-4.35151,0
84.1303,-55.0389,-4.36584,0
84.1126,-54.9336,-4.37975,0
84.093,-54.8289,-4.39323,0
84.0714,-54.7247,-4.40628,0
84.0479,-54.6211,-4.4189,0
84.0225,-54.5181,-4.43108,0
83.9952,-54.4158,-4.44284,0
83.9659,-54.3141,-4.45415,0
83.9349,-54.213,-4.46504,0
83.9001,-54.1133,-4.47565,0
83.8597,-54.0155,-4.48614,0
83.8176,-53.9187,-4.49618,0
83.7737,-53.823,-4.50575,0
83.728,-53.7283,-4.51487,0
83.6808,-53.6347,-4.52353,0
83.6319,-53.5422,-4.53172,0
83.5812,-53.4508,-4.53945,0
83.5291,-53.3605,-4.54673,0
83.4808,-53.2684,-4.5531,0
79.5616,-60.9566,-2.72478,0
79.693,-60.9566,-2.74158,0
79.8234,-60.9466,-2.76151,0
79.9527,-60.9257,-2.78473,0
80.0811,-60.9024,-2.80804,0
80.2085,-60.8767,-2.83145,0
80.335,-60.8485,-2.85493,0
80.4606,-60.8179,-2.87848,0
80.5852,-60.7849,-2.90209,0
80.7079,-60.7467,-2.92681,0
80.8284,-60.7019,-2.95313,0
80.9473,-60.6546,-2.97957,0
81.0645,-60.6047,-3.00611,0
81.1803,-60.5522,-3.03277,0
81.2943,-60.4974,-3.05949,0
81.4066,-60.4402,-3.08627,0
81.517,-60.3806,-3.11311,0
81.6257,-60.3188,-3.13998,0
81.7326,-60.2547,-3.16687,0
81.8376,-60.1885,-3.19377,0
81.9406,-60.1202,-3.22065,0
82.0417,-60.0498,-3.24752,0
82.141,-59.9774,-3.27435,0
82.2381,-59.9032,-3.30111,0
82.3353,-59.8298,-3.32683,0
82.4303,-59.7545,-3.35252,0
82.5234,-59.6772,-3.37819,0
82.6145,-59.5981,-3.40381,0
82.7036,-59.5171,-3.42938,0
82.7905,-59.4344,-3.45488,0
82.8752,-59.3499,-3.48031,0
82.958,-59.2638,-3.50564,0
83.0384,-59.176,-3.53089,0
83.1167,-59.0867,-3.556,0
83.1927,-58.9959,-3.581,0
83.2666,-58.9036,-3.60587,0
83.3383,-58.81,-3.63058,0
83.4076,-58.715,-3.65515,0
83.4747,-58.6187,-3.67955,0
83.5395,-58.5211,-3.70377,0
83.6019,-58.4224,-3.72781,0
83.662,-58.3226,-3.75164,0
83.7137,-58.2177,-3.77685,0
83.7604,-58.1106,-3.80237,0
83.8045,-58.0029,-3.82759,0
83.8461,-57.8947,-3.85251,0
83.885,-57.786,-3.8771,0
83.9213,-57.6769,-3.90137,0
83.9551,-57.5674,-3.92529,0
83.9864,-57.4576,-3.94888,0
84.0151,-57.3476,-3.97212,0
84.0412,-57.2374,-3.995,0
84.065,-57.127,-4.01752,0
84.0862,-57.0166,-4.03966,0
84.105,-56.9062,-4.06143,0
84.1213,-56.7957,-4.08282,0
84.1352,-56.6854,-4.10382,0
84.1467,-56.5751,-4.12442,0
84.1559,-56.4651,-4.14464,0
84.1634,-56.3554,-4.16434,0
84.1746,-56.2469,-4.18276,0
84.1837,-56.1384,-4.20081,0
84.1907,-56.03,-4.21847,0
84.1955,-55.9216,-4.23575,0
84.1979,-55.8133,-4.25269,0
84.1949,-55.705,-4.26965,0
84.1898,-55.5971,-4.28618,0
84.1828,-55.4895,-4.30231,0
84.1737,-55.3823,-4.318,0
84.1625,-55.2755,-4.33328,0
84.1492,-55.1691,-4.34814,0
84.1341,-55.0632,-4.36257,0
84.1169,-54.9579,-4.37658,0
84.0977,-54.853,-4.39016,0
84.0766,-54.7487,-4.40331,0
84.0536,-54.6449,-4.41602,0
84.0285,-54.5418,-4.4283,0
84.0016,-54.4393,-4.44016,0
83.9729,-54.3375,-4.45158,0
83.9422,-54.2363,-4.46257,0
83.9091,-54.136,-4.47316,0
83.8691,-54.038,-4.48376,0
83.8274,-53.941,-4.4939,0
83.7839,-53.845,-4.50359,0
83.7387,-53.7501,-4.51281,0
83.6919,-53.6562,-4.52156,0
83.6433,-53.5634,-4.52987,0
83.593,-53.4718,-4.53771,0
83.5412,-53.3812,-4.54509,0
83.492,-53.2897,-4.55168,0
83.4428,-53.198,-4.55766,0
79.5312,-60.9543,-2.72169,0
79.6627,-60.957,-2.73761,0
79.7935,-60.951,-2.75616,0
79.923,-60.9308,-2.77936,0
80.0515,-60.908,-2.80266,0
80.1791,-60.8828,-2.82604,0
80.3059,-60.8552,-2.8495,0
80.4317,-60.8251,-2.87304,0
80.5565,-60.7927,-2.89663,0
80.6799,-60.7566,-2.92077,0
80.8007,-60.7125,-2.94705,0
80.92,-60.6657,-2.97346,0
81.0377,-60.6164,-2.99998,0
81.1537,-60.5645,-3.02661,0
81.2681,-60.5103,-3.05332,0
81.3808,-60.4536,-3.08008,0
81.4916,-60.3946,-3.10691,0
81.6008,-60.3332,-3.13377,0
81.7081,-60.2697,-3.16067,0
81.8135,-60.2039,-3.18756,0
81.917,-60.1361,-3.21445,0
82.0186,-60.0662,-3.24132,0
82.1183,-59.9943,-3.26817,0
82.2159,-59.9204,-3.29497,0
82.313,-59.8469,-3.3209,0
82.4087,-59.7721,-3.34659,0
82.5022,-59.6952,-3.37226,0
82.5938,-59.6165,-3.3979,0
82.6832,-59.536,-3.42349,0
82.7706,-59.4536,-3.44901,0
82.8559,-59.3695,-3.47445,0
82.9391,-59.2838,-3.49981,0
83.02,-59.1964,-3.52507,0
83.0988,-59.1075,-3.55022,0
83.1754,-59.017,-3.57524,0
83.2498,-58.925,-3.60015,0
83.3219,-58.8317,-3.6249,0
83.3918,-58.737,-3.64949,0
83.4594,-58.641,-3.67393,0
83.5247,-58.5437,-3.6982,0
83.5877,-58.4453,-3.72228,0
83.6483,-58.3457,-3.74616,0
83.7025,-58.2424,-3.77091,0
83.7498,-58.1354,-3.79651,0
83.7946,-58.0278,-3.82179,0
83.8367,-57.9197,-3.84678,0
83.8763,-57.8111,-3.87145,0
83.9132,-57.7021,-3.8958,0
83.9476,-57.5927,-3.91981,0
83.9794,-57.483,-3.94347,0
84.0087,-57.373,-3.96679,0
84.0355,-57.2628,-3.98975,0
84.0598,-57.1525,-4.01236,0
84.0816,-57.0421,-4.03458,0
84.1009,-56.9317,-4.05644,0
84.1178,-56.8212,-4.07791,0
84.1322,-56.7108,-4.09901,0
84.1443,-56.6006,-4.1197,0
84.154,-56.4905,-4.14001,0
84.1613,-56.3805,-4.15991,0
84.1723,-56.2719,-4.17854,0
84.1818,-56.1634,-4.19668,0
84.1893,-56.055,-4.21443,0
84.1945,-55.9466,-4.2318,0
84.1977,-55.8383,-4.24878,0
84.1958,-55.73,-4.26577,0
84.1912,-55.622,-4.28241,0
84.1846,-55.5143,-4.29862,0
84.1759,-55.407,-4.31442,0
84.1652,-55.3001,-4.3298,0
84.1525,-55.1936,-4.34475,0
84.1378,-55.0876,-4.35928,0
84.121,-54.9821,-4.37339,0
84.1023,-54.8771,-4.38706,0
84.0816,-54.7727,-4.4003,0
84.059,-54.6688,-4.41312,0
84.0345,-54.5656,-4.42551,0
84.008,-54.4629,-4.43747,0
83.9797,-54.3609,-4.44898,0
83.9494,-54.2596,-4.46007,0
83.9173,-54.1589,-4.47071,0
83.8786,-54.0605,-4.48135,0
83.8373,-53.9633,-4.4916,0
83.7941,-53.8671,-4.50139,0
83.7493,-53.7719,-4.51072,0
83.7028,-53.6778,-4.51959,0
83.6546,-53.5847,-4.528,0
83.6048,-53.4928,-4.53594,0
83.5533,-53.402,-4.54343,0
83.503,-53.3109,-4.55024,0
83.4544,-53.2191,-4.55632,0
80.0963,-60.7485,-2.82599,0
80.2195,-60.7184,-2.85063,0
80.3415,-60.6855,-2.87545,0
80.4622,-60.65,-2.90049,0
80.5816,-60.6117,-2.92567,0
80.6996,-60.5709,-2.95102,0
80.8162,-60.5274,-2.97651,0
80.9313,-60.4815,-3.00212,0
81.0448,-60.433,-3.02784,0
81.1568,-60.3822,-3.05365,0
81.2672,-60.329,-3.07955,0
81.376,-60.2734,-3.1055,0
81.483,-60.2156,-3.13151,0
81.5884,-60.1556,-3.15756,0
81.6919,-60.0934,-3.18362,0
81.7935,-60.0292,-3.20969,0
81.8934,-59.9628,-3.23576,0
81.9914,-59.8945,-3.26182,0
82.0874,-59.8242,-3.28784,0
82.1816,-59.7521,-3.31382,0
82.2746,-59.6792,-3.33934,0
82.3667,-59.606,-3.36425,0
82.4568,-59.5309,-3.38915,0
82.545,-59.454,-3.414,0
82.6312,-59.3752,-3.43881,0
82.7153,-59.2948,-3.46355,0
82.7974,-59.2127,-3.48821,0
82.8775,-59.129,-3.51279,0
82.9554,-59.0437,-3.53727,0
83.0312,-58.9568,-3.56165,0
83.1048,-58.8686,-3.58591,0
83.1764,-58.7789,-3.61002,0
83.2457,-58.6878,-3.63401,0
83.3128,-58.5954,-3.65784,0
83.3777,-58.5018,-3.68152,0
83.4404,-58.407,-3.70503,0
83.5008,-58.311,-3.72836,0
83.5525,-58.2096,-3.75325,0
83.6002,-58.1065,-3.77825,0
83.6455,-58.0028,-3.80297,0
83.6882,-57.8985,-3.82741,0
