75.4886,-51.3303,-3.44529,0
75.4973,-51.1981,-3.46057,0
75.5031,-51.067,-3.47526,0
75.5062,-50.9368,-3.48936,0
75.5202,-50.8124,-3.50143,0
75.5418,-50.6916,-3.51197,0
75.5607,-50.5708,-3.52208,0
75.5769,-50.45,-3.53173,0
75.5905,-50.3294,-3.54093,0
75.6016,-50.2088,-3.54968,0
75.6099,-50.0884,-3.558,0
75.613,-49.9677,-3.56612,0
75.6134,-49.8475,-3.57381,0
75.6113,-49.7277,-3.58104,0
75.6066,-49.6084,-3.58782,0
75.5996,-49.4897,-3.59416,0
75.59,-49.3716,-3.60005,0
75.578,-49.2542,-3.6055,0
75.5635,-49.1374,-3.61052,0
75.5468,-49.0214,-3.61509,0
75.5277,-48.9062,-3.61924,0
75.5062,-48.7918,-3.62296,0
75.4826,-48.6783,-3.62624,0
75.4566,-48.5656,-3.6291,0
75.4285,-48.4539,-3.63154,0
75.4034,-48.3425,-3.63313,0
75.3791,-48.2313,-3.63406,0
75.3525,-48.1208,-3.63459,0
75.3237,-48.011,-3.63471,0
75.2984,-47.9007,-3.63394,0
75.2852,-47.7872,-3.63159,0
75.2698,-47.6735,-3.62878,0
75.2523,-47.5598,-3.62553,0
75.2326,-47.446,-3.62185,0
75.2106,-47.3321,-3.61771,0
75.1866,-47.2183,-3.61312,0
75.1602,-47.1044,-3.60807,0
75.1317,-46.9906,-3.60257,0
75.101,-46.8769,-3.5966,0
75.0679,-46.7634,-3.59017,0
75.0326,-46.6499,-3.58326,0
74.995,-46.5367,-3.57589,0
74.955,-46.4237,-3.56803,0
74.9128,-46.311,-3.55971,0
74.8682,-46.1985,-3.5509,0
74.8211,-46.0866,-3.54162,0
74.7689,-45.9769,-3.53217,0
74.7226,-45.8618,-3.52125,0
74.6791,-45.7426,-3.50915,0
74.6328,-45.6236,-3.49651,0
74.5834,-45.5048,-3.48333,0
74.5312,-45.3862,-3.46963,0
74.4759,-45.2681,-3.45538,0
74.4177,-45.1503,-3.44059,0
74.3563,-45.0332,-3.42527,0
74.2919,-44.9166,-3.4094,0
74.2243,-44.8008,-3.39297,0
74.1537,-44.6858,-3.37601,0
74.0798,-44.5718,-3.35849,0
74.0027,-44.4587,-3.34043,0
73.3741,-55.1138,-2.74376,0
73.5005,-55.0266,-2.77053,0
73.6239,-54.936,-2.79719,0
73.7441,-54.8418,-2.82371,0
73.8613,-54.7444,-2.85005,0
73.9751,-54.6439,-2.87618,0
74.0856,-54.5403,-2.9021,0
74.1927,-54.4339,-2.92778,0
74.2962,-54.3248,-2.95317,0
74.3963,-54.2132,-2.97828,0
74.4927,-54.0991,-3.00308,0
74.5856,-53.9827,-3.02756,0
74.6748,-53.8642,-3.05167,0
74.7604,-53.7437,-3.07544,0
74.8413,-53.6206,-3.09899,0
74.9158,-53.4931,-3.12269,0
74.9866,-53.3644,-3.14591,0
75.0431,-53.2251,-3.17064,0
75.0947,-53.0846,-3.19494,0
75.1456,-52.9466,-3.21805,0
75.193,-52.8086,-3.24055,0
75.2368,-52.6706,-3.26243,0
75.277,-52.5327,-3.28369,0
75.3138,-52.3951,-3.30433,0
75.3471,-52.2578,-3.32435,0
75.3771,-52.1208,-3.34376,0
75.4037,-51.9843,-3.36256,0
75.4273,-51.8484,-3.38074,0
75.4475,-51.7131,-3.39833,0
75.4647,-51.5786,-3.4153,0
75.4788,-51.4448,-3.43169,0
75.49,-51.3119,-3.44746,0
75.4983,-51.1798,-3.46265,0
75.5037,-51.0488,-3.47725,0
75.5064,-50.9187,-3.49128,0
75.5234,-50.7956,-3.50293,0
75.5445,-50.6748,-3.51341,0
75.5631,-50.554,-3.52344,0
75.579,-50.4332,-3.53303,0
75.5923,-50.3126,-3.54217,0
75.603,-50.192,-3.55086,0
75.6105,-50.0716,-3.55916,0
75.6131,-49.951,-3.56722,0
75.6132,-49.8308,-3.57484,0
75.6109,-49.7111,-3.582,0
75.6059,-49.5919,-3.58872,0
75.5984,-49.4733,-3.595,0
75.5884,-49.3552,-3.60083,0
75.5762,-49.2379,-3.60623,0
75.5613,-49.1213,-3.61118,0
75.5442,-49.0053,-3.61569,0
75.5248,-48.8902,-3.61978,0
75.503,-48.776,-3.62344,0
75.4791,-48.6625,-3.62666,0
75.4529,-48.55,-3.62946,0
75.4245,-48.4385,-3.63184,0
75.4001,-48.327,-3.63328,0
75.3755,-48.2159,-3.63416,0
75.3486,-48.1055,-3.63463,0
75.3195,-47.9958,-3.63469,0
75.2966,-47.8849,-3.63364,0
75.2831,-47.7713,-3.63122,0
75.2675,-47.6577,-3.62835,0
75.2496,-47.5439,-3.62505,0
75.2296,-47.4301,-3.6213,0
75.2074,-47.3163,-3.61709,0
75.183,-47.2024,-3.61244,0
75.1564,-47.0886,-3.60734,0
75.1276,-46.9748,-3.60176,0
75.0965,-46.8611,-3.59573,0
75.0631,-46.7476,-3.58924,0
75.0275,-46.6342,-3.58227,0
74.9895,-46.521,-3.57483,0
74.9493,-46.408,-3.56691,0
74.9067,-46.2953,-3.55852,0
74.8618,-46.1829,-3.54964,0
74.8141,-46.0712,-3.54032,0
74.7609,-45.962,-3.53087,0
74.7167,-45.8452,-3.5196,0
74.6728,-45.726,-3.50742,0
74.6262,-45.607,-3.49471,0
74.5764,-45.4882,-3.48146,0
74.5238,-45.3698,-3.46767,0
74.468,-45.2516,-3.45336,0
74.4093,-45.134,-3.43848,0
74.3476,-45.0169,-3.42309,0
74.2827,-44.9005,-3.40714,0
74.2146,-44.7848,-3.39064,0
74.1435,-44.6699,-3.3736,0
74.0693,-44.556,-3.35601,0
73.9918,-44.4431,-3.33788,0
75.2774,-51.6585,-3.37499,0
75.2962,-51.5289,-3.39171,0
75.312,-51.4001,-3.40785,0
75.3248,-51.272,-3.42342,0
75.3349,-51.1447,-3.43843,0
75.3423,-51.0182,-3.45287,0
75.3468,-50.8926,-3.46676,0
75.3692,-50.775,-3.47777,0
75.3909,-50.6581,-3.48813,0
75.4102,-50.541,-3.49806,0
75.4267,-50.424,-3.50756,0
75.4407,-50.307,-3.51661,0
75.4508,-50.1897,-3.52541,0
75.4571,-50.0725,-3.53386,0
75.4609,-49.9555,-3.54189,0
75.4622,-49.839,-3.54948,0
75.4611,-49.7228,-3.55664,0
75.4574,-49.6071,-3.56336,0
75.4513,-49.4919,-3.56966,0
75.4429,-49.3773,-3.57551,0
75.4321,-49.2632,-3.58094,0
75.4189,-49.1499,-3.58595,0
75.4035,-49.0372,-3.59053,0
75.3857,-48.9252,-3.59469,0
75.3657,-48.814,-3.59843,0
75.3434,-48.7036,-3.60175,0
75.319,-48.5941,-3.60466,0
75.2924,-48.4855,-3.60716,0
75.2661,-48.3774,-3.60902,0
75.2431,-48.2693,-3.61002,0
75.2178,-48.1619,-3.61061,0
75.1902,-48.0552,-3.61082,0
75.178,-47.9452,-3.60905,0
75.165,-47.8347,-3.60675,0
75.15,-47.7242,-3.60401,0
75.1329,-47.6135,-3.60083,0
75.1136,-47.5028,-3.59721,0
75.0922,-47.3921,-3.59317,0
75.0687,-47.2814,-3.58867,0
75.043,-47.1708,-3.58375,0
75.0151,-47.0602,-3.57836,0
74.9849,-46.9497,-3.57253,0
74.9527,-46.8394,-3.56624,0
74.9181,-46.7292,-3.55949,0
74.8814,-46.6193,-3.55229,0
74.8424,-46.5096,-3.54462,0
74.8,-46.4009,-3.53661,0
74.7542,-46.2932,-3.52828,0
74.7062,-46.1861,-3.51948,0
74.655,-46.08,-3.51032,0
74.5991,-45.9765,-3.50104,0
74.551,-45.8659,-3.48994,0
74.5056,-45.7515,-3.47765,0
74.4575,-45.6374,-3.46484,0
74.4065,-45.5236,-3.45152,0
74.3526,-45.4101,-3.4377,0
74.2958,-45.2972,-3.42334,0
74.2359,-45.1849,-3.40846,0
74.1732,-45.0732,-3.39308,0
74.1076,-44.9622,-3.37717,0
74.0389,-44.8521,-3.36074,0
73.9672,-44.743,-3.3438,0
73.8925,-44.6349,-3.32632,0
73.2432,-54.8778,-2.7449,0
73.3637,-54.7923,-2.7713,0
73.4819,-54.7049,-2.79728,0
73.5981,-54.616,-2.82271,0
73.7114,-54.524,-2.84799,0
73.8216,-54.4289,-2.87308,0
73.9287,-54.331,-2.89797,0
74.0325,-54.2302,-2.92264,0
74.133,-54.1268,-2.94707,0
74.2302,-54.0209,-2.97123,0
74.3241,-53.9127,-2.9951,0
74.4145,-53.8022,-3.01867,0
74.5015,-53.6896,-3.04193,0
74.5859,-53.5762,-3.06461,0
74.6681,-53.4621,-3.08668,0
74.7465,-53.3458,-3.10849,0
74.8089,-53.2161,-3.13249,0
74.8672,-53.0854,-3.15604,0
74.9218,-52.9541,-3.17905,0
74.9727,-52.8224,-3.2015,0
75.0202,-52.6906,-3.22337,0
75.0643,-52.5587,-3.24465,0
75.1049,-52.4267,-3.26536,0
75.1422,-52.2949,-3.28549,0
75.1762,-52.1633,-3.30503,0
75.207,-52.0319,-3.32398,0
75.2345,-51.9009,-3.34235,0
75.2589,-51.7704,-3.36014,0
75.2802,-51.6404,-3.37736,0
75.2985,-51.511,-3.39399,0
75.3139,-51.3822,-3.41006,0
75.3264,-51.2542,-3.42554,0
75.3362,-51.127,-3.44047,0
75.343,-51.0006,-3.45483,0
75.3485,-50.8757,-3.46849,0
75.3724,-50.7588,-3.47924,0
75.3937,-50.6418,-3.48954,0
75.4125,-50.5247,-3.49941,0
75.4288,-50.4077,-3.50885,0
75.4425,-50.2907,-3.51785,0
75.4517,-50.1734,-3.52661,0
75.4577,-50.0562,-3.53502,0
75.4613,-49.9393,-3.54298,0
75.4622,-49.8228,-3.55051,0
75.4607,-49.7067,-3.5576,0
75.4567,-49.591,-3.56426,0
75.4504,-49.4759,-3.57049,0
75.4416,-49.3614,-3.57629,0
75.4304,-49.2474,-3.58167,0
75.4169,-49.1341,-3.58661,0
75.4012,-49.0216,-3.59113,0
75.383,-48.9097,-3.59524,0
75.3627,-48.7986,-3.59892,0
75.3402,-48.6884,-3.60218,0
75.3154,-48.5789,-3.60504,0
75.2885,-48.4704,-3.60747,0
75.2631,-48.3623,-3.60919,0
75.2397,-48.2544,-3.61012,0
75.2141,-48.147,-3.61066,0
75.1875,-48.0402,-3.6107,0
75.1763,-47.9298,-3.60876,0
75.163,-47.8194,-3.60639,0
75.1477,-47.7088,-3.60358,0
75.1303,-47.5981,-3.60035,0
75.1107,-47.4874,-3.59668,0
75.089,-47.3767,-3.59257,0
75.0652,-47.266,-3.58802,0
75.0391,-47.1554,-3.58302,0
75.0109,-47.0448,-3.57757,0
74.9805,-46.9344,-3.57168,0
74.948,-46.824,-3.56532,0
74.9132,-46.7139,-3.55852,0
74.8761,-46.604,-3.55125,0
74.8368,-46.4943,-3.54352,0
74.7937,-46.3858,-3.53549,0
74.7477,-46.2783,-3.52708,0
74.6992,-46.1713,-3.51822,0
74.6474,-46.0656,-3.50904,0
74.5911,-45.9622,-3.4997,0
74.5448,-45.85,-3.48826,0
74.4991,-45.7356,-3.4759,0
74.4506,-45.6215,-3.46302,0
74.3991,-45.5078,-3.44963,0
74.3448,-45.3944,-3.43572,0
74.2876,-45.2816,-3.4213,0
74.2274,-45.1693,-3.40635,0
74.1643,-45.0577,-3.3909,0
74.0981,-44.9469,-3.37491,0
74.0291,-44.8369,-3.35841,0
73.957,-44.7279,-3.34139,0
73.8817,-44.6199,-3.32385,0
73.2601,-54.8661,-2.74859,0
73.3802,-54.7802,-2.77495,0
73.4982,-54.6927,-2.80082,0
73.6141,-54.6034,-2.82624,0
73.727,-54.5109,-2.85149,0
73.8366,-54.4155,-2.87655,0
73.9433,-54.3171,-2.90142,0
74.0466,-54.216,-2.92606,0
74.1468,-54.1122,-2.95045,0
74.2435,-54.006,-2.97457,0
74.337,-53.8974,-2.9984,0
74.4268,-53.7866,-3.02193,0
74.5134,-53.6738,-3.04512,0
74.5976,-53.5604,-3.0677,0
74.6793,-53.4461,-3.08971,0
74.7554,-53.3278,-3.11186,0
74.8173,-53.198,-3.13578,0
74.875,-53.0671,-3.15927,0
74.929,-52.9358,-3.18221,0
74.9795,-52.8041,-3.20458,0
75.0266,-52.6722,-3.22637,0
75.0702,-52.5403,-3.24757,0
75.1102,-52.4084,-3.2682,0
75.1471,-52.2766,-3.28824,0
75.1806,-52.145,-3.30769,0
75.2109,-52.0137,-3.32657,0
75.238,-51.8827,-3.34486,0
75.262,-51.7523,-3.36258,0
75.2829,-51.6223,-3.3797,0
75.3009,-51.493,-3.39626,0
75.3159,-51.3644,-3.41224,0
75.328,-51.2365,-3.42766,0
75.3372,-51.1094,-3.44251,0
75.3438,-50.9831,-3.45679,0
75.352,-50.8594,-3.47002,0
75.3755,-50.7425,-3.4807,0
75.3966,-50.6255,-3.49093,0
75.4149,-50.5084,-3.50074,0
75.4309,-50.3914,-3.51012,0
75.4442,-50.2745,-3.51906,0
75.4527,-50.1571,-3.52781,0
75.4584,-50.0399,-3.53614,0
75.4616,-49.9231,-3.54405,0
75.4621,-49.8066,-3.55152,0
75.4602,-49.6905,-3.55855,0
75.4559,-49.575,-3.56516,0
75.4492,-49.4599,-3.57132,0
75.4402,-49.3455,-3.57706,0
75.4287,-49.2316,-3.58237,0
75.4148,-49.1184,-3.58726,0
75.3988,-49.0059,-3.59174,0
75.3803,-48.8942,-3.59577,0
75.3597,-48.7832,-3.5994,0
75.3368,-48.6731,-3.6026,0
75.3118,-48.5638,-3.6054,0
75.2846,-48.4554,-3.60778,0
75.2599,-48.3473,-3.60934,0
75.2363,-48.2394,-3.61022,0
75.2103,-48.1322,-3.61071,0
75.186,-48.0248,-3.61047,0
75.1746,-47.9145,-3.60845,0
75.1611,-47.804,-3.60602,0
75.1454,-47.6934,-3.60316,0
75.1277,-47.5827,-3.59987,0
75.1079,-47.472,-3.59613,0
75.0859,-47.3613,-3.59196,0
75.0617,-47.2506,-3.58735,0
75.0354,-47.14,-3.58229,0
75.0069,-47.0294,-3.57679,0
74.9762,-46.919,-3.57082,0
74.9433,-46.8087,-3.56441,0
74.9081,-46.6986,-3.55753,0
74.8708,-46.5887,-3.5502,0
74.8312,-46.4791,-3.5424,0
74.7875,-46.3708,-3.53433,0
74.741,-46.2633,-3.52587,0
74.6923,-46.1564,-3.51696,0
74.6397,-46.0511,-3.50778,0
74.583,-45.9478,-3.49837,0
74.5387,-45.8341,-3.48657,0
74.4926,-45.7197,-3.47414,0
74.4436,-45.6057,-3.46119,0
74.3917,-45.492,-3.44772,0
74.3371,-45.3787,-3.43375,0
74.2794,-45.2659,-3.41925,0
74.2188,-45.1537,-3.40423,0
74.1553,-45.0422,-3.38871,0
74.0887,-44.9315,-3.37265,0
74.0192,-44.8216,-3.35608,0
73.9466,-44.7128,-3.33899,0
73.8711,-44.6049,-3.32138,0
75.123,-51.5719,-3.35764,0
75.1423,-51.4473,-3.37394,0
75.1587,-51.3233,-3.3897,0
75.1725,-51.1999,-3.40491,0
75.1834,-51.0772,-3.41958,0
75.1916,-50.9552,-3.43372,0
75.2055,-50.8371,-3.44628,0
75.2295,-50.7239,-3.45682,0
75.2511,-50.6105,-3.46695,0
75.2701,-50.497,-3.47666,0
75.2858,-50.3832,-3.48605,0
75.2975,-50.2691,-3.49519,0
75.3066,-50.1553,-3.50389,0
75.3133,-50.0416,-3.51218,0
75.3175,-49.9282,-3.52005,0
75.3193,-49.8151,-3.52749,0
75.3187,-49.7024,-3.53451,0
75.3156,-49.5902,-3.54111,0
75.3102,-49.4784,-3.5473,0
75.3024,-49.3671,-3.55305,0
75.2924,-49.2564,-3.55841,0
75.2801,-49.1463,-3.56335,0
75.2655,-49.0368,-3.56787,0
75.2487,-48.9281,-3.57197,0
75.2297,-48.82,-3.57569,0
75.2084,-48.7128,-3.57899,0
75.1852,-48.6063,-3.58188,0
75.1597,-48.5007,-3.58437,0
75.1333,-48.3958,-3.58636,0
75.111,-48.2908,-3.58736,0
75.0866,-48.1864,-3.58797,0
75.0727,-48.08,-3.58696,0
75.0617,-47.9726,-3.58507,0
75.0488,-47.865,-3.58275,0
75.0338,-47.7574,-3.58001,0
75.0167,-47.6496,-3.57685,0
74.9977,-47.5419,-3.57325,0
74.9764,-47.4342,-3.56924,0
74.953,-47.3265,-3.56479,0
74.9277,-47.2188,-3.5599,0
74.9002,-47.1113,-3.55457,0
74.8705,-47.0039,-3.54881,0
74.8385,-46.8966,-3.54261,0
74.8035,-46.7901,-3.53606,0
74.7655,-46.6843,-3.52918,0
74.7252,-46.5789,-3.52187,0
74.6827,-46.4741,-3.51411,0
74.6377,-46.3697,-3.50593,0
74.5905,-46.2659,-3.49731,0
74.5399,-46.1635,-3.4884,0
74.4852,-46.0632,-3.47931,0
74.4281,-45.9637,-3.4698,0
74.3801,-45.8562,-3.45824,0
74.3327,-45.7464,-3.44572,0
74.2824,-45.637,-3.4327,0
74.2294,-45.5281,-3.41919,0
74.1736,-45.4196,-3.40519,0
74.1149,-45.3118,-3.39069,0
74.0535,-45.2047,-3.3757,0
73.9893,-45.0983,-3.3602,0
73.9221,-44.9929,-3.34421,0
73.852,-44.8884,-3.32773,0
73.7791,-44.7849,-3.31075,0
73.1497,-54.6709,-2.74426,0
73.2663,-54.5893,-2.76974,0
73.3802,-54.5049,-2.79499,0
73.4916,-54.4179,-2.81998,0
73.6004,-54.3283,-2.84473,0
73.7065,-54.2363,-2.86919,0
73.8098,-54.142,-2.89336,0
73.9102,-54.0454,-2.91723,0
74.0079,-53.9466,-2.94078,0
74.1027,-53.8458,-2.96399,0
74.1945,-53.743,-2.98688,0
74.2834,-53.6384,-3.00939,0
74.3695,-53.532,-3.03155,0
74.4525,-53.424,-3.05332,0
74.5284,-53.3101,-3.07568,0
74.5933,-53.1872,-3.09937,0
74.6546,-53.0634,-3.12257,0
74.7125,-52.939,-3.14524,0
74.7668,-52.8141,-3.16739,0
74.8178,-52.6886,-3.18903,0
74.8649,-52.5625,-3.21021,0
74.9087,-52.4361,-3.23086,0
74.9491,-52.3097,-3.25096,0
74.9863,-52.1833,-3.27051,0
75.0204,-52.057,-3.28951,0
75.0513,-51.9309,-3.30795,0
75.0791,-51.8051,-3.32583,0
75.1039,-51.6796,-3.34317,0
75.1258,-51.5546,-3.35994,0
75.1448,-51.43,-3.37618,0
75.1609,-51.3061,-3.39185,0
75.1741,-51.1828,-3.40698,0
75.1847,-51.0601,-3.42159,0
75.1925,-50.9383,-3.43564,0
75.2091,-50.8214,-3.44778,0
75.2327,-50.7081,-3.45826,0
75.2539,-50.5947,-3.46833,0
75.2725,-50.4812,-3.47799,0
75.2875,-50.3673,-3.48735,0
75.2989,-50.2533,-3.49642,0
75.3077,-50.1394,-3.50507,0
75.3141,-50.0258,-3.5133,0
75.3179,-49.9124,-3.52111,0
75.3194,-49.7994,-3.5285,0
75.3184,-49.6868,-3.53546,0
75.315,-49.5746,-3.54199,0
75.3093,-49.4628,-3.54812,0
75.3012,-49.3516,-3.55383,0
75.2909,-49.241,-3.55912,0
75.2782,-49.131,-3.564,0
75.2634,-49.0216,-3.56846,0
75.2461,-48.913,-3.57252,0
75.2268,-48.8051,-3.57616,0
75.2053,-48.6979,-3.57941,0
75.1817,-48.5916,-3.58226,0
75.1559,-48.4861,-3.58469,0
75.1303,-48.3812,-3.58652,0
75.1078,-48.2762,-3.58746,0
75.083,-48.1719,-3.58802,0
75.0712,-48.0651,-3.58673,0
75.0601,-47.9576,-3.58478,0
75.0468,-47.85,-3.58239,0
75.0316,-47.7424,-3.5796,0
75.0142,-47.6347,-3.57637,0
74.9948,-47.5269,-3.57273,0
74.9733,-47.4192,-3.56864,0
74.9497,-47.3115,-3.56413,0
74.924,-47.2039,-3.55919,0
74.8962,-47.0963,-3.55381,0
74.8661,-46.989,-3.54798,0
74.8339,-46.8817,-3.54171,0
74.7984,-46.7754,-3.53512,0
74.7601,-46.6696,-3.52819,0
74.7194,-46.5643,-3.52081,0
74.6765,-46.4595,-3.513,0
74.6312,-46.3552,-3.50476,0
74.5837,-46.2515,-3.49606,0
74.5324,-46.1495,-3.48717,0
74.4773,-46.0493,-3.47801,0
74.42,-45.9499,-3.46846,0
74.3737,-45.8409,-3.45653,0
74.3258,-45.7312,-3.44394,0
74.2752,-45.6218,-3.43086,0
74.2218,-45.5129,-3.41728,0
74.1656,-45.4046,-3.4032,0
74.1066,-45.2968,-3.38864,0
74.0448,-45.1898,-3.37358,0
73.9801,-45.0836,-3.35801,0
73.9125,-44.9783,-3.34195,0
73.842,-44.8739,-3.3254,0
73.7687,-44.7706,-3.30835,0
73.166,-54.6597,-2.74782,0
73.2822,-54.5777,-2.77327,0
73.3959,-54.493,-2.79848,0
73.507,-54.4056,-2.82344,0
73.6153,-54.3157,-2.84816,0
73.721,-54.2233,-2.87257,0
73.8239,-54.1287,-2.89671,0
73.924,-54.0317,-2.92053,0
74.0212,-53.9327,-2.94404,0
74.1156,-53.8316,-2.9672,0
74.2071,-53.7286,-2.99003,0
74.2956,-53.6237,-3.0125,0
74.3812,-53.5171,-3.0346,0
74.4639,-53.4088,-3.05632,0
74.5377,-53.293,-3.07901,0
74.602,-53.17,-3.10263,0
74.6629,-53.0462,-3.12575,0
74.7202,-52.9217,-3.14836,0
74.7741,-52.7966,-3.17044,0
74.8247,-52.6711,-3.192,0
74.8712,-52.5449,-3.21312,0
74.9145,-52.4185,-3.2337,0
74.9545,-52.2921,-3.25372,0
74.9912,-52.1657,-3.27319,0
75.0248,-52.0394,-3.29211,0
75.0554,-51.9134,-3.31048,0
75.0827,-51.7876,-3.32828,0
75.1072,-51.6622,-3.34553,0
75.1287,-51.5372,-3.36223,0
75.1471,-51.4128,-3.37839,0
75.1629,-51.2889,-3.394,0
75.1758,-51.1657,-3.40905,0
75.1859,-51.0431,-3.42358,0
75.1934,-50.9214,-3.43756,0
75.2125,-50.8056,-3.44925,0
75.2358,-50.6923,-3.45969,0
75.2566,-50.5789,-3.4697,0
75.2749,-50.4654,-3.47929,0
75.2892,-50.3515,-3.48863,0
75.3002,-50.2374,-3.49766,0
75.3087,-50.1236,-3.50624,0
75.3148,-50.01,-3.51442,0
75.3183,-49.8967,-3.52216,0
75.3194,-49.7837,-3.52949,0
75.318,-49.6711,-3.53638,0
75.3144,-49.559,-3.54288,0
75.3084,-49.4473,-3.54894,0
75.2999,-49.3362,-3.55459,0
75.2892,-49.2257,-3.55983,0
75.2762,-49.1157,-3.56465,0
75.2611,-49.0065,-3.56905,0
75.2437,-48.8979,-3.57306,0
75.224,-48.7901,-3.57665,0
75.2022,-48.6831,-3.57983,0
75.1783,-48.5768,-3.58261,0
75.1522,-48.4715,-3.58499,0
75.1273,-48.3665,-3.58668,0
75.1045,-48.2617,-3.58756,0
75.0795,-48.1574,-3.58806,0
75.0698,-48.0501,-3.58648,0
75.0583,-47.9426,-3.58446,0
75.0448,-47.835,-3.58203,0
75.0292,-47.7274,-3.57917,0
75.0116,-47.6197,-3.57589,0
74.9919,-47.5119,-3.57217,0
74.9701,-47.4042,-3.56804,0
74.9462,-47.2965,-3.56347,0
74.9202,-47.1889,-3.55846,0
74.892,-47.0814,-3.55301,0
74.8618,-46.974,-3.54713,0
74.8294,-46.8668,-3.5408,0
74.7932,-46.7606,-3.53419,0
74.7545,-46.6549,-3.52719,0
74.7136,-46.5497,-3.51975,0
74.6703,-46.4449,-3.51188,0
74.6248,-46.3407,-3.50357,0
74.577,-46.2371,-3.49482,0
74.5249,-46.1355,-3.48591,0
74.4695,-46.0354,-3.47672,0
74.4127,-45.9356,-3.46698,0
74.3672,-45.8256,-3.4548,0
74.3189,-45.7159,-3.44215,0
74.268,-45.6066,-3.429,0
74.2142,-45.4978,-3.41535,0
74.1576,-45.3895,-3.40121,0
74.0981,-45.2819,-3.38657,0
74.0359,-45.175,-3.37143,0
73.9708,-45.0689,-3.35581,0
73.9029,-44.9637,-3.33967,0
73.832,-44.8594,-3.32305,0
73.7583,-44.7563,-3.30594,0
74.9778,-51.4907,-3.34133,0
74.9977,-51.3706,-3.35725,0
75.0147,-51.2511,-3.37264,0
75.029,-51.132,-3.3875,0
75.0407,-51.0136,-3.40185,0
75.0496,-50.8959,-3.41568,0
75.0736,-50.7853,-3.4267,0
75.0973,-50.6754,-3.43701,0
75.1181,-50.5652,-3.44697,0
75.1349,-50.4545,-3.45674,0
75.1491,-50.3438,-3.46608,0
75.161,-50.2331,-3.47502,0
75.1704,-50.1226,-3.48355,0
75.1773,-50.0123,-3.49167,0
75.1818,-49.9023,-3.49938,0
75.184,-49.7925,-3.50667,0
75.1838,-49.6831,-3.51357,0
75.1813,-49.5741,-3.52005,0
75.1766,-49.4655,-3.52612,0
75.1694,-49.3574,-3.5318,0
75.1601,-49.2499,-3.53706,0
75.1486,-49.1429,-3.54193,0
75.1348,-49.0365,-3.54639,0
75.1188,-48.9308,-3.55045,0
75.1007,-48.8257,-3.55412,0
75.0805,-48.7214,-3.55739,0
75.0582,-48.6179,-3.56028,0
75.0338,-48.5151,-3.56277,0
75.0073,-48.4132,-3.56487,0
74.9858,-48.3111,-3.56587,0
74.9706,-48.208,-3.56561,0
74.9617,-48.1034,-3.5641,0
74.9508,-47.9987,-3.56219,0
74.9379,-47.8939,-3.55986,0
74.923,-47.789,-3.55713,0
74.906,-47.6841,-3.55398,0
74.8871,-47.5791,-3.55042,0
74.8661,-47.4742,-3.54643,0
74.843,-47.3694,-3.54202,0
74.8176,-47.2647,-3.53723,0
74.7889,-47.1607,-3.53212,0
74.7582,-47.0569,-3.52661,0
74.7252,-46.9535,-3.52069,0
74.69,-46.8504,-3.51432,0
74.6526,-46.7476,-3.50756,0
74.613,-46.6453,-3.50037,0
74.5712,-46.5435,-3.49276,0
74.5272,-46.4422,-3.48472,0
74.4809,-46.3415,-3.47627,0
74.4307,-46.2426,-3.46763,0
74.3772,-46.1453,-3.45873,0
74.3215,-46.0489,-3.44943,0
74.2636,-45.9533,-3.43971,0
74.2151,-45.849,-3.42773,0
74.1657,-45.7437,-3.41501,0
74.1136,-45.6389,-3.40182,0
74.0588,-45.5347,-3.38814,0
74.0013,-45.431,-3.374,0
73.9412,-45.3282,-3.35938,0
73.8782,-45.2261,-3.34429,0
73.8126,-45.1249,-3.32871,0
73.7441,-45.0247,-3.31267,0
73.6728,-44.9255,-3.29616,0
73.0621,-54.4774,-2.74368,0
73.1751,-54.3994,-2.76827,0
73.2856,-54.3186,-2.79267,0
73.3936,-54.2353,-2.81684,0
73.4991,-54.1495,-2.84075,0
73.602,-54.0612,-2.86442,0
73.7023,-53.9708,-2.8878,0
73.7998,-53.8781,-2.91089,0
73.8947,-53.7833,-2.93369,0
73.9868,-53.6865,-2.95617,0
74.0762,-53.5878,-2.97833,0
74.1627,-53.4873,-3.00014,0
74.2465,-53.385,-3.02162,0
74.32,-53.2732,-3.04459,0
74.3869,-53.1567,-3.06796,0
74.4505,-53.0393,-3.09087,0
74.5107,-52.921,-3.1133,0
74.5676,-52.802,-3.13526,0
74.6211,-52.6824,-3.15671,0
74.6714,-52.5622,-3.17768,0
74.7184,-52.4417,-3.19813,0
74.7623,-52.3209,-3.21808,0
74.803,-52.2,-3.23752,0
74.8402,-52.0787,-3.25649,0
74.8743,-51.9574,-3.27496,0
74.9053,-51.8361,-3.29291,0
74.9334,-51.7151,-3.31032,0
74.9585,-51.5943,-3.32722,0
74.9807,-51.4739,-3.34359,0
75.0002,-51.354,-3.35943,0
75.0169,-51.2345,-3.37474,0
75.0308,-51.1155,-3.38953,0
75.042,-50.9972,-3.40381,0
75.0512,-50.8797,-3.4175,0
75.077,-50.77,-3.42815,0
75.1005,-50.6601,-3.43841,0
75.1206,-50.5498,-3.44836,0
75.137,-50.4391,-3.45806,0
75.151,-50.3284,-3.46735,0
75.1624,-50.2177,-3.47623,0
75.1715,-50.1073,-3.4847,0
75.178,-49.997,-3.49277,0
75.1823,-49.887,-3.50042,0
75.1841,-49.7773,-3.50766,0
75.1836,-49.6679,-3.51449,0
75.1809,-49.559,-3.52091,0
75.1757,-49.4505,-3.52695,0
75.1684,-49.3424,-3.53256,0
75.1587,-49.235,-3.53777,0
75.1468,-49.128,-3.54257,0
75.1327,-49.0218,-3.54697,0
75.1165,-48.9161,-3.55099,0
75.098,-48.8112,-3.55461,0
75.0776,-48.707,-3.55782,0
75.0549,-48.6035,-3.56065,0
75.0302,-48.5009,-3.56307,0
75.0044,-48.399,-3.56503,0
74.9827,-48.2969,-3.56598,0
74.9695,-48.1934,-3.56542,0
74.9603,-48.0888,-3.56386,0
74.9491,-47.9841,-3.56189,0
74.9359,-47.8793,-3.55951,0
74.9207,-47.7744,-3.55672,0
74.9035,-47.6695,-3.55352,0
74.8843,-47.5645,-3.54989,0
74.863,-47.4596,-3.54584,0
74.8396,-47.3548,-3.54137,0
74.8138,-47.2502,-3.53654,0
74.7848,-47.1463,-3.53138,0
74.7537,-47.0425,-3.52581,0
74.7204,-46.9391,-3.51981,0
74.6849,-46.836,-3.51341,0
74.6473,-46.7334,-3.50658,0
74.6073,-46.6311,-3.49933,0
74.5652,-46.5294,-3.49167,0
74.5209,-46.4282,-3.48358,0
74.4743,-46.3275,-3.47506,0
74.4234,-46.229,-3.46642,0
74.3696,-46.1318,-3.45746,0
74.3135,-46.0355,-3.4481,0
74.2555,-45.94,-3.43832,0
74.2084,-45.8343,-3.42599,0
74.1586,-45.7291,-3.4132,0
74.1062,-45.6243,-3.39994,0
74.051,-45.5202,-3.3862,0
73.9931,-45.4167,-3.372,0
73.9326,-45.3139,-3.3573,0
73.8692,-45.2119,-3.34215,0
73.8031,-45.1109,-3.32652,0
73.7343,-45.0108,-3.3104,0
73.6627,-44.9118,-3.29382,0
73.078,-54.4667,-2.74711,0
73.1906,-54.3883,-2.77169,0
73.3008,-54.3071,-2.79605,0
73.4084,-54.2235,-2.82018,0
73.5135,-54.1373,-2.84406,0
73.6161,-54.0488,-2.86768,0
73.7159,-53.958,-2.89103,0
73.8131,-53.865,-2.91408,0
73.9077,-53.77,-2.93683,0
73.9995,-53.6729,-2.95927,0
74.0884,-53.5739,-2.98138,0
74.1745,-53.4731,-3.00315,0
74.2579,-53.3707,-3.02457,0
74.3295,-53.2571,-3.04787,0
74.3959,-53.1404,-3.07118,0
74.4591,-53.0229,-3.09402,0
74.5187,-52.9045,-3.11638,0
74.5752,-52.7854,-3.13828,0
74.6284,-52.6657,-3.15966,0
74.6782,-52.5455,-3.18055,0
74.7248,-52.4249,-3.20094,0
74.7681,-52.3041,-3.22082,0
74.8083,-52.1831,-3.24019,0
74.8452,-52.0618,-3.25909,0
74.8788,-51.9405,-3.27749,0
74.9094,-51.8193,-3.29536,0
74.937,-51.6983,-3.31271,0
74.9617,-51.5776,-3.32953,0
74.9836,-51.4572,-3.34582,0
75.0027,-51.3373,-3.36159,0
75.019,-51.2179,-3.37683,0
75.0325,-51.099,-3.39155,0
75.0434,-50.9808,-3.40574,0
75.0549,-50.8645,-3.419,0
75.0804,-50.7547,-3.42961,0
75.1035,-50.6448,-3.4398,0
75.123,-50.5344,-3.44973,0
75.1391,-50.4237,-3.45938,0
75.1527,-50.3129,-3.46862,0
75.1638,-50.2024,-3.47744,0
75.1726,-50.0919,-3.48585,0
75.1788,-49.9817,-3.49385,0
75.1827,-49.8717,-3.50145,0
75.1842,-49.7621,-3.50863,0
75.1834,-49.6527,-3.51541,0
75.1802,-49.5439,-3.52178,0
75.1748,-49.4354,-3.52774,0
75.1671,-49.3274,-3.53331,0
75.1571,-49.22,-3.53846,0
75.1449,-49.1132,-3.54321,0
75.1305,-49.007,-3.54756,0
75.1141,-48.9015,-3.55152,0
75.0953,-48.7966,-3.55507,0
75.0745,-48.6925,-3.55824,0
75.0516,-48.5892,-3.561,0
75.0266,-48.4867,-3.56339,0
75.0016,-48.3848,-3.56519,0
74.9795,-48.2828,-3.56607,0
74.9684,-48.1789,-3.56524,0
74.9589,-48.0743,-3.56361,0
74.9474,-47.9695,-3.56158,0
74.9339,-47.8647,-3.55915,0
74.9184,-47.7598,-3.5563,0
74.9009,-47.6549,-3.55303,0
74.8814,-47.5499,-3.54935,0
74.8598,-47.4451,-3.54525,0
74.8362,-47.3402,-3.54071,0
74.8098,-47.2358,-3.53585,0
74.7806,-47.1318,-3.53062,0
74.7492,-47.0281,-3.525,0
74.7156,-46.9247,-3.51895,0
74.6798,-46.8217,-3.51249,0
74.6418,-46.7191,-3.5056,0
74.6016,-46.617,-3.49829,0
74.5592,-46.5153,-3.49056,0
74.5145,-46.4141,-3.4824,0
74.4677,-46.3136,-3.47383,0
74.416,-46.2155,-3.46519,0
74.3619,-46.1184,-3.45618,0
74.3055,-46.0222,-3.44677,0
74.2491,-45.9252,-3.43662,0
74.2016,-45.8196,-3.42424,0
74.1515,-45.7145,-3.41139,0
74.0986,-45.6098,-3.39806,0
74.0431,-45.5057,-3.38425,0
73.9849,-45.4023,-3.36997,0
73.9239,-45.2996,-3.35523,0
73.8602,-45.1978,-3.34,0
73.7937,-45.0969,-3.3243,0
73.7244,-44.9969,-3.30813,0
73.6526,-44.8981,-3.29148,0
74.8412,-51.4141,-3.32599,0
74.8614,-51.2984,-3.34153,0
74.8789,-51.183,-3.35655,0
74.8937,-51.0681,-3.37109,0
74.906,-50.9537,-3.38511,0
74.9227,-50.8426,-3.39767,0
74.9481,-50.736,-3.4082,0
74.9697,-50.6287,-3.41854,0
74.9888,-50.5213,-3.42848,0
75.0055,-50.4138,-3.43803,0
75.0198,-50.3064,-3.44717,0
75.0317,-50.199,-3.45592,0
75.0413,-50.0917,-3.46427,0
75.0484,-49.9846,-3.47223,0
75.0533,-49.8778,-3.47979,0
75.0559,-49.7712,-3.48695,0
75.0561,-49.6649,-3.49371,0
75.054,-49.5589,-3.50008,0
75.0498,-49.4534,-3.50606,0
75.0433,-49.3483,-3.51163,0
75.0345,-49.2437,-3.51681,0
75.0238,-49.1397,-3.52161,0
75.0108,-49.0362,-3.52601,0
74.9956,-48.9333,-3.53003,0
74.9784,-48.8311,-3.53365,0
74.959,-48.7296,-3.5369,0
74.9376,-48.6289,-3.53976,0
74.9142,-48.5288,-3.54223,0
74.8889,-48.4296,-3.54433,0
74.8719,-48.3296,-3.54491,0
74.8648,-48.2277,-3.5438,0
74.8558,-48.1257,-3.54226,0
74.8449,-48.0236,-3.54035,0
74.832,-47.9214,-3.53802,0
74.8169,-47.8193,-3.53534,0
74.7992,-47.7173,-3.5323,0
74.7794,-47.6154,-3.52887,0
74.7576,-47.5136,-3.52505,0
74.7336,-47.412,-3.52082,0
74.7076,-47.3106,-3.5162,0
74.6794,-47.2094,-3.51117,0
74.6491,-47.1085,-3.50574,0
74.6166,-47.0079,-3.4999,0
74.582,-46.9077,-3.49366,0
74.5453,-46.8078,-3.48701,0
74.5064,-46.7084,-3.47994,0
74.4653,-46.6095,-3.47246,0
74.4221,-46.5112,-3.46458,0
74.3767,-46.4134,-3.45628,0
74.327,-46.3178,-3.4479,0
74.2746,-46.2233,-3.43919,0
74.2202,-46.1297,-3.43008,0
74.1636,-46.037,-3.42058,0
74.1048,-45.9452,-3.41068,0
74.0557,-45.8442,-3.39833,0
74.0045,-45.7433,-3.38544,0
73.9508,-45.6429,-3.3721,0
73.8945,-45.5432,-3.3583,0
73.8355,-45.4443,-3.34402,0
73.7738,-45.3462,-3.32931,0
73.7095,-45.249,-3.31415,0
73.6426,-45.1527,-3.29853,0
73.573,-45.0576,-3.28246,0
72.9802,-54.2962,-2.74312,0
73.0896,-54.2213,-2.76691,0
73.1969,-54.1439,-2.7905,0
73.3016,-54.064,-2.81388,0
73.4041,-53.9816,-2.83703,0
73.504,-53.897,-2.85993,0
73.6012,-53.8101,-2.88257,0
73.6961,-53.7211,-2.90494,0
73.7884,-53.63,-2.92702,0
73.878,-53.5369,-2.94881,0
73.9649,-53.442,-2.97028,0
74.0484,-53.3444,-2.99166,0
74.1205,-53.2353,-3.01511,0
74.1892,-53.1249,-3.03814,0
74.2548,-53.0135,-3.06075,0
74.317,-52.9011,-3.08292,0
74.3761,-52.7878,-3.10464,0
74.432,-52.6738,-3.12591,0
74.4847,-52.5591,-3.14671,0
74.5343,-52.4439,-3.16704,0
74.5808,-52.3282,-3.1869,0
74.6241,-52.2122,-3.20627,0
74.6645,-52.096,-3.22516,0
74.7017,-51.9796,-3.24356,0
74.7361,-51.8631,-3.26147,0
74.7674,-51.7466,-3.27888,0
74.7959,-51.6303,-3.2958,0
74.8216,-51.5141,-3.31222,0
74.8441,-51.398,-3.32819,0
74.864,-51.2823,-3.34364,0
74.8812,-51.167,-3.35861,0
74.8956,-51.0521,-3.37307,0
74.9075,-50.9378,-3.38703,0
74.9265,-50.8278,-3.39914,0
74.9512,-50.7211,-3.40966,0
74.9724,-50.6138,-3.41995,0
74.9912,-50.5063,-3.42984,0
75.0077,-50.3989,-3.43932,0
75.0216,-50.2914,-3.44841,0
75.0332,-50.1841,-3.45711,0
75.0424,-50.0768,-3.46541,0
75.0493,-49.9698,-3.47331,0
75.0538,-49.8629,-3.48081,0
75.056,-49.7563,-3.48791,0
75.0559,-49.6501,-3.49463,0
75.0536,-49.5442,-3.50093,0
75.0491,-49.4387,-3.50686,0
75.0422,-49.3337,-3.51237,0
75.0332,-49.2292,-3.51751,0
75.022,-49.1252,-3.52224,0
75.0087,-49.0218,-3.52659,0
74.9934,-48.9191,-3.53055,0
74.9758,-48.817,-3.53413,0
74.9562,-48.7156,-3.53732,0
74.9345,-48.6149,-3.54012,0
74.9109,-48.515,-3.54256,0
74.8852,-48.4159,-3.5446,0
74.8709,-48.3154,-3.54479,0
74.8637,-48.2135,-3.5436,0
74.8545,-48.1115,-3.54202,0
74.8432,-48.0094,-3.54005,0
74.8301,-47.9072,-3.53767,0
74.8145,-47.8051,-3.53494,0
74.7966,-47.7031,-3.53185,0
74.7765,-47.6012,-3.52837,0
74.7544,-47.4995,-3.52448,0
74.7302,-47.3979,-3.52021,0
74.7038,-47.2965,-3.51552,0
74.6753,-47.1953,-3.51045,0
74.6447,-47.0945,-3.50496,0
74.6119,-46.9939,-3.49905,0
74.577,-46.8937,-3.49276,0
74.54,-46.794,-3.48605,0
74.5009,-46.6946,-3.47893,0
74.4594,-46.5958,-3.4714,0
74.4159,-46.4975,-3.46345,0
74.3702,-46.3998,-3.45508,0
74.3199,-46.3046,-3.44671,0
74.2672,-46.2102,-3.43795,0
74.2124,-46.1167,-3.42879,0
74.1555,-46.0241,-3.41924,0
74.0977,-45.9316,-3.40907,0
74.0488,-45.8302,-3.39658,0
73.9972,-45.7293,-3.38362,0
73.9431,-45.629,-3.3702,0
73.8863,-45.5294,-3.35633,0
73.827,-45.4306,-3.34201,0
73.7651,-45.3326,-3.32723,0
73.7004,-45.2355,-3.312,0
73.6331,-45.1394,-3.29631,0
73.5632,-45.0444,-3.28018,0
72.9955,-54.2859,-2.74644,0
73.1047,-54.2107,-2.7702,0
73.2116,-54.1329,-2.79377,0
73.3161,-54.0527,-2.81712,0
73.418,-53.97,-2.84023,0
73.5176,-53.885,-2.8631,0
73.6147,-53.7978,-2.8857,0
73.7091,-53.7085,-2.90804,0
73.801,-53.6171,-2.93007,0
73.8903,-53.5238,-2.95182,0
73.9768,-53.4286,-2.97326,0
74.0587,-53.3293,-2.99494,0
74.1302,-53.22,-3.01834,0
74.1986,-53.1095,-3.04132,0
74.2636,-52.9979,-3.06387,0
74.3255,-52.8854,-3.08597,0
74.3841,-52.772,-3.10764,0
74.4395,-52.6579,-3.12883,0
74.4918,-52.5431,-3.14957,0
74.5409,-52.4278,-3.16984,0
74.587,-52.3121,-3.18963,0
74.6299,-52.196,-3.20894,0
74.6698,-52.0798,-3.22775,0
74.7066,-51.9633,-3.24609,0
74.7406,-51.8469,-3.26393,0
74.7716,-51.7304,-3.28127,0
74.7996,-51.6141,-3.29811,0
74.8249,-51.4979,-3.31447,0
74.847,-51.3819,-3.33037,0
74.8665,-51.2662,-3.34576,0
74.8834,-51.1509,-3.36065,0
74.8974,-51.0362,-3.37504,0
74.909,-50.922,-3.38893,0
74.9302,-50.813,-3.40063,0
74.9543,-50.7061,-3.41112,0
74.9752,-50.5988,-3.42134,0
74.9937,-50.4914,-3.43117,0
75.0097,-50.3839,-3.44061,0
75.0234,-50.2765,-3.44965,0
75.0345,-50.1691,-3.45829,0
75.0434,-50.0619,-3.46653,0
75.05,-49.9549,-3.47437,0
75.0542,-49.8481,-3.48182,0
75.0561,-49.7415,-3.48887,0
75.0558,-49.6353,-3.49552,0
75.0531,-49.5295,-3.50178,0
75.0482,-49.4241,-3.50764,0
75.0411,-49.3191,-3.51311,0
75.0318,-49.2147,-3.51819,0
75.0203,-49.1108,-3.52288,0
75.0067,-49.0075,-3.52717,0
74.991,-48.9048,-3.53108,0
74.9731,-48.8028,-3.53459,0
74.9533,-48.7015,-3.53774,0
74.9313,-48.6009,-3.54048,0
74.9073,-48.5012,-3.54286,0
74.8821,-48.4021,-3.54478,0
74.8701,-48.3012,-3.54464,0
74.8625,-48.1993,-3.54341,0
74.853,-48.0973,-3.54177,0
74.8416,-47.9952,-3.53974,0
74.8281,-47.893,-3.5373,0
74.8122,-47.7909,-3.53453,0
74.7939,-47.6889,-3.53139,0
74.7735,-47.587,-3.52785,0
74.7512,-47.4853,-3.52392,0
74.7266,-47.3837,-3.51958,0
74.6999,-47.2824,-3.51485,0
74.6712,-47.1813,-3.5097,0
74.6402,-47.0804,-3.50416,0
74.6072,-46.98,-3.49821,0
74.572,-46.8798,-3.49185,0
74.5347,-46.7801,-3.48508,0
74.4952,-46.6809,-3.4779,0
74.4536,-46.5821,-3.47031,0
74.4098,-46.4839,-3.46231,0
74.3634,-46.3865,-3.45393,0
74.3127,-46.2914,-3.44551,0
74.2597,-46.1971,-3.43669,0
74.2046,-46.1038,-3.42748,0
74.1474,-46.0113,-3.41787,0
74.091,-45.9174,-3.40736,0
74.0417,-45.8161,-3.39479,0
73.9898,-45.7153,-3.38178,0
73.9354,-45.6151,-3.3683,0
73.8783,-45.5156,-3.35437,0
73.8186,-45.4169,-3.33997,0
73.7562,-45.319,-3.32514,0
73.6912,-45.222,-3.30985,0
73.6235,-45.1261,-3.2941,0
73.5533,-45.0313,-3.27791,0
74.711,-51.3413,-3.31173,0
74.7318,-51.2297,-3.32685,0
74.7498,-51.1183,-3.34151,0
74.7654,-51.0074,-3.35569,0
74.7783,-50.8969,-3.36938,0
74.8022,-50.7921,-3.38061,0
74.8257,-50.688,-3.39113,0
74.8471,-50.5839,-3.40123,0
74.8661,-50.4796,-3.41095,0
74.8828,-50.3753,-3.42028,0
74.8971,-50.2709,-3.42924,0
74.9091,-50.1666,-3.43781,0
74.9187,-50.0624,-3.44599,0
74.9262,-49.9584,-3.45379,0
74.9313,-49.8545,-3.46119,0
74.9341,-49.7508,-3.46823,0
74.9348,-49.6475,-3.47486,0
74.9331,-49.5445,-3.48112,0
74.9294,-49.4418,-3.48698,0
74.9234,-49.3396,-3.49247,0
74.9154,-49.2379,-3.49757,0
74.9051,-49.1366,-3.5023,0
74.8928,-49.0359,-3.50664,0
74.8784,-48.9358,-3.5106,0
74.862,-48.8363,-3.51419,0
74.8434,-48.7374,-3.5174,0
74.823,-48.6393,-3.52024,0
74.8008,-48.5419,-3.52268,0
74.7777,-48.445,-3.52465,0
74.768,-48.3464,-3.52439,0
74.7605,-48.2471,-3.52329,0
74.7511,-48.1478,-3.52181,0
74.7396,-48.0484,-3.51995,0
74.7261,-47.9489,-3.51771,0
74.7107,-47.8496,-3.51509,0
74.6932,-47.7502,-3.51208,0
74.6737,-47.651,-3.50869,0
74.6521,-47.5519,-3.5049,0
74.6284,-47.453,-3.50073,0
74.6027,-47.3542,-3.49618,0
74.5749,-47.2558,-3.49122,0
74.5451,-47.1576,-3.48588,0
74.5132,-47.0597,-3.48012,0
74.4792,-46.9622,-3.47398,0
74.443,-46.8651,-3.46744,0
74.4049,-46.7685,-3.46049,0
74.3646,-46.6724,-3.45316,0
74.3222,-46.5768,-3.44541,0
74.2776,-46.4818,-3.43729,0
74.2284,-46.3892,-3.42914,0
74.1772,-46.2974,-3.42061,0
74.1238,-46.2065,-3.4117,0
74.0685,-46.1165,-3.4024,0
74.0112,-46.0274,-3.39271,0
73.9519,-45.9392,-3.38259,0
73.9016,-45.8418,-3.36999,0
73.8489,-45.7451,-3.35696,0
73.7935,-45.6491,-3.34347,0
73.7358,-45.5538,-3.32956,0
73.6755,-45.4593,-3.31521,0
73.6126,-45.3658,-3.30043,0
73.5472,-45.2733,-3.28521,0
73.4792,-45.1818,-3.26956,0
72.9032,-54.1259,-2.74259,0
73.0095,-54.0541,-2.76562,0
73.1134,-53.9798,-2.78846,0
73.2152,-53.903,-2.81111,0
73.3146,-53.8239,-2.83353,0
73.4117,-53.7425,-2.85571,0
73.5064,-53.659,-2.87766,0
73.5987,-53.5733,-2.89934,0
73.6884,-53.4857,-2.92075,0
73.7756,-53.3961,-2.94189,0
73.8559,-53.2993,-2.96407,0
73.9293,-53.1962,-2.98714,0
73.9996,-53.0918,-3.00983,0
74.0669,-52.9861,-3.03212,0
74.1309,-52.8794,-3.05401,0
74.192,-52.7716,-3.07549,0
74.25,-52.663,-3.09653,0
74.3048,-52.5535,-3.11715,0
74.3567,-52.4434,-3.13734,0
74.4055,-52.3328,-3.15707,0
74.4514,-52.2216,-3.17635,0
74.4943,-52.1101,-3.19517,0
74.5342,-51.9982,-3.21354,0
74.5713,-51.8862,-3.23144,0
74.6054,-51.774,-3.24887,0
74.6368,-51.6618,-3.26583,0
74.6653,-51.5497,-3.28231,0
74.6911,-51.4376,-3.29832,0
74.7141,-51.3257,-3.31386,0
74.7345,-51.2141,-3.32892,0
74.7522,-51.1029,-3.34351,0
74.7673,-50.992,-3.35762,0
74.78,-50.8815,-3.37124,0
74.8056,-50.7776,-3.3821,0
74.8289,-50.6736,-3.39256,0
74.8499,-50.5694,-3.4026,0
74.8686,-50.4651,-3.41227,0
74.8849,-50.3608,-3.42156,0
74.8989,-50.2564,-3.43046,0
74.9106,-50.1521,-3.43897,0
74.92,-50.0479,-3.4471,0
74.927,-49.9439,-3.45484,0
74.9318,-49.8401,-3.46219,0
74.9344,-49.7365,-3.46917,0
74.9347,-49.6332,-3.47575,0
74.9328,-49.5302,-3.48195,0
74.9287,-49.4276,-3.48778,0
74.9224,-49.3254,-3.4932,0
74.9141,-49.2237,-3.49825,0
74.9035,-49.1226,-3.50292,0
74.8909,-49.0219,-3.50722,0
74.8763,-48.9219,-3.51113,0
74.8595,-48.8225,-3.51466,0
74.8407,-48.7237,-3.51782,0
74.82,-48.6257,-3.52061,0
74.7975,-48.5283,-3.52299,0
74.7753,-48.4315,-3.52476,0
74.767,-48.3326,-3.52426,0
74.7593,-48.2333,-3.52311,0
74.7495,-48.1339,-3.52157,0
74.7379,-48.0345,-3.51966,0
74.7241,-47.9351,-3.51736,0
74.7084,-47.8357,-3.5147,0
74.6906,-47.7364,-3.51163,0
74.6708,-47.6372,-3.50819,0
74.6489,-47.5381,-3.50436,0
74.6249,-47.4392,-3.50013,0
74.599,-47.3405,-3.49551,0
74.5709,-47.2421,-3.4905,0
74.5408,-47.1439,-3.48509,0
74.5086,-47.0461,-3.47929,0
74.4743,-46.9487,-3.47309,0
74.438,-46.8517,-3.4665,0
74.3995,-46.7551,-3.45949,0
74.3588,-46.659,-3.4521,0
74.3161,-46.5635,-3.4443,0
74.2709,-46.4689,-3.43617,0
74.2214,-46.3764,-3.42798,0
74.1699,-46.2847,-3.4194,0
74.1163,-46.1939,-3.41043,0
74.0607,-46.104,-3.40107,0
74.0029,-46.0151,-3.39134,0
73.945,-45.9256,-3.38087,0
73.8945,-45.8283,-3.36821,0
73.8413,-45.7317,-3.3551,0
73.7857,-45.6357,-3.34156,0
73.7275,-45.5406,-3.32758,0
73.6669,-45.4463,-3.31318,0
73.6036,-45.3529,-3.29833,0
73.5379,-45.2605,-3.28305,0
73.4695,-45.1692,-3.26735,0
72.9181,-54.1161,-2.74581,0
73.0241,-54.0439,-2.76882,0
73.1277,-53.9692,-2.79163,0
73.2292,-53.8921,-2.81424,0
73.3284,-53.8127,-2.83663,0
73.4251,-53.731,-2.85878,0
73.5194,-53.6472,-2.8807,0
73.6113,-53.5612,-2.90234,0
73.7006,-53.4733,-2.92372,0
73.7875,-53.3834,-2.94481,0
73.8663,-53.285,-2.96732,0
73.9393,-53.1818,-2.99032,0
74.0091,-53.0771,-3.01295,0
74.076,-52.9713,-3.03519,0
74.1396,-52.8644,-3.05702,0
74.2002,-52.7565,-3.07843,0
74.2577,-52.6478,-3.09943,0
74.3123,-52.5383,-3.11999,0
74.3637,-52.4281,-3.1401,0
74.4121,-52.3173,-3.15978,0
74.4576,-52.2061,-3.179,0
74.5,-52.0945,-3.19777,0
74.5396,-51.9827,-3.21607,0
74.5762,-51.8706,-3.23389,0
74.6099,-51.7584,-3.25126,0
74.6409,-51.6462,-3.26815,0
74.6691,-51.5341,-3.28457,0
74.6944,-51.422,-3.30051,0
74.7171,-51.3102,-3.31598,0
74.737,-51.1986,-3.33098,0
74.7544,-51.0874,-3.34549,0
74.7692,-50.9766,-3.35954,0
74.7837,-50.8671,-3.37278,0
74.809,-50.7632,-3.38357,0
74.8319,-50.6591,-3.39398,0
74.8527,-50.5549,-3.40397,0
74.871,-50.4506,-3.41359,0
74.887,-50.3462,-3.42281,0
74.9007,-50.2419,-3.43167,0
74.912,-50.1376,-3.44012,0
74.9211,-50.0335,-3.4482,0
74.9278,-49.9294,-3.45589,0
74.9323,-49.8256,-3.4632,0
74.9345,-49.7221,-3.47011,0
74.9345,-49.6188,-3.47664,0
74.9323,-49.5159,-3.48279,0
74.928,-49.4134,-3.48855,0
74.9214,-49.3112,-3.49393,0
74.9127,-49.2096,-3.49892,0
74.902,-49.1085,-3.50355,0
74.889,-49.008,-3.50778,0
74.8741,-48.908,-3.51164,0
74.857,-48.8087,-3.51513,0
74.838,-48.7101,-3.51823,0
74.817,-48.6121,-3.52096,0
74.7943,-48.5149,-3.52329,0
74.773,-48.4179,-3.52487,0
74.7661,-48.3188,-3.52412,0
74.7581,-48.2195,-3.52292,0
74.748,-48.1201,-3.52133,0
74.7361,-48.0207,-3.51937,0
74.722,-47.9213,-3.51702,0
74.706,-47.8219,-3.51429,0
74.688,-47.7226,-3.51118,0
74.6678,-47.6234,-3.50767,0
74.6457,-47.5243,-3.50379,0
74.6215,-47.4254,-3.4995,0
74.5952,-47.3268,-3.49484,0
74.5669,-47.2284,-3.48977,0
74.5364,-47.1303,-3.48431,0
74.5039,-47.0325,-3.47845,0
74.4694,-46.9351,-3.4722,0
74.4327,-46.8382,-3.46555,0
74.3939,-46.7417,-3.45849,0
74.353,-46.6457,-3.45104,0
74.31,-46.5503,-3.44319,0
74.2641,-46.456,-3.43505,0
74.2144,-46.3636,-3.42681,0
74.1625,-46.272,-3.41817,0
74.1087,-46.1814,-3.40915,0
74.0527,-46.0916,-3.39973,0
73.9948,-46.0028,-3.38994,0
73.9381,-45.912,-3.37913,0
73.8872,-45.8148,-3.36642,0
73.8337,-45.7183,-3.35324,0
73.7777,-45.6224,-3.33965,0
73.7192,-45.5274,-3.32561,0
73.6582,-45.4332,-3.31113,0
73.5946,-45.3399,-3.29623,0
73.5284,-45.2477,-3.28089,0
73.4598,-45.1566,-3.26513,0
74.588,-51.2724,-3.29829,0
74.609,-51.1645,-3.31306,0
74.6273,-51.0569,-3.32738,0
74.6432,-50.9496,-3.34124,0
74.662,-50.845,-3.35377,0
74.6876,-50.7441,-3.36444,0
74.7108,-50.643,-3.37472,0
74.7319,-50.5417,-3.38465,0
74.7505,-50.4403,-3.39419,0
74.7669,-50.3389,-3.40336,0
74.7811,-50.2374,-3.41215,0
74.793,-50.136,-3.42056,0
74.8027,-50.0346,-3.42859,0
74.8101,-49.9334,-3.43624,0
74.8154,-49.8324,-3.44352,0
74.8186,-49.7316,-3.45042,0
74.8195,-49.631,-3.45694,0
74.8183,-49.5308,-3.46307,0
74.815,-49.4309,-3.46884,0
74.8096,-49.3314,-3.47423,0
74.8021,-49.2323,-3.47924,0
74.7927,-49.1337,-3.48388,0
74.7811,-49.0356,-3.48815,0
74.7675,-48.9381,-3.49205,0
74.752,-48.8411,-3.49557,0
74.7345,-48.7448,-3.49873,0
74.715,-48.6491,-3.50153,0
74.6936,-48.5541,-3.50395,0
74.6777,-48.4589,-3.50509,0
74.6664,-48.3629,-3.50506,0
74.6589,-48.2661,-3.50395,0
74.6495,-48.1692,-3.50245,0
74.638,-48.0723,-3.5006,0
74.6246,-47.9753,-3.49837,0
74.6093,-47.8785,-3.49576,0
74.5919,-47.7817,-3.49278,0
74.5727,-47.6849,-3.48944,0
74.5513,-47.5884,-3.48569,0
74.528,-47.492,-3.48157,0
74.5027,-47.3959,-3.47707,0
74.4754,-47.3,-3.47219,0
74.446,-47.2044,-3.46692,0
74.4147,-47.1091,-3.46127,0
74.3812,-47.0142,-3.45521,0
74.3458,-46.9198,-3.44879,0
74.3082,-46.8257,-3.44196,0
74.2686,-46.7322,-3.43475,0
74.227,-46.6393,-3.42716,0
74.1827,-46.5473,-3.41926,0
74.1345,-46.4573,-3.41128,0
74.0844,-46.368,-3.40293,0
74.0323,-46.2796,-3.39419,0
73.978,-46.1922,-3.38508,0
73.9219,-46.1056,-3.37561,0
73.8637,-46.0201,-3.36576,0
73.8043,-45.935,-3.35539,0
73.7525,-45.8416,-3.34264,0
73.6983,-45.749,-3.32948,0
73.6417,-45.6571,-3.3159,0
73.5826,-45.5661,-3.3019,0
73.5211,-45.4761,-3.28748,0
73.4571,-45.387,-3.27264,0
73.3907,-45.299,-3.25739,0
72.8307,-53.9658,-2.7421,0
72.9339,-53.8967,-2.76441,0
73.035,-53.8253,-2.78655,0
73.1338,-53.7514,-2.80849,0
73.2305,-53.6753,-2.83023,0
73.3248,-53.597,-2.85174,0
73.417,-53.5166,-2.87302,0
73.5067,-53.4341,-2.89407,0
73.5938,-53.3492,-2.91494,0
73.6713,-53.2535,-2.93794,0
73.7459,-53.1561,-2.9606,0
73.8176,-53.0573,-2.98291,0
73.8862,-52.9572,-3.00487,0
73.952,-52.8559,-3.02647,0
74.0148,-52.7535,-3.04767,0
74.0746,-52.6501,-3.06849,0
74.1315,-52.5457,-3.08891,0
74.1854,-52.4406,-3.10892,0
74.2364,-52.3347,-3.12851,0
74.2845,-52.2283,-3.14768,0
74.3298,-52.1213,-3.16642,0
74.372,-52.0139,-3.18473,0
74.4116,-51.9062,-3.2026,0
74.4484,-51.7982,-3.22002,0
74.4823,-51.6901,-3.23699,0
74.5135,-51.5819,-3.25352,0
74.542,-51.4736,-3.26959,0
74.5679,-51.3655,-3.2852,0
74.5911,-51.2574,-3.30037,0
74.6116,-51.1496,-3.31508,0
74.6297,-51.042,-3.32933,0
74.6452,-50.9347,-3.34313,0
74.6657,-50.8309,-3.35528,0
74.691,-50.73,-3.36589,0
74.7139,-50.6289,-3.37612,0
74.7345,-50.5276,-3.386,0
74.7529,-50.4262,-3.39549,0
74.769,-50.3248,-3.4046,0
74.7828,-50.2233,-3.41333,0
74.7944,-50.1219,-3.4217,0
74.8038,-50.0205,-3.42967,0
74.811,-49.9193,-3.43728,0
74.816,-49.8183,-3.4445,0
74.8187,-49.7176,-3.45134,0
74.8195,-49.617,-3.45781,0
74.818,-49.5168,-3.4639,0
74.8143,-49.417,-3.46961,0
74.8087,-49.3176,-3.47495,0
74.8009,-49.2186,-3.47991,0
74.7911,-49.12,-3.4845,0
74.7793,-49.022,-3.48872,0
74.7655,-48.9246,-3.49256,0
74.7496,-48.8277,-3.49603,0
74.7319,-48.7314,-3.49914,0
74.7121,-48.6359,-3.50188,0
74.6908,-48.5409,-3.50423,0
74.6754,-48.4456,-3.50522,0
74.6654,-48.3494,-3.50493,0
74.6577,-48.2526,-3.50376,0
74.648,-48.1557,-3.50222,0
74.6362,-48.0588,-3.50032,0
74.6226,-47.9619,-3.49803,0
74.607,-47.865,-3.49538,0
74.5895,-47.7682,-3.49234,0
74.5698,-47.6715,-3.48893,0
74.5483,-47.575,-3.48515,0
74.5247,-47.4786,-3.48097,0
74.4991,-47.3825,-3.47642,0
74.4714,-47.2866,-3.47148,0
74.4418,-47.1911,-3.46615,0
74.4102,-47.0959,-3.46045,0
74.3763,-47.001,-3.45435,0
74.3406,-46.9066,-3.44786,0
74.3028,-46.8127,-3.44098,0
74.263,-46.7193,-3.43372,0
74.221,-46.6264,-3.42606,0
74.1761,-46.5347,-3.41817,0
74.1277,-46.4448,-3.41014,0
74.0773,-46.3557,-3.40174,0
74.0248,-46.2674,-3.39295,0
73.9703,-46.1801,-3.38379,0
73.914,-46.0937,-3.37426,0
73.8555,-46.0083,-3.36436,0
73.7973,-45.9219,-3.35365,0
73.7452,-45.8287,-3.34084,0
73.6905,-45.7362,-3.32761,0
73.6336,-45.6444,-3.31397,0
73.5741,-45.5535,-3.29992,0
73.5123,-45.4636,-3.28543,0
73.448,-45.3747,-3.27054,0
73.3812,-45.2868,-3.25526,0
72.8452,-53.9563,-2.74521,0
72.9481,-53.8869,-2.76751,0
73.0488,-53.8151,-2.78961,0
73.1474,-53.741,-2.81153,0
73.2438,-53.6646,-2.83323,0
73.3378,-53.5859,-2.85472,0
73.4296,-53.5052,-2.87597,0
73.5191,-53.4224,-2.89697,0
73.6048,-53.336,-2.91817,0
73.6819,-53.24,-2.94111,0
73.7561,-53.1424,-2.96373,0
73.8273,-53.0435,-2.986,0
73.8956,-52.9432,-3.0079,0
73.9609,-52.8417,-3.02944,0
74.0233,-52.7392,-3.0506,0
74.0827,-52.6356,-3.07135,0
74.1391,-52.5311,-3.09172,0
74.1927,-52.4259,-3.11168,0
74.2433,-52.32,-3.1312,0
74.2909,-52.2134,-3.15032,0
74.3358,-52.1064,-3.16899,0
74.3778,-51.999,-3.18724,0
74.417,-51.8912,-3.20505,0
74.4533,-51.7832,-3.22241,0
74.4868,-51.675,-3.23932,0
74.5177,-51.5668,-3.25578,0
74.5458,-51.4586,-3.27179,0
74.5713,-51.3504,-3.28735,0
74.5941,-51.2424,-3.30245,0
74.6143,-51.1346,-3.31709,0
74.632,-51.027,-3.33128,0
74.6472,-50.9198,-3.34501,0
74.6694,-50.8169,-3.35677,0
74.6943,-50.7159,-3.36734,0
74.7169,-50.6148,-3.37753,0
74.7373,-50.5135,-3.38734,0
74.7553,-50.4121,-3.39678,0
74.7711,-50.3106,-3.40584,0
74.7846,-50.2092,-3.41452,0
74.7959,-50.1078,-3.42283,0
74.805,-50.0065,-3.43076,0
74.8119,-49.9053,-3.4383,0
74.8165,-49.8043,-3.44548,0
74.819,-49.7036,-3.45226,0
74.8194,-49.6031,-3.45868,0
74.8176,-49.5029,-3.46472,0
74.8138,-49.4031,-3.47038,0
74.8077,-49.3037,-3.47566,0
74.7997,-49.2048,-3.48057,0
74.7896,-49.1063,-3.48511,0
74.7775,-49.0084,-3.48927,0
74.7634,-48.911,-3.49306,0
74.7473,-48.8143,-3.49649,0
74.7292,-48.7181,-3.49954,0
74.7092,-48.6226,-3.50223,0
74.6888,-48.5277,-3.50438,0
74.673,-48.4324,-3.50532,0
74.6645,-48.336,-3.50479,0
74.6565,-48.2391,-3.50357,0
74.6464,-48.1422,-3.50197,0
74.6345,-48.0453,-3.50002,0
74.6205,-47.9484,-3.49768,0
74.6047,-47.8515,-3.49497,0
74.5868,-47.7547,-3.49189,0
74.5669,-47.6581,-3.48843,0
74.5451,-47.5616,-3.48458,0
74.5212,-47.4652,-3.48036,0
74.4953,-47.3691,-3.47575,0
74.4674,-47.2733,-3.47076,0
74.4375,-47.1778,-3.46538,0
74.4055,-47.0827,-3.45963,0
74.3716,-46.9879,-3.45347,0
74.3355,-46.8935,-3.44693,0
74.2974,-46.7997,-3.44,0
74.2573,-46.7063,-3.43268,0
74.2151,-46.6135,-3.42496,0
74.1695,-46.5222,-3.41707,0
74.1209,-46.4323,-3.40899,0
74.0701,-46.3433,-3.40053,0
74.0174,-46.2552,-3.3917,0
73.9627,-46.168,-3.38249,0
73.9059,-46.0817,-3.3729,0
73.8472,-45.9965,-3.36295,0
73.7902,-45.9089,-3.35188,0
73.7377,-45.8158,-3.33903,0
73.6828,-45.7233,-3.32573,0
73.6255,-45.6317,-3.31204,0
73.5657,-45.541,-3.29793,0
73.5035,-45.4512,-3.28339,0
73.4389,-45.3624,-3.26844,0
73.3718,-45.2747,-3.25309,0
74.4716,-51.2073,-3.28558,0
74.4927,-51.1029,-3.30001,0
74.5113,-50.9988,-3.31401,0
74.5275,-50.8949,-3.32756,0
74.5534,-50.7964,-3.33863,0
74.5787,-50.6984,-3.34907,0
74.6016,-50.6001,-3.35914,0
74.6223,-50.5017,-3.36884,0
74.6409,-50.4031,-3.37819,0
74.6573,-50.3044,-3.38716,0
74.6714,-50.2057,-3.39577,0
74.6834,-50.107,-3.40401,0
74.6931,-50.0084,-3.4119,0
74.7007,-49.9099,-3.4194,0
74.7062,-49.8115,-3.42654,0
74.7096,-49.7134,-3.4333,0
74.7108,-49.6155,-3.4397,0
74.71,-49.5178,-3.44574,0
74.7071,-49.4205,-3.45141,0
74.7021,-49.3236,-3.45672,0
74.6952,-49.2271,-3.46165,0
74.6862,-49.131,-3.46622,0
74.6752,-49.0354,-3.47043,0
74.6623,-48.9403,-3.47428,0
74.6474,-48.8457,-3.47776,0
74.6307,-48.7518,-3.48089,0
74.612,-48.6585,-3.48365,0
74.5966,-48.5652,-3.48537,0
74.582,-48.4721,-3.48641,0
74.5692,-48.3787,-3.48657,0
74.5617,-48.2842,-3.48545,0
74.5523,-48.1897,-3.48396,0
74.5409,-48.0951,-3.48211,0
74.5276,-48.0006,-3.47988,0
74.5124,-47.9061,-3.4773,0
74.4953,-47.8117,-3.47435,0
74.4762,-47.7174,-3.47103,0
74.4552,-47.6233,-3.46733,0
74.4323,-47.5294,-3.46327,0
74.4073,-47.4356,-3.45883,0
74.3804,-47.3422,-3.45402,0
74.3514,-47.2491,-3.44882,0
74.3205,-47.1563,-3.44325,0
74.2876,-47.0639,-3.43731,0
74.2528,-46.9719,-3.43098,0
74.2159,-46.8804,-3.42427,0
74.1771,-46.7893,-3.4172,0
74.1362,-46.6989,-3.40973,0
74.0923,-46.6097,-3.40207,0
74.0451,-46.5221,-3.39425,0
73.996,-46.4353,-3.38607,0
73.9448,-46.3493,-3.37752,0
73.8919,-46.2643,-3.36859,0
73.8369,-46.1801,-3.35932,0
